VERSION .7
FIELDS x y z intensity
SIZE 4 4 4 4
TYPE F F F F
COUNT 1 1 1 1
WIDTH 1229
HEIGHT 1
VIEWPOINT 0 0 0 1 0 0 0
POINTS 1229
DATA ascii
13.866371 -21.774229 2.790687 10.000000
33.291485 26.414898 1.892656 6.000000
84.972824 -14.112875 9.996843 1.000000
9.944098 -6.576865 1.449086 4.000000
13.892586 -21.648237 2.758030 23.000000
33.147102 26.498896 1.904800 11.000000
84.792877 -13.779016 9.954758 1.000000
17.691004 -11.611979 2.553330 10.000000
13.919127 -21.515696 2.725008 16.000000
33.042706 26.595514 1.926112 9.000000
95.543343 25.618635 8.810828 1.000000
17.721842 -11.548316 2.544749 16.000000
13.969308 -21.420704 2.696876 10.000000
26.074306 21.159805 1.536598 6.000000
95.597778 26.009176 8.824580 8.000000
17.730011 -11.456895 2.524637 12.000000
6.014016 -9.145027 1.144605 20.000000
17.765005 -11.387424 2.508719 27.000000
5.978945 -9.026353 1.122676 1.000000
32.460274 26.729652 1.960929 17.000000
79.027985 -11.669837 9.129990 1.000000
17.808464 -11.323406 2.490303 18.000000
5.957750 -8.916403 1.100617 19.000000
32.319279 26.812927 1.973026 10.000000
79.020645 -11.387049 9.110378 1.000000
17.815016 -11.240438 2.478263 16.000000
5.930929 -8.809537 1.082483 8.000000
32.829014 27.439581 2.040208 11.000000
80.009583 -11.230373 9.191018 1.000000
17.849503 -11.170941 2.458720 14.000000
32.582233 27.436789 2.053462 24.000000
93.886383 27.365385 8.762223 1.000000
80.227081 -10.975477 9.197230 1.000000
17.865738 -11.090181 2.447900 17.000000
32.501675 27.553673 2.076494 13.000000
94.014687 27.777042 8.783641 22.000000
17.905806 -11.037276 2.437465 12.000000
30.185032 25.789566 1.955637 10.000000
94.101761 28.160286 8.818187 1.000000
17.921385 -10.947848 2.422441 16.000000
6.355124 -9.150640 1.098274 34.000000
30.040323 25.857004 1.973193 22.000000
93.775749 28.437626 8.831828 12.000000
17.960932 -10.886099 2.407779 16.000000
6.377754 -9.111760 1.086607 10.000000
30.097303 26.080296 1.996542 4.000000
17.980499 -10.808045 2.393947 15.000000
6.164650 -8.745429 1.037812 8.000000
99.003326 30.798195 9.362922 17.000000
18.021938 -10.751760 2.379864 19.000000
6.158097 -8.671693 1.024112 23.000000
98.581055 31.063572 9.333693 28.000000
18.051329 -10.675527 2.367193 20.000000
6.170293 -8.615396 1.009181 3.000000
32.521030 28.802547 2.246286 9.000000
98.170868 31.330320 9.323798 13.000000
18.065687 -10.594837 2.352863 20.000000
6.181768 -8.571234 0.998960 255.000000
32.411419 28.938459 2.277137 9.000000
79.227875 -8.522964 8.895858 1.000000
18.099680 -10.530036 2.337687 13.000000
6.229782 -8.568268 0.992068 37.000000
96.281517 31.488251 9.236827 12.000000
79.204208 -8.226874 8.889755 1.000000
18.147118 -10.468798 2.335140 22.000000
6.258610 -8.541918 0.984209 26.000000
31.696363 28.700212 2.278341 11.000000
95.911720 31.756914 9.194675 25.000000
79.113937 -7.952406 8.862563 1.000000
18.157263 -10.394555 2.317210 22.000000
6.302188 -8.541837 0.977260 39.000000
31.578411 28.804747 2.314844 14.000000
95.273163 31.914936 9.179447 22.000000
18.180803 -10.315546 2.304064 18.000000
6.480848 -8.713755 0.994034 34.000000
31.631500 29.056105 2.341193 9.000000
94.954460 32.195736 9.195341 21.000000
18.375853 -10.345812 2.316972 10.000000
6.375903 -8.513548 0.964243 19.000000
94.617661 32.468681 9.191794 12.000000
18.883125 -10.531807 2.360307 15.000000
6.587601 -8.723022 0.981339 26.000000
93.849922 32.571842 9.128201 1.000000
77.294777 -6.653680 8.592393 1.000000
19.364515 -10.711845 2.404066 19.000000
6.428564 -8.450930 0.943907 55.000000
93.402763 32.800716 9.131190 25.000000
77.623764 -6.395474 8.598781 1.000000
19.906914 -10.925827 2.450853 11.000000
6.441810 -8.410316 0.934298 23.000000
30.871813 29.204231 2.413128 5.000000
78.829712 -6.217877 8.729913 3.000000
20.443064 -11.127413 2.507954 16.000000
6.509507 -8.434482 0.932131 30.000000
30.146795 28.718441 2.393441 10.000000
79.487854 -5.976722 8.786231 2.000000
21.048876 -11.357357 2.568706 15.000000
30.184795 28.966412 2.419522 1.000000
91.388306 33.172333 9.019064 8.000000
21.631184 -11.569389 2.617253 10.000000
30.245872 29.238722 2.462460 10.000000
90.041176 33.093021 8.932931 27.000000
22.340307 -11.848559 2.684642 9.000000
6.095618 -7.723933 0.836623 11.000000
30.101509 29.313356 2.488872 10.000000
89.862671 33.366077 8.959901 30.000000
22.943359 -12.060862 2.742631 10.000000
32.478310 31.849558 2.718470 17.000000
89.758919 33.720284 8.996163 12.000000
23.711901 -12.354156 2.814914 16.000000
30.442682 30.073009 2.587277 29.000000
90.293556 34.263241 9.061086 24.000000
24.193136 -12.497705 2.857237 19.000000
32.362209 32.204441 2.776423 13.000000
90.568756 34.747952 9.135582 22.000000
25.240982 -12.922024 2.955362 17.000000
32.182667 32.261398 2.803078 13.000000
90.694557 35.159893 9.194852 1.000000
25.994278 -13.187651 3.027597 29.000000
31.899889 32.201965 2.819988 13.000000
26.325932 -13.240564 3.045229 25.000000
6.602854 -8.004208 0.838493 39.000000
31.493355 32.025501 2.825887 12.000000
90.823067 36.014416 9.304472 22.000000
26.513229 -13.213232 3.050821 10.000000
6.320502 -7.604975 0.788670 32.000000
31.340216 32.104298 2.838409 12.000000
91.343674 36.590355 9.370835 13.000000
29.141226 -14.389836 3.324199 7.000000
6.524682 -7.792370 0.803438 21.000000
91.109032 36.884449 9.395191 35.000000
30.143417 -14.754064 3.426707 2.000000
6.494360 -7.701382 0.789313 27.000000
26.003723 27.021868 2.425124 9.000000
91.697296 37.476994 9.503511 1.000000
6.484169 -7.632357 0.777635 255.000000
25.772371 26.978672 2.438911 9.000000
91.397224 37.727215 9.520838 27.000000
6.473550 -7.563501 0.766039 7.000000
25.713926 27.115774 2.455870 9.000000
91.695137 38.281712 9.567801 29.000000
34.138206 -16.239227 3.806645 9.000000
6.564850 -7.610821 0.764557 120.000000
25.619730 27.215532 2.489144 9.000000
91.538574 38.573303 9.634756 28.000000
36.100925 -17.026302 4.005111 10.000000
25.628988 27.416494 2.525645 5.000000
91.702606 39.057739 9.702856 35.000000
31.246252 33.648521 3.122389 7.000000
91.756912 39.440853 9.757582 25.000000
38.270359 -17.715822 4.194450 19.000000
31.124611 33.764874 3.154789 12.000000
91.649689 39.793369 9.796835 24.000000
38.503712 -17.652767 4.197975 14.000000
6.821957 -7.686456 0.756513 184.000000
30.892147 33.760151 3.159796 13.000000
92.066238 40.356773 9.856360 22.000000
122.844231 -0.857628 13.345480 27.000000
38.711399 -17.584715 4.198914 22.000000
6.913762 -7.732622 0.752626 131.000000
25.620371 28.195940 2.657351 8.000000
92.355911 40.887943 9.938946 15.000000
123.047714 -0.408043 13.345605 10.000000
38.922142 -17.508636 4.199740 14.000000
28.268272 31.340054 2.973495 10.000000
92.506592 41.360825 10.007124 32.000000
123.234947 -0.021509 13.387600 10.000000
39.137188 -17.449558 4.186474 10.000000
28.185093 31.479055 3.006509 10.000000
92.598824 41.790516 10.068631 28.000000
39.347897 -17.370899 4.187018 10.000000
27.830576 31.291288 3.009129 10.000000
92.375023 42.058788 10.095185 1.000000
39.882488 -17.440811 4.237400 8.000000
6.783945 -7.374900 0.700704 16.000000
27.812212 31.491318 3.048496 10.000000
92.477623 42.515400 10.177182 25.000000
39.997734 -17.316854 4.227515 10.000000
93.124199 43.207058 10.301068 9.000000
40.164276 -17.214430 4.207628 23.000000
92.930428 43.531792 10.333397 22.000000
40.495781 -17.189440 4.220547 18.000000
93.207703 44.078983 10.418479 20.000000
40.674587 -17.089668 4.217084 9.000000
22.160959 25.837376 2.553458 4.000000
93.020195 44.388290 10.432950 24.000000
40.807243 -16.969706 4.208794 17.000000
7.169718 -7.515801 0.689911 19.000000
22.013237 25.856323 2.571181 8.000000
93.158340 44.874138 10.503286 32.000000
40.872189 -16.829611 4.193838 17.000000
7.214750 -7.507718 0.686116 34.000000
21.978296 26.007803 2.602126 9.000000
93.306526 45.347473 10.574365 26.000000
41.082466 -16.740356 4.193466 10.000000
7.277254 -7.517416 0.682100 9.000000
21.697145 25.857649 2.603214 8.000000
93.478569 45.855385 10.667923 27.000000
41.375740 -16.683292 4.201421 8.000000
7.237522 -7.424338 0.670491 26.000000
21.613819 25.950920 2.628330 8.000000
93.618538 46.350517 10.740063 25.000000
119.237381 4.705693 12.942336 2.000000
41.592278 -16.602053 4.201728 11.000000
20.916834 25.302086 2.583658 4.000000
93.737579 46.817574 10.809364 23.000000
119.294716 5.125080 12.950422 2.000000
41.816269 -16.514034 4.202382 9.000000
16.171204 -16.347147 1.450707 28.000000
20.944242 25.516092 2.621220 5.000000
93.906700 47.332874 10.904450 27.000000
42.016998 -16.415545 4.200596 16.000000
16.097866 -16.154156 1.422823 11.000000
20.695166 25.401924 2.624701 8.000000
94.111404 47.910782 10.987726 26.000000
42.237930 -16.332148 4.201014 10.000000
7.733605 -7.701279 0.675185 7.000000
22.292952 27.568834 2.865052 18.000000
94.280006 48.370171 11.062489 23.000000
42.488850 -16.250410 4.212010 22.000000
7.763065 -7.679512 0.665965 2.000000
22.280958 27.761499 2.901583 9.000000
94.330978 48.833889 11.145624 20.000000
42.786995 -16.184927 4.219553 16.000000
16.074059 -15.784908 1.366070 26.000000
94.478462 49.350166 11.221965 26.000000
43.003155 -16.095331 4.219140 9.000000
8.019865 -7.818065 0.669327 206.000000
20.947884 26.486582 2.800062 8.000000
94.608353 49.839130 11.314602 22.000000
47.700169 -17.654293 4.655691 15.000000
8.020106 -7.761174 0.659150 198.000000
20.862062 26.577703 2.819407 8.000000
92.985168 6.322788 10.141206 8.000000
47.224403 -17.281677 4.576492 10.000000
8.004208 -7.691866 0.649800 169.000000
20.767948 26.648804 2.842994 9.000000
92.987320 6.649101 10.143910 28.000000
47.278267 -17.123827 4.558486 14.000000
8.892283 -8.482817 0.710758 152.000000
20.073946 25.953924 2.795600 8.000000
94.755379 51.234043 11.530919 1.000000
92.261681 6.937191 10.083797 10.000000
47.286186 -16.940216 4.553521 10.000000
8.891053 -8.419617 0.699611 76.000000
20.808624 27.108530 2.935765 8.000000
94.550331 51.571926 11.566918 1.000000
47.618206 -16.843788 4.561170 7.000000
8.900207 -8.366625 0.693636 19.000000
19.770590 25.943216 2.825016 9.000000
50.106785 -17.517698 4.774680 9.000000
8.938551 -8.341168 0.683534 75.000000
20.650677 27.305088 2.989132 8.000000
45.682953 -15.792357 4.339349 9.000000
8.912947 -8.259260 0.672985 53.000000
45.727821 -15.620475 4.321141 19.000000
8.947092 -8.230155 0.666897 21.000000
19.636587 26.354101 2.921595 9.000000
45.701256 -15.424584 4.296288 9.000000
8.966392 -8.187441 0.659718 22.000000
19.455742 26.312130 2.932045 10.000000
38.423309 -12.818986 3.600748 8.000000
8.974483 -8.134711 0.649634 20.000000
21.125538 28.790518 3.224702 8.000000
38.494873 -12.686257 3.588814 8.000000
8.993355 -8.091970 0.642496 18.000000
20.933926 28.718105 3.234223 9.000000
67.894112 39.277721 8.673373 18.000000
46.194595 -15.054114 4.293422 9.000000
9.018155 -8.057498 0.633788 25.000000
19.457613 26.919182 3.052036 9.000000
67.835899 39.576595 8.726036 8.000000
45.973736 -14.787109 4.250597 13.000000
9.025460 -8.004731 0.625902 24.000000
19.398926 27.026312 3.080295 20.000000
67.383003 39.596634 8.711355 1.000000
45.861134 -14.583255 4.235692 25.000000
9.051315 -7.968584 0.617224 18.000000
19.346548 27.152922 3.110486 9.000000
66.975960 39.719994 8.720557 20.000000
46.119320 -14.479444 4.246106 19.000000
9.043101 -7.902708 0.608380 101.000000
18.943893 26.795067 3.084628 26.000000
66.633629 39.800468 8.733374 18.000000
46.202045 -14.319596 4.231847 23.000000
8.466195 -7.349181 0.560079 17.000000
19.328920 27.573820 3.194968 10.000000
46.443165 -14.199100 4.240366 9.000000
9.077275 -7.818720 0.592226 31.000000
19.343313 27.779619 3.235604 8.000000
9.094639 -7.775795 0.587309 23.000000
19.352909 28.011780 3.284346 27.000000
65.804626 40.277752 8.817727 3.000000
9.096734 -7.720053 0.577263 30.000000
19.251297 28.084255 3.314541 9.000000
65.218529 40.248341 8.786001 9.000000
9.109920 -7.673983 0.570060 27.000000
9.122962 -7.627980 0.560802 24.000000
19.175291 28.407143 3.384683 8.000000
9.135710 -7.581920 0.553644 30.000000
18.947578 28.292871 3.392778 7.000000
63.924976 40.427311 8.791493 9.000000
49.772064 -14.055932 4.452046 6.000000
9.142996 -7.534224 0.548344 25.000000
63.852047 40.709579 8.842113 17.000000
49.655102 -13.835931 4.410048 9.000000
9.159316 -7.491476 0.537325 31.000000
21.294250 32.294430 3.908815 9.000000
63.464569 40.790474 8.849142 2.000000
9.152029 -7.429699 0.529111 27.000000
21.127203 32.298054 3.940687 9.000000
63.216564 40.943600 8.887745 3.000000
44.913540 -12.160660 3.972728 4.000000
9.171562 -7.389952 0.524551 32.000000
21.151327 32.582634 3.986930 9.000000
44.990742 -12.013163 3.959451 5.000000
9.198941 -7.356570 0.514273 27.000000
21.139889 32.827847 4.048750 10.000000
61.710075 40.582211 8.793997 16.000000
9.194680 -7.298071 0.508430 28.000000
20.271173 31.721539 3.930122 9.000000
130.374802 21.653549 14.917638 32.000000
77.548698 -20.098783 6.811594 24.000000
9.216246 -7.262894 0.506166 27.000000
20.198185 31.864113 3.971872 17.000000
61.064922 40.786861 8.808426 10.000000
130.191696 22.113779 14.905861 19.000000
77.609657 -19.811308 6.782363 24.000000
9.243079 -7.229282 0.497974 28.000000
20.156532 32.057640 4.013491 9.000000
60.837532 40.942806 8.861109 17.000000
130.244278 22.614161 14.944635 27.000000
77.703651 -19.546646 6.770489 24.000000
9.246042 -7.177136 0.490573 20.000000
20.447920 32.774403 4.128359 9.000000
9.260614 -7.134208 0.483824 32.000000
20.409464 32.981327 4.179210 9.000000
79.098534 -19.282145 6.879528 5.000000
9.266991 -7.085149 0.478719 29.000000
20.549147 33.480671 4.267594 10.000000
60.444794 41.635822 8.986009 18.000000
131.043365 24.192837 15.182815 13.000000
9.269216 -7.033167 0.471396 31.000000
20.577559 33.790974 4.332901 10.000000
60.555660 42.040276 9.077579 1.000000
130.868225 24.656845 15.196436 10.000000
9.279162 -6.987274 0.464505 26.000000
60.678391 42.440140 9.144369 8.000000
79.850777 -18.552477 6.869450 22.000000
9.296963 -6.947428 0.456003 23.000000
19.376959 32.325302 4.187437 9.000000
60.744308 42.818649 9.230573 10.000000
79.981880 -18.288916 6.889615 21.000000
9.294739 -6.900365 0.452805 27.000000
20.446383 34.408264 4.482425 10.000000
60.687622 43.096573 9.284338 16.000000
80.185661 -18.026506 6.886986 24.000000
9.326638 -6.866146 0.444915 13.000000
20.348810 34.531639 4.517087 10.000000
60.565636 43.344753 9.329524 17.000000
80.384895 -17.762035 6.869523 17.000000
17.243374 -12.597149 0.809166 35.000000
20.184135 34.513344 4.548319 6.000000
60.423439 43.562725 9.397018 15.000000
80.672264 -17.515667 6.903057 3.000000
17.366280 -12.598826 0.801719 35.000000
60.339638 43.839314 9.448587 15.000000
36.532082 -7.798461 3.117105 7.000000
17.522287 -12.604957 0.802806 30.000000
19.740273 34.343254 4.569292 10.000000
60.230267 44.081894 9.495210 18.000000
36.458538 -7.643153 3.101872 27.000000
17.564753 -12.538070 0.787554 33.000000
19.524454 34.216133 4.579035 10.000000
60.198605 44.398460 9.608689 15.000000
36.616478 -7.536265 3.132650 7.000000
17.537048 -12.430713 0.780703 39.000000
19.196022 33.928856 4.572523 10.000000
60.115009 44.677910 9.661284 15.000000
47.748840 -9.653875 4.073587 6.000000
17.568182 -12.360872 0.776409 34.000000
18.980024 33.863541 4.587761 9.000000
59.954624 44.884441 9.700500 10.000000
47.696625 -9.461489 4.057600 164.000000
17.597610 -12.276263 0.760527 33.000000
18.811243 33.811020 4.606858 9.000000
59.881886 45.173416 9.782019 21.000000
47.963646 -9.331876 4.103143 162.000000
17.593147 -12.186616 0.754843 30.000000
18.826315 34.131966 4.682558 10.000000
59.803860 45.442974 9.861794 20.000000
48.265804 -9.215925 4.117579 120.000000
17.658501 -12.136353 0.748245 37.000000
18.815016 34.409088 4.759695 17.000000
59.632595 45.658566 9.941099 11.000000
18.808655 34.397457 4.785861 10.000000
59.697674 45.708393 10.045431 12.000000
18.903458 34.285969 4.758698 10.000000
59.846424 45.491795 10.030324 14.000000
48.253288 -9.230994 4.229057 109.000000
17.667519 -12.147090 0.789933 35.000000
18.806231 33.815899 4.675580 9.000000
59.920593 45.202614 9.988255 13.000000
47.938263 -9.352991 4.230189 150.000000
17.597778 -12.194370 0.803775 35.000000
18.930605 33.761551 4.649759 9.000000
59.932617 44.884289 9.950782 17.000000
47.671867 -9.482524 4.235362 132.000000
17.593348 -12.286989 0.824378 37.000000
19.119356 33.807114 4.638150 9.000000
60.132725 44.691074 9.916823 25.000000
17.576439 -12.371270 0.836976 33.000000
19.344597 33.928448 4.636379 10.000000
60.195412 44.412327 9.874967 26.000000
36.452259 -7.528997 3.269567 7.000000
17.567173 -12.461281 0.853764 30.000000
19.586363 34.061729 4.643509 10.000000
60.251186 44.113354 9.844266 21.000000
36.359940 -7.648987 3.276850 12.000000
17.553284 -12.548390 0.874178 27.000000
19.769022 34.103352 4.630661 3.000000
60.344799 43.859154 9.794751 13.000000
36.453651 -7.801677 3.300844 7.000000
17.527065 -12.626972 0.886501 28.000000
20.055920 34.307842 4.640254 10.000000
60.474365 43.615486 9.776530 7.000000
17.383268 -12.620416 0.892828 34.000000
60.528229 43.333954 9.734295 10.000000
20.474854 34.483582 4.626014 10.000000
60.622086 43.065952 9.684340 10.000000
9.333385 -6.878651 0.498109 25.000000
20.588688 34.401188 4.603304 8.000000
79.875977 -18.294043 7.370988 1.000000
9.303819 -6.909626 0.505985 23.000000
20.294937 33.630032 4.489201 10.000000
9.298071 -6.958377 0.517210 26.000000
20.567295 33.800671 4.487036 9.000000
60.386261 41.938293 9.483461 9.000000
130.677261 24.597248 16.114937 10.000000
9.296215 -7.010289 0.524641 28.000000
20.660406 33.688316 4.460710 10.000000
60.467430 41.666973 9.459132 18.000000
131.009155 24.186520 16.121763 16.000000
9.282096 -7.053157 0.533455 29.000000
20.560638 33.251556 4.385188 9.000000
60.518341 41.391247 9.405413 18.000000
130.752243 23.643858 16.102905 21.000000
79.311974 -19.378176 7.459012 4.000000
9.255884 -7.086903 0.541594 34.000000
20.652319 33.140644 4.345540 10.000000
60.768097 41.235966 9.381593 17.000000
130.738983 23.170465 16.067701 10.000000
9.273119 -7.154163 0.550279 28.000000
20.257343 32.217972 4.215012 9.000000
60.843090 40.977409 9.358020 20.000000
130.532349 22.640709 16.008537 11.000000
77.382660 -19.523352 7.347326 23.000000
9.246607 -7.187925 0.556411 26.000000
20.253679 31.988688 4.166564 9.000000
61.054672 40.795429 9.328431 16.000000
130.357208 22.118486 16.000425 13.000000
77.715347 -19.881636 7.413373 24.000000
9.223746 -7.224545 0.566873 21.000000
20.334520 31.857422 4.139119 9.000000
61.268330 40.629559 9.326313 12.000000
77.879128 -20.227945 7.478510 24.000000
9.232253 -7.285963 0.575206 27.000000
21.128630 32.835537 4.234860 9.000000
61.669571 40.570995 9.325419 14.000000
49.653698 -13.100533 4.781939 4.000000
9.205250 -7.319564 0.581364 38.000000
21.219980 32.725903 4.209586 9.000000
61.817680 40.359962 9.300276 1.000000
49.575508 -13.255899 4.787650 7.000000
9.181859 -7.356056 0.591878 27.000000
21.229866 32.479740 4.160500 9.000000
49.563412 -13.447503 4.809292 9.000000
9.183167 -7.409882 0.597756 26.000000
21.235867 32.230358 4.104431 9.000000
63.515610 40.807613 9.456925 8.000000
49.584972 -13.648665 4.825262 27.000000
9.167245 -7.452674 0.606763 33.000000
18.789383 28.301723 3.588480 8.000000
63.693882 40.608742 9.395360 14.000000
49.608143 -13.841510 4.841257 9.000000
9.151126 -7.495446 0.615790 27.000000
9.142599 -7.544621 0.623297 28.000000
19.110622 28.343336 3.568779 8.000000
64.774368 40.648640 9.457380 5.000000
9.129990 -7.590637 0.630564 23.000000
19.389442 28.530699 3.570866 8.000000
64.795120 40.331409 9.411716 10.000000
47.794373 -13.903642 4.731479 9.000000
9.113164 -7.633310 0.641733 26.000000
19.529015 28.510731 3.552919 9.000000
65.323921 40.344872 9.427202 5.000000
47.519562 -14.003795 4.726533 22.000000
9.111663 -7.689055 0.647782 23.000000
19.355427 28.046816 3.485475 27.000000
30.025803 18.392626 4.317169 8.000000
47.510048 -14.190451 4.739462 24.000000
9.094397 -7.731731 0.659013 31.000000
19.411535 27.908749 3.447160 26.000000
30.053581 18.265680 4.293279 8.000000
9.089843 -7.782685 0.666932 22.000000
19.412806 27.703775 3.412298 17.000000
30.257633 18.238169 4.300336 2.000000
46.232742 -14.170069 4.664626 9.000000
9.083671 -7.835283 0.674883 22.000000
18.967756 26.858643 3.287760 27.000000
66.665405 39.851032 9.440175 10.000000
46.232002 -14.355418 4.678356 25.000000
8.474177 -7.363894 0.641429 18.000000
19.298204 27.115103 3.304323 16.000000
66.893730 39.671230 9.411520 1.000000
45.944893 -14.451114 4.671602 27.000000
9.043962 -7.917390 0.695169 21.000000
19.431768 27.102015 3.287464 10.000000
67.485077 39.688313 9.418736 8.000000
45.928001 -14.631002 4.692289 27.000000
9.040906 -7.973435 0.701397 28.000000
19.429974 26.890829 3.252926 10.000000
30.204033 17.621536 4.200705 15.000000
46.013222 -14.835264 4.714776 15.000000
9.007429 -8.002794 0.711622 17.000000
20.918230 28.728163 3.459388 9.000000
30.252499 17.501507 4.186120 13.000000
46.051582 -15.034186 4.741393 21.000000
9.023796 -8.073874 0.721500 23.000000
21.140491 28.821442 3.454298 9.000000
30.301111 17.381714 4.165452 10.000000
38.425026 -12.700422 3.982336 8.000000
9.001275 -8.113322 0.728440 21.000000
19.439816 26.300192 3.137596 17.000000
30.339571 17.277325 4.150897 9.000000
38.398010 -12.840343 3.998427 8.000000
8.974794 -8.149271 0.737203 17.000000
19.584692 26.313198 3.123770 8.000000
30.355764 17.139513 4.138319 9.000000
92.991676 8.675689 11.202873 1.000000
46.206673 -15.640096 4.826086 28.000000
8.962800 -8.198515 0.749321 67.000000
30.454824 17.041559 4.111992 8.000000
46.030556 -15.786713 4.814271 16.000000
8.939837 -8.237896 0.754180 128.000000
20.633652 27.312290 3.205574 8.000000
30.428682 16.894674 4.100875 8.000000
46.054688 -15.965872 4.856670 9.000000
8.937789 -8.290983 0.762731 163.000000
19.784765 25.971218 3.040228 9.000000
30.556118 16.812260 4.090806 6.000000
50.054436 -17.548431 5.294239 9.000000
8.916334 -8.335005 0.774319 179.000000
20.794241 27.119179 3.164194 8.000000
92.418571 7.273500 11.087147 7.000000
8.918022 -8.398044 0.785720 173.000000
20.932026 27.073109 3.138480 8.000000
95.264755 51.509460 12.607207 14.000000
92.641426 6.965744 11.110897 1.000000
47.457928 -17.029787 5.068230 9.000000
8.894123 -8.437258 0.792779 190.000000
20.282717 26.035543 3.003564 8.000000
94.997002 50.936947 12.510033 13.000000
47.093380 -17.084761 5.044469 15.000000
8.895302 -8.500535 0.802126 191.000000
20.875834 26.604805 3.053821 8.000000
94.046577 49.984402 12.322986 1.000000
47.145546 -17.299486 5.074522 9.000000
8.899522 -8.567194 0.816159 190.000000
20.891129 26.424299 3.018163 8.000000
93.804176 49.415489 12.211155 1.000000
47.798370 -17.738079 5.169732 9.000000
93.681107 48.933670 12.172826 1.000000
42.913219 -16.095837 4.671662 8.000000
22.218225 27.703140 3.131895 9.000000
42.728359 -16.205385 4.657973 17.000000
22.200359 27.483747 3.090978 8.000000
42.461288 -16.282360 4.667414 21.000000
16.026039 -15.881248 1.546042 9.000000
20.745882 25.491421 2.852323 20.000000
93.930824 47.818848 11.971805 17.000000
42.205837 -16.336676 4.644952 12.000000
16.036278 -15.997141 1.564054 9.000000
20.938036 25.535784 2.848435 8.000000
93.748032 47.293941 11.907772 13.000000
41.993328 -16.448549 4.660614 16.000000
16.188543 -16.273529 1.601090 22.000000
20.974377 25.398764 2.818134 8.000000
93.631859 46.826038 11.835171 17.000000
41.705414 -16.512341 4.643258 24.000000
21.575220 25.932177 2.862353 8.000000
93.468208 46.316719 11.756072 29.000000
41.558285 -16.622128 4.649101 14.000000
7.379961 -7.523023 0.748013 32.000000
21.639715 25.816647 2.828730 8.000000
93.319893 45.817966 11.679467 27.000000
119.138138 4.222853 14.236387 14.000000
41.237377 -16.669353 4.635699 9.000000
7.321510 -7.523619 0.752511 32.000000
21.705252 25.711992 2.801892 14.000000
93.261337 45.385891 11.597251 24.000000
41.005665 -16.750803 4.616522 9.000000
7.246321 -7.498544 0.754786 17.000000
21.990757 25.857336 2.808599 14.000000
93.126320 44.898773 11.523381 32.000000
40.842823 -16.850878 4.635966 20.000000
7.491140 -7.808960 0.790857 13.000000
22.186848 25.894985 2.803526 9.000000
92.963272 44.420898 11.447539 29.000000
40.820599 -17.017057 4.656099 22.000000
7.376212 -7.745786 0.787346 15.000000
92.926926 43.985901 11.386806 28.000000
40.623562 -17.109955 4.656305 13.000000
7.265185 -7.685404 0.785921 10.000000
92.768913 43.495628 11.293530 30.000000
40.429401 -17.194584 4.656409 20.000000
7.196987 -7.666693 0.788815 20.000000
27.913754 31.874397 3.394066 1.000000
92.671341 43.055927 11.227184 26.000000
40.169670 -17.258251 4.633749 21.000000
7.144668 -7.667082 0.793514 24.000000
27.975897 31.710106 3.357757 10.000000
92.535385 42.541958 11.153955 24.000000
39.966343 -17.344692 4.648356 16.000000
27.886011 31.386696 3.304305 10.000000
92.394547 42.106621 11.084220 25.000000
39.776562 -17.427580 4.648663 8.000000
6.760544 -7.362345 0.769108 26.000000
27.905985 31.178276 3.263717 10.000000
92.205643 41.593704 11.006589 26.000000
39.306324 -17.393549 4.616302 8.000000
6.885588 -7.551261 0.793505 35.000000
28.207243 31.305334 3.264594 10.000000
92.109825 41.222008 10.944862 27.000000
39.068371 -17.459763 4.610951 9.000000
6.917703 -7.642556 0.807669 30.000000
92.045639 40.789013 10.883842 36.000000
38.868408 -17.500782 4.608154 17.000000
25.634962 28.044363 2.890223 9.000000
91.840424 40.315125 10.807451 27.000000
38.727074 -17.608147 4.599018 9.000000
25.695423 27.923990 2.859939 8.000000
91.676422 39.843021 10.735599 31.000000
38.462048 -17.658043 4.590146 11.000000
6.614066 -7.457462 0.800250 66.000000
91.638031 39.427654 10.678885 21.000000
38.234680 -17.731728 4.585989 20.000000
6.603456 -7.505982 0.809630 83.000000
91.655037 39.056377 10.629740 26.000000
141.198090 -2.513925 16.789526 10.000000
25.611595 27.206892 2.730826 9.000000
91.558189 38.619213 10.566940 27.000000
141.341797 -3.034728 16.807823 10.000000
35.991768 -17.005547 4.359574 8.000000
6.503310 -7.499689 0.814375 234.000000
25.703632 27.114395 2.717420 7.000000
91.601570 38.242649 10.520659 34.000000
34.047565 -16.239857 4.151250 7.000000
6.491473 -7.541707 0.826840 255.000000
25.869585 27.089899 2.698162 9.000000
91.356499 37.766399 10.442413 25.000000
32.508835 -15.652433 3.983356 3.000000
6.479689 -7.584060 0.834133 255.000000
25.987610 27.014557 2.667247 9.000000
91.307724 37.354973 10.351483 29.000000
6.457443 -7.608970 0.839775 34.000000
91.199730 36.921165 10.323829 31.000000
29.926050 -14.673576 3.703210 7.000000
6.633182 -7.877157 0.873798 152.000000
31.198137 31.992254 3.124741 1.000000
91.045013 36.526047 10.224039 26.000000
6.504351 -7.776359 0.867348 89.000000
31.432737 31.975021 3.103903 12.000000
91.000046 36.084595 10.168099 20.000000
26.412998 -13.186308 3.295728 10.000000
6.517224 -7.855612 0.880441 33.000000
32.014553 32.328999 3.117720 13.000000
90.742790 35.598255 10.124708 1.000000
26.357990 -13.279753 3.315778 31.000000
6.635056 -8.054694 0.907492 22.000000
31.985382 32.086025 3.080667 13.000000
91.160522 35.395447 10.088467 7.000000
25.900808 -13.157287 3.274006 11.000000
6.440837 -7.871968 0.889860 161.000000
32.411819 32.276337 3.078245 13.000000
90.563965 34.782383 9.974048 29.000000
25.102016 -12.861940 3.188661 17.000000
6.568540 -8.088354 0.918923 74.000000
30.446701 30.108492 2.859092 34.000000
90.241440 34.279507 9.907598 24.000000
23.937649 -12.376313 3.051259 31.000000
6.179019 -7.665953 0.875283 45.000000
89.758492 33.737999 9.807762 21.000000
23.584997 -12.298508 3.021165 9.000000
6.115037 -7.646480 0.875540 73.000000
89.810150 33.382256 9.766178 23.000000
22.852978 -12.023533 2.942152 20.000000
6.079973 -7.654536 0.881028 30.000000
30.095530 29.113714 2.700467 9.000000
89.904877 33.078556 9.730711 31.000000
22.219435 -11.794393 2.879477 9.000000
6.097737 -7.734942 0.894637 22.000000
30.158064 28.971106 2.682330 10.000000
90.076485 32.749557 9.701803 27.000000
21.533472 -11.526798 2.804416 10.000000
6.211483 -7.936051 0.922479 24.000000
30.384899 28.975624 2.656253 3.000000
92.335495 33.188225 9.880046 12.000000
79.173584 -5.980886 9.453724 7.000000
20.961796 -11.319820 2.739562 16.000000
30.484989 28.858471 2.626316 27.000000
92.572273 32.890701 9.857776 22.000000
78.713890 -6.194918 9.401111 6.000000
20.376032 -11.095537 2.676259 10.000000
30.475180 28.638124 2.594429 10.000000
93.445473 32.834038 9.903575 24.000000
77.444824 -6.407949 9.266294 1.000000
19.807808 -10.889435 2.619340 10.000000
93.820610 32.580017 9.913104 15.000000
77.363792 -6.659621 9.259191 1.000000
19.336361 -10.713908 2.569501 19.000000
31.133341 28.829792 2.580362 10.000000
94.436813 32.406624 9.930396 27.000000
18.833759 -10.521519 2.519028 10.000000
31.106518 28.603909 2.540238 10.000000
94.892784 32.174824 9.930555 27.000000
18.358040 -10.352669 2.468396 10.000000
31.260048 28.534342 2.521977 10.000000
95.131836 31.923008 9.927343 14.000000
18.164545 -10.318898 2.457815 22.000000
31.403032 28.454563 2.487972 10.000000
95.894043 31.751060 9.922295 32.000000
18.148146 -10.397748 2.460736 18.000000
96.219528 31.467979 9.926132 16.000000
18.119221 -10.465355 2.472861 11.000000
6.282158 -8.586625 1.039447 39.000000
18.071655 -10.534851 2.483227 16.000000
6.223835 -8.578963 1.042958 58.000000
32.431068 28.743078 2.460750 11.000000
98.424278 31.449053 10.058434 15.000000
18.061558 -10.609368 2.494076 15.000000
6.160024 -8.550517 1.044439 3.000000
98.565636 31.058714 10.041852 28.000000
18.027937 -10.674437 2.501981 12.000000
6.245479 -8.733250 1.071660 8.000000
98.826820 30.781126 9.985066 15.000000
17.988317 -10.740216 2.505637 21.000000
6.172794 -8.698820 1.070293 5.000000
30.039551 26.048616 2.174237 4.000000
17.979364 -10.820184 2.520781 20.000000
30.101624 25.909767 2.150985 10.000000
17.960428 -10.898656 2.527429 23.000000
31.802948 27.171886 2.243460 10.000000
17.921522 -10.960822 2.534763 26.000000
32.230999 27.333876 2.236986 10.000000
93.525467 27.632500 9.304428 1.000000
79.812439 -10.635076 9.615431 1.000000
17.884319 -11.028340 2.546363 10.000000
32.439407 27.306845 2.207383 11.000000
93.984413 27.393959 9.288313 1.000000
79.902489 -10.945279 9.616771 1.000000
17.879065 -11.111427 2.554850 23.000000
6.184371 -9.055759 1.139030 9.000000
32.520088 27.181370 2.184152 11.000000
93.755806 26.990332 9.239643 1.000000
79.142387 -11.136823 9.544285 1.000000
17.824465 -11.168264 2.564056 29.000000
6.097692 -8.999485 1.136804 6.000000
79.088295 -11.410888 9.542506 1.000000
17.820417 -11.256895 2.576859 18.000000
5.932713 -8.822155 1.117409 5.000000
32.400822 26.680696 2.104192 10.000000
17.804993 -11.334296 2.591552 11.000000
6.101350 -9.145130 1.163237 4.000000
95.405991 26.315020 9.250731 1.000000
17.758774 -11.396553 2.594625 14.000000
6.058074 -9.149282 1.166879 10.000000
26.000603 21.107521 1.643778 7.000000
17.730244 -11.465819 2.607512 14.000000
5.993802 -9.124692 1.172496 1.000000
33.025963 26.591539 2.044072 10.000000
95.559929 25.640961 9.178403 16.000000
17.699806 -11.538359 2.616725 14.000000
13.985331 -21.461641 2.764720 24.000000
33.128208 26.474316 2.014707 9.000000
17.696365 -11.624338 2.625952 9.000000
13.933835 -21.546677 2.782985 23.000000
100.269585 26.136959 9.557829 1.000000
86.421715 -14.384518 10.477957 5.000000
9.945298 -6.585146 1.485690 8.000000
13.882975 -21.641569 2.811354 21.000000
58.436920 46.001839 3.429196 21.000000
100.538345 25.813860 9.519555 6.000000
86.036369 -14.629202 10.452813 4.000000
9.930290 -6.625185 1.489009 6.000000
13.894364 -21.826591 2.847353 12.000000
59.310860 46.355392 3.431466 9.000000
110.698715 27.990524 10.451718 2.000000
86.264572 -14.993527 10.456143 2.000000
9.913527 -6.666638 1.496502 1.000000
6.349528 -10.055614 1.315047 7.000000
59.426826 46.112789 3.376222 6.000000
111.095787 27.658102 10.419122 25.000000
85.986404 -15.239105 10.413037 6.000000
17.562105 -11.899382 2.661113 16.000000
13.791640 -22.011353 2.886041 24.000000
85.794106 -15.514101 10.411677 18.000000
17.529512 -11.971277 2.674095 17.000000
13.735765 -22.101809 2.914272 20.000000
59.596268 45.564789 3.262286 6.000000
87.831459 21.199991 8.143342 2.000000
85.811684 -15.842299 10.405340 1.000000
17.503578 -12.043375 2.680303 12.000000
13.689025 -22.199070 2.934606 26.000000
59.836754 45.402107 3.200650 9.000000
17.475241 -12.118489 2.686518 20.000000
13.624911 -22.277449 2.952193 10.000000
59.828499 45.051273 3.152071 17.000000
86.118095 20.119547 7.908360 4.000000
17.445814 -12.193015 2.700169 10.000000
13.611663 -22.440155 2.985682 10.000000
60.047417 44.872192 3.089389 9.000000
87.195183 20.034439 7.953256 3.000000
85.414192 -16.726637 10.393890 4.000000
17.415152 -12.253201 2.705144 16.000000
13.549829 -22.515083 3.012571 22.000000
37.259548 27.631044 1.879311 13.000000
86.928574 19.653980 7.875602 19.000000
85.313255 -17.016304 10.373372 10.000000
17.402105 -12.339626 2.713909 19.000000
13.509953 -22.636202 3.031454 14.000000
60.173344 44.282616 2.961535 3.000000
86.177460 19.152430 7.754558 13.000000
85.279945 -17.334902 10.330768 12.000000
17.378035 -12.423110 2.725152 13.000000
13.505964 -22.810072 3.062471 20.000000
60.388943 44.100986 2.924957 2.000000
86.696091 18.934507 7.779321 20.000000
85.350212 -17.675179 10.362484 1.000000
17.337427 -12.485756 2.736972 13.000000
13.423426 -22.861389 3.086181 12.000000
87.502075 18.774794 7.766724 12.000000
17.315632 -12.566696 2.740784 10.000000
13.390494 -22.988710 3.106453 10.000000
88.049736 18.554991 7.730134 14.000000
17.300484 -12.638869 2.740856 10.000000
13.359314 -23.120369 3.127372 10.000000
84.917862 -18.220314 10.048955 1.000000
17.300312 -12.638744 2.702832 10.000000
13.346307 -23.097858 3.091293 9.000000
86.260979 18.492752 7.330596 2.000000
85.222794 -17.974794 10.000537 5.000000
17.345919 -12.574816 2.668556 10.000000
13.405522 -23.005280 3.047788 11.000000
60.267647 43.980160 2.631465 1.000000
86.559914 18.873114 7.314849 27.000000
85.267433 -17.658035 9.921129 1.000000
17.347662 -12.483932 2.639378 10.000000
13.426184 -22.847816 3.000629 15.000000
60.113361 44.206131 2.657865 19.000000
86.519348 19.196720 7.317317 20.000000
85.572174 -17.409857 9.903142 2.000000
17.383053 -12.412949 2.618900 19.000000
13.493434 -22.770775 2.973595 10.000000
37.155453 27.533751 1.655331 13.000000
86.994064 19.636871 7.347833 16.000000
85.395355 -17.048178 9.798420 19.000000
17.426237 -12.347598 2.599655 16.000000
13.510720 -22.619541 2.932050 10.000000
60.106865 44.883926 2.711382 3.000000
86.241402 19.783604 7.274500 23.000000
85.501297 -16.743696 9.757275 7.000000
17.434172 -12.262035 2.579338 19.000000
13.564342 -22.521399 2.897884 15.000000
60.116871 45.235546 2.745590 3.000000
86.053062 20.072678 7.249246 12.000000
85.570663 -16.447336 9.743180 8.000000
17.468624 -12.190814 2.558948 20.000000
13.627202 -22.439268 2.875174 17.000000
59.782623 45.311733 2.763752 1.000000
17.496576 -12.119722 2.537989 16.000000
13.631754 -22.271168 2.832046 10.000000
59.607048 45.523598 2.802656 18.000000
86.739288 20.888317 7.335135 1.000000
85.676598 -15.832823 9.649723 1.000000
17.513329 -12.036578 2.522718 12.000000
13.693697 -22.189306 2.804979 16.000000
59.454853 45.753349 2.829590 1.000000
86.663383 21.206396 7.319563 14.000000
86.265526 -15.614898 9.678566 4.000000
17.550571 -11.967700 2.506710 22.000000
13.765971 -22.124565 2.775554 12.000000
33.158863 25.711380 1.604581 4.000000
86.768860 21.569574 7.335099 29.000000
85.836708 -15.228027 9.609033 7.000000
17.580990 -11.898750 2.493837 14.000000
13.778105 -21.972698 2.744209 10.000000
33.029652 25.787029 1.617106 7.000000
9.940810 -6.674911 1.396017 6.000000
6.374678 -10.083743 1.249655 7.000000
58.714230 46.186954 2.908988 1.000000
100.363960 25.713078 8.517917 2.000000
86.053902 -14.616732 9.528587 6.000000
9.919395 -6.610413 1.381326 9.000000
6.535247 -10.254333 1.260883 1.000000
33.183178 26.300661 1.671025 4.000000
9.946006 -6.580621 1.375658 4.000000
13.915419 -21.658859 2.651285 26.000000
32.965538 26.316044 1.686802 19.000000
95.672279 25.241983 8.134854 9.000000
17.698853 -11.617131 2.430836 10.000000
13.935173 -21.524019 2.622627 15.000000
32.950157 26.502075 1.705758 10.000000
17.707628 -11.525849 2.407266 11.000000
13.988025 -21.433048 2.595206 14.000000
26.005508 21.073881 1.361941 8.000000
17.755505 -11.473368 2.393641 19.000000
14.042127 -21.352724 2.568870 18.000000
32.564217 26.587132 1.732570 10.000000
17.763039 -11.390538 2.378092 18.000000
6.031270 -9.098446 1.087632 2.000000
32.450653 26.693226 1.746413 11.000000
79.163620 -11.732224 8.609067 1.000000
17.789293 -11.315578 2.361134 18.000000
5.879887 -8.799871 1.045183 20.000000
32.490971 26.917097 1.783137 10.000000
79.001465 -11.384285 8.558210 1.000000
17.818804 -11.234135 2.347879 14.000000
6.023902 -8.944265 1.053547 9.000000
32.725029 27.313885 1.823824 11.000000
94.402252 27.087240 8.160748 1.000000
78.907333 -11.103746 8.529910 1.000000
17.846622 -11.173474 2.335747 19.000000
6.047115 -8.911435 1.044570 17.000000
32.517159 27.343212 1.832669 11.000000
94.225792 27.428631 8.154538 14.000000
79.171677 -10.859249 8.512017 1.000000
17.871948 -11.098359 2.318855 22.000000
6.265690 -9.161096 1.066743 13.000000
32.157051 27.242231 1.832728 22.000000
94.278923 27.819330 8.150631 1.000000
17.911232 -11.027683 2.307294 16.000000
6.325176 -9.175715 1.061323 10.000000
32.226986 27.504995 1.872083 10.000000
94.125992 28.131744 8.180379 1.000000
17.931765 -10.958488 2.294110 15.000000
6.298063 -9.068478 1.041734 17.000000
31.666929 27.228241 1.867244 10.000000
17.964560 -10.879725 2.274155 14.000000
31.521608 27.295246 1.893451 8.000000
17.998846 -10.814797 2.266287 21.000000
6.299297 -8.929823 1.013767 4.000000
31.695114 27.649408 1.939373 10.000000
98.699196 30.646915 8.660192 16.000000
17.992929 -10.730196 2.249954 12.000000
6.310750 -8.880088 1.001028 9.000000
31.439226 27.629759 1.944540 10.000000
98.470047 30.990810 8.668606 32.000000
18.052128 -10.671746 2.241109 27.000000
6.242326 -8.709551 0.977077 197.000000
31.479086 27.869936 1.975373 10.000000
98.454041 31.344975 8.712623 17.000000
18.079514 -10.607188 2.232730 23.000000
6.219115 -8.616673 0.961486 82.000000
31.070057 27.711607 1.985196 9.000000
18.106718 -10.534131 2.216517 19.000000
6.281859 -8.639894 0.957120 27.000000
96.287041 31.452856 8.559309 20.000000
18.131462 -10.463985 2.203978 22.000000
6.246274 -8.525081 0.937635 21.000000
96.042175 31.725725 8.582408 35.000000
18.166710 -10.395753 2.188843 16.000000
6.280823 -8.506661 0.930695 33.000000
31.558502 28.746248 2.102740 8.000000
95.383774 31.896456 8.569324 23.000000
18.201357 -10.327208 2.177365 12.000000
6.349605 -8.537292 0.927109 14.000000
94.937317 32.134510 8.522118 30.000000
18.467667 -10.393259 2.197392 10.000000
6.420174 -8.566428 0.923410 20.000000
31.447977 29.070213 2.154476 1.000000
94.322136 32.293686 8.512016 21.000000
18.927933 -10.561130 2.236066 10.000000
6.584016 -8.718275 0.934690 27.000000
31.335012 29.189714 2.184374 11.000000
93.574280 32.421291 8.490014 1.000000
19.385361 -10.723377 2.273724 10.000000
6.448999 -8.477794 0.901953 25.000000
56.202713 52.704075 3.957036 23.000000
93.102226 32.640427 8.457983 17.000000
78.669067 -6.495421 8.185171 1.000000
19.916859 -10.926763 2.315551 19.000000
6.465255 -8.434825 0.892424 23.000000
29.967999 28.329422 2.154016 6.000000
92.412109 32.761154 8.440104 12.000000
78.494019 -6.191399 8.164542 1.000000
20.499355 -11.148780 2.370275 11.000000
6.447774 -8.348467 0.878366 27.000000
29.902283 28.455660 2.170511 10.000000
92.182182 33.060463 8.447334 33.000000
78.686241 -5.916448 8.168304 1.000000
21.066629 -11.357445 2.418378 12.000000
29.973293 28.733315 2.212364 14.000000
91.624886 33.240112 8.407372 8.000000
21.660439 -11.580176 2.464569 9.000000
6.333051 -8.079742 0.836800 27.000000
29.921980 28.885231 2.245124 10.000000
22.372093 -11.855413 2.527191 10.000000
6.242518 -7.904398 0.813926 37.000000
89.835228 33.320210 8.365916 27.000000
23.007915 -12.089672 2.594232 16.000000
6.211473 -7.808892 0.799308 28.000000
90.087509 33.789909 8.434731 35.000000
23.697561 -12.341428 2.652746 10.000000
6.539640 -8.159886 0.830337 39.000000
30.491640 30.089844 2.387545 30.000000
90.364899 34.254234 8.471845 31.000000
24.571129 -12.682105 2.725819 10.000000
6.570047 -8.136535 0.819385 36.000000
32.392349 32.211941 2.578032 13.000000
90.533630 34.698227 8.533635 31.000000
25.284985 -12.938980 2.789973 9.000000
6.433449 -7.907893 0.791569 21.000000
32.270283 32.304096 2.600814 13.000000
26.101355 -13.236246 2.859210 25.000000
6.600383 -8.055484 0.801330 34.000000
32.133129 32.403461 2.623287 13.000000
26.333786 -13.232999 2.858568 28.000000
6.420743 -7.777915 0.768972 107.000000
31.925636 32.431103 2.639942 7.000000
90.920692 35.979694 8.675112 13.000000
26.714811 -13.307873 2.884353 8.000000
6.401812 -7.697342 0.754534 41.000000
91.409637 36.561249 8.769130 13.000000
6.502532 -7.763164 0.757874 66.000000
91.200127 36.847240 8.795923 34.000000
30.136013 -14.737402 3.212438 7.000000
6.782114 -8.036922 0.779639 21.000000
25.990610 26.979952 2.251922 9.000000
6.492115 -7.636306 0.736044 115.000000
25.811670 26.991499 2.258059 9.000000
91.412704 37.714931 8.877648 31.000000
32.774494 -15.738089 3.443181 7.000000
6.481628 -7.567591 0.721216 107.000000
25.754293 27.139364 2.301465 9.000000
91.516319 38.150799 8.971013 31.000000
34.432770 -16.379349 3.604348 7.000000
6.494672 -7.524150 0.712472 26.000000
25.626444 27.203634 2.318578 9.000000
91.630424 38.574352 8.995342 23.000000
141.306168 -2.984616 14.406404 10.000000
36.045486 -16.992466 3.738865 8.000000
6.682894 -7.685081 0.722879 79.000000
25.647781 27.407816 2.348449 6.000000
91.609245 38.961323 9.042258 29.000000
141.345123 -2.516542 14.409447 10.000000
91.767174 39.407318 9.106519 23.000000
38.313263 -17.719446 3.930786 22.000000
91.728836 39.789684 9.152318 33.000000
38.569496 -17.674782 3.950721 16.000000
6.793807 -7.649360 0.704639 117.000000
30.956751 33.807049 2.964292 8.000000
91.944290 40.284187 9.223821 27.000000
122.721138 -0.856769 12.509145 18.000000
38.722660 -17.573528 3.929842 9.000000
6.895301 -7.706559 0.704978 31.000000
30.797672 33.881824 2.993031 11.000000
38.979424 -17.518049 3.926792 17.000000
6.747613 -7.491354 0.678496 143.000000
28.334435 31.391367 2.793927 11.000000
39.235001 -17.484959 3.939425 12.000000
6.882620 -7.585150 0.682089 40.000000
28.292150 31.554270 2.829778 10.000000
92.650841 41.755611 9.463278 30.000000
39.341705 -17.359962 3.921020 14.000000
6.784696 -7.424983 0.666285 31.000000
92.399017 42.050240 9.488979 31.000000
39.602531 -17.301920 3.925458 10.000000
6.849347 -7.440785 0.662861 9.000000
28.058113 31.758575 2.874157 5.000000
92.446198 42.461868 9.508988 30.000000
39.816311 -17.238308 3.925691 20.000000
6.907497 -7.448980 0.656939 27.000000
92.974838 43.118042 9.651735 29.000000
40.057407 -17.160353 3.927600 12.000000
7.022235 -7.519893 0.659941 9.000000
93.454811 43.757545 9.736316 11.000000
40.212994 -17.052839 3.921330 11.000000
7.255286 -7.712596 0.669904 14.000000
93.298424 44.082043 9.772336 29.000000
40.452610 -16.988096 3.923451 9.000000
7.101901 -7.494314 0.645964 24.000000
93.420677 44.559380 9.838637 23.000000
40.716900 -16.940472 3.928098 9.000000
7.164013 -7.504575 0.643654 58.000000
21.996435 25.818321 2.431271 7.000000
93.134338 44.822529 9.879508 25.000000
40.933231 -16.838039 3.926843 9.000000
7.211150 -7.501350 0.640063 43.000000
21.945917 25.951105 2.454071 8.000000
93.302086 45.325184 9.951398 19.000000
41.108341 -16.742535 3.922396 24.000000
7.256417 -7.493274 0.630675 7.000000
93.704201 45.945778 10.048948 34.000000
41.321953 -16.669991 3.921807 9.000000
16.105097 -16.509268 1.382350 26.000000
21.604195 25.920959 2.483904 8.000000
93.993523 46.495323 10.152738 25.000000
41.599274 -16.588013 3.910270 11.000000
16.106697 -16.390293 1.361222 35.000000
94.006302 46.931286 10.209651 33.000000
41.821964 -16.499411 3.925492 22.000000
16.174349 -16.338915 1.345763 17.000000
93.762512 47.198650 10.237106 19.000000
42.047157 -16.435787 3.917946 16.000000
16.073360 -16.123936 1.316721 10.000000
22.580973 27.687008 2.705195 9.000000
94.010544 47.776825 10.339884 29.000000
42.327827 -16.349926 3.921993 11.000000
7.739312 -7.706961 0.624032 7.000000
22.316198 27.577887 2.717279 9.000000
94.141525 48.278366 10.410970 23.000000
101.616684 5.450002 10.372571 26.000000
42.517757 -16.244457 3.934049 9.000000
16.039598 -15.855890 1.276754 24.000000
22.282455 27.743519 2.750523 9.000000
94.387749 48.842388 10.514112 25.000000
101.641747 5.807231 10.377134 19.000000
42.747898 -16.161612 3.934027 9.000000
7.792572 -7.647053 0.610408 152.000000
94.442787 49.289574 10.576898 31.000000
101.843201 6.193315 10.399950 4.000000
94.617867 49.780869 10.614935 29.000000
101.450684 6.542741 10.380174 16.000000
20.902840 26.591410 2.685731 15.000000
94.861595 50.396339 10.759560 27.000000
20.874590 26.756739 2.718526 9.000000
95.019676 50.863728 10.833560 28.000000
92.479004 6.628978 9.483177 1.000000
8.911943 -8.495632 0.656047 33.000000
20.956903 27.056459 2.765576 8.000000
95.155457 51.428902 10.929702 29.000000
92.733055 6.972633 9.511667 18.000000
50.124149 -17.917440 4.497942 9.000000
8.921594 -8.442633 0.645876 15.000000
20.853077 27.127211 2.795034 8.000000
95.131920 51.846073 11.005031 31.000000
50.064121 -17.689310 4.468041 9.000000
8.947615 -8.408249 0.639185 13.000000
19.757929 25.898460 2.683845 8.000000
95.487122 52.494492 11.106733 25.000000
91.260078 7.535016 9.382146 11.000000
45.776134 -15.994706 4.063301 4.000000
8.942183 -8.341639 0.628048 33.000000
20.683128 27.308350 2.846532 8.000000
95.487503 52.907803 11.165627 29.000000
91.282768 7.857793 9.387242 31.000000
45.608261 -15.766537 4.035255 11.000000
8.936377 -8.275176 0.616981 100.000000
68.332077 38.205162 8.048782 14.000000
45.498032 -15.524245 4.003058 24.000000
8.959452 -8.235752 0.612227 21.000000
19.666466 26.365374 2.785169 8.000000
68.365524 38.553440 8.110846 14.000000
45.373222 -15.322691 3.970990 28.000000
8.975135 -8.189681 0.602740 24.000000
19.362654 26.148031 2.777932 9.000000
68.316406 38.856449 8.149588 5.000000
93.243607 9.044043 9.631436 1.000000
38.424549 -12.819400 3.351600 8.000000
8.981695 -8.138392 0.594907 20.000000
21.238993 28.902809 3.087529 8.000000
93.482018 9.413144 9.659561 1.000000
38.533909 -12.699121 3.342798 8.000000
9.015559 -8.109102 0.584571 16.000000
20.975771 28.764959 3.095870 9.000000
67.807327 39.180145 8.189568 18.000000
46.148769 -15.021362 3.981525 27.000000
9.011843 -8.046204 0.578187 22.000000
19.483727 26.915712 2.912879 8.000000
67.786751 39.484512 8.245205 9.000000
46.296463 -14.890913 3.981214 29.000000
9.026697 -8.000201 0.566705 19.000000
19.401186 27.009554 2.938716 8.000000
67.358215 39.597881 8.253714 10.000000
46.447044 -14.751718 3.972362 7.000000
9.056180 -7.967257 0.560390 21.000000
19.317909 27.102716 2.970403 9.000000
66.914787 39.636375 8.256619 7.000000
46.477688 -14.574133 3.961830 9.000000
8.430929 -7.362546 0.514153 115.000000
19.017769 26.879648 2.961833 16.000000
66.530220 39.722946 8.253580 10.000000
50.093193 -15.506433 4.246723 9.000000
9.068186 -7.863423 0.542941 22.000000
19.436872 27.666138 3.065174 9.000000
50.014973 -15.291112 4.217165 10.000000
9.090642 -7.830234 0.536433 20.000000
19.338041 27.761715 3.102862 11.000000
50.065212 -15.106045 4.225891 9.000000
9.087964 -7.764598 0.530251 21.000000
19.355873 27.995169 3.145346 26.000000
65.651604 40.168335 8.333904 11.000000
74.525688 -22.188749 6.256318 15.000000
9.101402 -7.718551 0.521034 24.000000
19.310717 28.149860 3.184800 9.000000
65.216774 40.231541 8.337964 16.000000
74.488976 -21.895044 6.233143 17.000000
9.114552 -7.672447 0.513923 20.000000
19.581221 28.758875 3.264326 8.000000
9.131452 -7.629665 0.502893 21.000000
9.120918 -7.572332 0.496855 20.000000
19.009220 28.363495 3.263673 8.000000
29.744501 18.789164 3.877906 6.000000
73.905296 -20.843451 6.097314 23.000000
9.151442 -7.535822 0.490647 24.000000
21.138748 31.780260 3.675205 9.000000
29.728212 18.931665 3.903481 8.000000
74.108292 -20.621710 6.094574 20.000000
9.136712 -7.467666 0.480135 33.000000
21.103130 31.956011 3.714401 9.000000
29.711258 19.074289 3.929124 8.000000
74.309380 -20.384516 6.091393 21.000000
9.157742 -7.434336 0.473756 19.000000
21.100639 32.232876 3.777434 9.000000
44.902493 -12.140849 3.677138 2.000000
9.179856 -7.391352 0.469241 31.000000
61.927162 40.385208 8.332001 1.000000
131.206741 20.851534 14.010332 25.000000
