VERSION .7
FIELDS x y z intensity
SIZE 4 4 4 4
TYPE F F F F
COUNT 1 1 1 1
WIDTH 1231
HEIGHT 1
VIEWPOINT 0 0 0 1 0 0 0
POINTS 1231
DATA ascii
90.753105 33.049370 4.943415 16.000000
22.774641 -12.058552 1.684538 9.000000
6.407085 -8.101143 0.582882 24.000000
91.457840 32.926849 4.941176 21.000000
22.126873 -11.819613 1.648613 10.000000
6.663677 -8.489344 0.618500 16.000000
91.904755 32.725811 4.890838 24.000000
21.516079 -11.594904 1.619113 10.000000
6.544755 -8.398032 0.617637 28.000000
56.035759 52.694744 1.947060 1.000000
92.806824 32.664238 4.915224 19.000000
78.449310 -6.284321 5.089341 1.000000
20.879055 -11.345841 1.578313 9.000000
6.455577 -8.346518 0.621344 38.000000
56.138145 52.404652 1.890283 1.000000
93.106773 32.386772 4.890295 19.000000
78.365204 -6.566736 5.099194 1.000000
20.324766 -11.141320 1.551679 10.000000
6.476408 -8.437170 0.631909 29.000000
56.451790 52.311543 1.840614 4.000000
78.469833 -6.865221 5.107605 1.000000
19.724503 -10.906485 1.516797 10.000000
6.461707 -8.479133 0.642695 30.000000
56.403248 51.901794 1.779572 1.000000
94.426895 32.090374 4.877649 21.000000
19.245543 -10.729537 1.494426 21.000000
6.520624 -8.615558 0.658965 25.000000
56.557529 51.662228 1.698195 1.000000
94.930573 31.873905 4.827525 30.000000
18.783642 -10.562453 1.472891 25.000000
6.421227 -8.552272 0.661601 29.000000
56.932095 51.622868 1.676910 1.000000
95.463905 31.664112 4.848712 27.000000
18.325068 -10.388945 1.450849 17.000000
6.318002 -8.479339 0.661574 31.000000
57.259460 51.538555 1.613718 1.000000
95.928185 31.428307 4.813433 29.000000
18.186832 -10.398842 1.450261 21.000000
6.283569 -8.497959 0.670485 30.000000
57.463715 51.342407 1.560340 12.000000
96.319931 31.166193 4.791908 18.000000
18.143616 -10.462558 1.460882 14.000000
6.250567 -8.515344 0.679387 26.000000
57.635899 51.135578 1.506347 16.000000
97.657089 31.222706 4.817112 13.000000
18.106318 -10.525441 1.471848 14.000000
57.663605 50.819420 1.435559 15.000000
97.980759 30.968435 4.792037 20.000000
18.084005 -10.592858 1.476557 11.000000
6.228489 -8.610647 0.696543 35.000000
57.762497 50.496056 1.379382 9.000000
93.710129 29.205397 4.525894 9.000000
18.066874 -10.680464 1.482329 10.000000
6.003135 -8.366566 0.682149 44.000000
28.001667 24.298609 0.640665 15.000000
93.326324 28.710924 4.468089 23.000000
18.037382 -10.748171 1.494027 14.000000
5.992336 -8.416472 0.693479 109.000000
57.965836 49.928932 1.268609 10.000000
17.997194 -10.813806 1.505021 10.000000
5.974157 -8.453237 0.702045 195.000000
58.168259 49.733086 1.202238 11.000000
94.255699 28.242207 4.416508 4.000000
17.961027 -10.881870 1.516375 12.000000
5.945644 -8.478655 0.711421 39.000000
58.249653 49.469250 1.147158 1.000000
94.105965 27.875458 4.371038 7.000000
17.947357 -10.950815 1.529184 10.000000
5.971365 -8.575690 0.725228 32.000000
91.731247 77.299622 1.716916 14.000000
94.084305 27.458710 4.330598 19.000000
17.907272 -11.025246 1.533217 13.000000
5.918263 -8.569407 0.730075 27.000000
95.581902 27.516024 4.377466 1.000000
79.631165 -11.021407 5.226784 1.000000
17.893415 -11.103037 1.546425 12.000000
5.973847 -8.718054 0.750137 33.000000
55.630516 46.185345 0.946509 145.000000
95.467339 27.104538 4.332932 1.000000
17.851912 -11.168114 1.557450 17.000000
5.996296 -8.816661 0.766169 33.000000
32.472210 26.758507 0.514091 17.000000
95.553780 26.751017 4.280323 2.000000
17.844370 -11.254604 1.564083 10.000000
5.905139 -8.751434 0.764171 112.000000
32.619068 26.698400 0.485580 30.000000
17.804022 -11.307495 1.574757 17.000000
5.921738 -8.835775 0.777373 29.000000
26.026499 21.128544 0.362768 5.000000
17.761986 -11.381117 1.586175 11.000000
26.116070 21.057966 0.339618 5.000000
96.764771 26.000460 4.199500 1.000000
17.744394 -11.453023 1.599108 22.000000
96.540657 25.525167 4.167834 5.000000
17.716530 -11.531644 1.607997 19.000000
5.799783 -8.866374 0.800347 58.000000
96.834030 25.259472 4.141867 1.000000
17.694164 -11.600802 1.620592 10.000000
5.770043 -8.885087 0.807744 1.000000
86.882980 22.323923 3.665659 8.000000
10.016307 -6.617086 0.921602 1.000000
59.177223 46.300884 0.550800 19.000000
85.415009 21.613321 3.584955 24.000000
86.189072 -14.763535 5.700752 6.000000
9.921046 -6.606513 0.921337 7.000000
15.017205 -23.490782 2.169779 11.000000
59.465126 46.192410 0.499405 5.000000
85.592941 21.340717 3.558431 18.000000
9.896363 -6.642561 0.927578 7.000000
14.955456 -23.575123 2.197247 28.000000
59.582886 45.934719 0.433320 1.000000
84.811134 20.784531 3.476637 14.000000
9.911798 -6.708269 0.935635 1.000000
14.907635 -23.709614 2.223861 16.000000
59.814648 45.764843 0.368057 1.000000
17.747646 -12.097548 1.690401 10.000000
14.766258 -23.649319 2.233432 10.000000
59.826874 45.427528 0.314661 1.000000
85.705650 20.370550 3.430395 23.000000
48.271404 -9.007590 3.218488 1.000000
17.713282 -12.164901 1.694936 9.000000
14.408383 -23.265535 2.211414 25.000000
59.749580 45.024540 0.248095 9.000000
33.374599 7.803364 1.316702 4.000000
48.249516 -9.186633 3.193425 172.000000
17.700876 -12.252097 1.705596 9.000000
13.898389 -22.618036 2.163899 18.000000
59.874317 44.775414 0.182685 11.000000
33.218609 7.638592 1.291561 8.000000
47.953739 -9.295208 3.184433 216.000000
17.670019 -12.322192 1.710541 9.000000
13.692917 -22.467855 2.158584 9.000000
60.182640 44.662983 0.143884 1.000000
33.290459 7.526754 1.287308 8.000000
47.675156 -9.422642 3.159687 196.000000
17.644148 -12.400515 1.727576 9.000000
13.582486 -22.462729 2.176587 10.000000
33.416248 7.426563 1.267179 8.000000
47.744152 -9.609568 3.175000 13.000000
17.602398 -12.467807 1.731740 9.000000
13.530030 -22.562326 2.199912 10.000000
61.138279 44.680943 0.013217 12.000000
34.166359 7.461965 1.276243 5.000000
47.278488 -9.696280 3.146375 69.000000
17.582619 -12.546191 1.741681 9.000000
13.493709 -22.680883 2.225420 21.000000
87.183067 18.706345 3.207285 10.000000
47.053761 -9.830043 3.108521 121.000000
17.524132 -12.601644 1.744242 10.000000
13.460327 -22.814663 2.252316 12.000000
46.653645 -9.916538 3.075997 207.000000
17.382681 -12.592213 1.742069 16.000000
13.427823 -22.942181 2.274284 15.000000
61.385582 43.834419 -0.197475 1.000000
17.332384 -12.652899 1.741665 9.000000
13.393057 -23.076378 2.296779 10.000000
61.340492 43.802223 -0.315729 9.000000
17.326763 -12.648795 1.703417 9.000000
13.383473 -23.050600 2.261643 10.000000
61.329697 44.134811 -0.316504 1.000000
46.671894 -9.928931 2.910097 205.000000
17.342384 -12.563021 1.674089 10.000000
13.404835 -22.902905 2.219078 16.000000
92.042343 66.725525 -0.436518 47.000000
87.442528 18.746054 2.857303 5.000000
47.022125 -9.823434 2.904425 124.000000
17.496590 -12.581838 1.665805 10.000000
13.484797 -22.847025 2.190464 17.000000
61.004349 44.566730 -0.276905 15.000000
34.285652 7.481750 1.108957 1.000000
47.316730 -9.712730 2.895127 71.000000
17.584812 -12.547757 1.643267 10.000000
13.519017 -22.714401 2.145330 17.000000
33.506866 7.440566 1.078645 8.000000
17.627781 -12.481164 1.624039 10.000000
13.578859 -22.634796 2.114454 10.000000
33.352627 7.534692 1.074562 7.000000
47.742165 -9.435886 2.865705 106.000000
17.611200 -12.377358 1.599632 10.000000
13.595792 -22.475872 2.076566 9.000000
59.914192 44.788933 -0.169727 20.000000
33.286003 7.647973 1.067345 7.000000
47.991882 -9.311293 2.853040 115.000000
17.653269 -12.310511 1.584237 10.000000
13.651749 -22.391510 2.050136 9.000000
59.985302 45.185757 -0.144182 6.000000
33.210255 7.752713 1.071735 5.000000
48.300781 -9.187659 2.860772 95.000000
17.668562 -12.229730 1.562916 10.000000
13.834047 -22.504522 2.037281 9.000000
59.731701 45.338833 -0.117794 1.000000
85.006012 20.172913 2.745614 10.000000
85.021576 -15.849929 4.986772 1.000000
17.726715 -12.174126 1.545238 10.000000
14.302240 -23.085140 2.065745 12.000000
59.581066 45.569645 -0.065459 6.000000
85.744713 20.648806 2.787078 9.000000
84.922310 -15.540201 4.962781 1.000000
17.734791 -12.084251 1.530777 10.000000
14.823538 -23.731834 2.103903 30.000000
59.734451 46.034950 -0.026325 1.000000
85.039841 20.840580 2.766864 16.000000
85.019135 -15.220773 4.904493 1.000000
9.931948 -6.716853 0.848936 2.000000
14.919362 -23.691547 2.080596 29.000000
59.312721 46.040833 0.000000 10.000000
9.886699 -6.633572 0.832543 8.000000
14.984426 -23.611677 2.048718 15.000000
59.253845 46.344158 0.039388 12.000000
85.458717 21.576775 2.800725 19.000000
9.915699 -6.600455 0.822498 5.000000
15.026326 -23.486979 2.013311 15.000000
10.001467 -6.607283 0.821388 1.000000
5.891250 -9.137928 0.775527 4.000000
86.713921 22.554964 2.862732 3.000000
17.711727 -11.607897 1.432537 10.000000
5.753911 -8.853478 0.742058 6.000000
17.731852 -11.532806 1.419774 24.000000
5.768736 -8.808841 0.730766 30.000000
26.035353 20.985382 0.087546 80.000000
17.749886 -11.452178 1.399332 21.000000
5.804150 -8.792435 0.720080 18.000000
26.008682 21.121613 0.105259 5.000000
17.796555 -11.390127 1.388599 17.000000
5.889191 -8.850533 0.717281 9.000000
17.807335 -11.309600 1.375259 12.000000
5.912061 -8.818007 0.707007 56.000000
58.802620 48.438671 0.319122 26.000000
17.853899 -11.247553 1.357170 22.000000
6.084431 -9.003582 0.712240 40.000000
95.055298 26.951702 3.225823 7.000000
17.849054 -11.153328 1.342620 14.000000
5.916791 -8.689972 0.679848 131.000000
95.017776 27.317713 3.245199 9.000000
79.530281 -11.021592 4.292155 1.000000
17.897350 -11.096828 1.324880 27.000000
6.028058 -8.784010 0.677727 39.000000
94.268234 27.476686 3.257330 12.000000
79.684692 -10.745470 4.284260 1.000000
17.921486 -11.021061 1.312608 20.000000
5.893066 -8.520196 0.649958 17.000000
91.149742 77.382690 0.793012 20.000000
93.999107 27.790276 3.251694 16.000000
17.934870 -10.943196 1.299740 17.000000
6.000062 -8.610491 0.651084 22.000000
94.110657 28.162949 3.310258 16.000000
17.966900 -10.872571 1.288127 15.000000
5.963067 -8.490885 0.634600 79.000000
93.940956 28.487722 3.273635 1.000000
18.007586 -10.807220 1.269800 10.000000
5.993050 -8.470556 0.623734 44.000000
28.043098 24.325981 0.311014 22.000000
18.041481 -10.742082 1.258504 12.000000
6.024370 -8.448974 0.614679 47.000000
18.064104 -10.666066 1.246323 15.000000
6.145903 -8.552929 0.614653 33.000000
90.337364 79.503098 1.155211 10.000000
18.099516 -10.597704 1.231385 10.000000
6.105844 -8.434894 0.596758 27.000000
89.796219 79.668770 1.236186 10.000000
18.132635 -10.532272 1.220112 14.000000
6.136902 -8.412708 0.591306 36.000000
18.150042 -10.453605 1.207693 20.000000
6.205025 -8.444028 0.584018 116.000000
95.628708 31.293232 3.513681 14.000000
18.167467 -10.375152 1.187997 13.000000
95.450539 31.622702 3.546512 8.000000
18.258774 -10.347152 1.180694 11.000000
6.333045 -8.487153 0.571658 34.000000
57.315998 52.318356 0.988795 1.000000
18.751225 -10.531304 1.206149 10.000000
6.425869 -8.549128 0.569851 36.000000
57.163822 52.564827 1.043711 1.000000
19.213518 -10.698499 1.217954 10.000000
6.493693 -8.573753 0.561781 39.000000
57.062057 52.858547 1.086118 1.000000
93.479401 32.096317 3.555063 15.000000
19.703342 -10.876830 1.234649 17.000000
6.464781 -8.470892 0.547266 21.000000
57.295025 53.465878 1.148996 5.000000
92.930435 32.289074 3.573049 1.000000
20.258892 -11.091419 1.246812 19.000000
57.068939 53.647564 1.203092 6.000000
92.560455 32.541218 3.597679 10.000000
20.844122 -11.312724 1.267815 10.000000
6.746042 -8.709493 0.544581 83.000000
56.681019 53.656822 1.253358 3.000000
21.483828 -11.558178 1.295599 9.000000
6.563068 -8.409415 0.519854 78.000000
90.996956 32.725044 3.613524 13.000000
22.027151 -11.761403 1.313019 10.000000
6.672907 -8.488895 0.516759 40.000000
90.777794 33.022472 3.609603 4.000000
22.697174 -12.002324 1.336595 10.000000
6.462327 -8.159276 0.490849 144.000000
90.017250 33.119900 3.617692 1.000000
23.453606 -12.302977 1.369460 10.000000
6.325953 -7.930061 0.469514 34.000000
89.964302 33.475300 3.654026 21.000000
24.192564 -12.583120 1.395719 16.000000
6.286391 -7.821488 0.455671 19.000000
30.483316 29.903625 0.827376 11.000000
90.046806 33.864304 3.695786 16.000000
6.365957 -7.866916 0.450696 31.000000
30.366060 30.028748 0.864741 26.000000
90.201057 34.300201 3.740988 17.000000
25.690939 -13.124092 1.441237 33.000000
6.377371 -7.819429 0.442317 51.000000
90.441925 34.771744 3.790113 31.000000
26.318754 -13.323400 1.458224 32.000000
6.307870 -7.676595 0.428593 23.000000
30.675482 30.772001 0.932908 7.000000
90.923904 35.340107 3.815714 1.000000
26.379326 -13.227062 1.443266 22.000000
6.406331 -7.738422 0.422813 20.000000
30.600702 30.922840 0.964461 8.000000
90.806473 35.678116 3.850357 31.000000
28.905306 -14.373880 1.567556 7.000000
6.439935 -7.723967 0.414458 33.000000
90.874519 36.071537 3.909832 30.000000
82.174156 -3.314821 4.036644 26.000000
30.043865 -14.789928 1.596778 7.000000
6.484454 -7.719659 0.408449 21.000000
91.023270 36.517326 3.956254 33.000000
82.201431 -3.014190 4.023023 9.000000
6.529069 -7.715178 0.400641 10.000000
26.064411 26.924582 0.915840 5.000000
91.146805 36.955296 4.001872 30.000000
6.657967 -7.809268 0.399616 31.000000
25.952612 26.997030 0.934837 9.000000
91.380577 37.440647 4.018134 24.000000
33.648842 -16.129045 1.733611 7.000000
6.545497 -7.623289 0.380728 46.000000
25.870169 27.109451 0.968163 9.000000
91.413551 37.827351 4.077252 30.000000
6.616061 -7.648573 0.376130 68.000000
25.728914 27.160046 0.992732 9.000000
91.508034 38.259876 4.122375 30.000000
36.770184 -17.302734 1.852459 8.000000
25.682755 27.292027 1.020619 8.000000
91.609764 38.697479 4.168093 35.000000
38.183064 -17.796944 1.905605 25.000000
6.799547 -7.747940 0.367185 39.000000
25.655609 27.473793 1.056554 3.000000
91.713402 39.138000 4.231611 28.000000
38.457546 -17.753595 1.893820 20.000000
6.831418 -7.726947 0.358363 23.000000
91.616158 39.475105 4.268342 29.000000
76.879456 -0.872207 3.733374 154.000000
38.641075 -17.666798 1.884795 11.000000
6.939623 -7.791599 0.355246 14.000000
18.393082 19.988317 0.801439 5.000000
91.748886 39.931637 4.316308 23.000000
76.887131 -0.590462 3.733616 240.000000
38.912708 -17.627026 1.872621 21.000000
6.880229 -7.670834 0.341830 35.000000
18.427616 20.152544 0.824780 7.000000
92.154259 40.472076 4.376868 23.000000
76.874336 -0.335430 3.719471 188.000000
39.050568 -17.517262 1.861185 14.000000
6.909136 -7.651860 0.334798 25.000000
18.410339 20.282425 0.846470 16.000000
92.331352 40.992764 4.446056 31.000000
76.900681 -0.026843 3.707258 197.000000
39.337852 -17.489668 1.841991 19.000000
6.987770 -7.682152 0.328170 10.000000
18.295729 20.290958 0.863382 6.000000
92.663025 41.508415 4.504142 19.000000
77.013954 0.215064 3.739679 17.000000
39.553154 -17.412045 1.833959 16.000000
6.853931 -7.479753 0.315278 234.000000
92.397079 41.777134 4.551476 33.000000
77.052597 0.497591 3.741619 18.000000
39.768707 -17.333208 1.818241 20.000000
6.724277 -7.287030 0.299481 32.000000
92.370193 42.134468 4.592521 27.000000
77.055527 0.753153 3.741861 26.000000
39.935043 -17.240076 1.807873 16.000000
6.717933 -7.231887 0.291231 169.000000
92.649208 42.672661 4.649818 31.000000
77.077385 1.022453 3.743074 19.000000
40.159325 -17.162550 1.799896 23.000000
6.801706 -7.263378 0.286644 22.000000
49.971046 57.061367 2.635459 14.000000
76.893364 1.301905 3.734344 8.000000
40.347046 -17.068161 1.782517 20.000000
49.786579 57.272907 2.689828 11.000000
76.952423 1.611924 3.737496 9.000000
49.464001 57.304596 2.749337 18.000000
76.980949 1.894818 3.739194 11.000000
40.806187 -16.919168 1.766517 9.000000
77.398575 2.161938 3.759807 5.000000
41.066673 -16.851044 1.775108 8.000000
77.190895 2.425822 3.750107 1.000000
29.880449 -12.133192 1.272739 7.000000
7.539044 -7.763405 0.270145 32.000000
76.907631 2.699113 3.723337 9.000000
29.763275 -11.958726 1.243445 7.000000
7.580238 -7.751503 0.261182 48.000000
28.618914 34.142982 1.742623 1.000000
112.977875 4.379668 5.470351 15.000000
30.079153 -11.963869 1.243573 7.000000
7.545612 -7.659729 0.249632 67.000000
28.693899 34.488419 1.794087 12.000000
94.211090 46.787289 5.144613 22.000000
112.746506 4.784618 5.459960 29.000000
30.030214 -11.817108 1.228469 36.000000
7.330805 -7.387319 0.234359 13.000000
28.209610 34.148071 1.809965 12.000000
93.968880 47.076626 5.195493 30.000000
29.971287 -11.667241 1.213058 10.000000
28.229158 34.427952 1.850438 12.000000
94.088219 47.568607 5.248588 17.000000
29.804419 -11.476669 1.193430 26.000000
16.044130 -15.938072 0.477665 24.000000
28.111216 34.541546 1.889926 12.000000
93.901886 47.907345 5.303288 1.000000
30.196871 -11.500879 1.196154 28.000000
16.059959 -15.837270 0.460651 21.000000
30.396196 -11.455462 1.191104 26.000000
16.096632 -15.757485 0.448244 9.000000
27.901844 34.789848 1.970520 12.000000
30.199579 -11.255128 1.170510 39.000000
16.147329 -15.691628 0.432326 19.000000
27.486876 34.530991 1.988731 12.000000
94.839439 49.644108 5.535159 31.000000
100.282951 6.432282 4.932314 1.000000
30.747372 -11.331112 1.178671 34.000000
7.583099 -7.317800 0.194984 147.000000
27.328032 34.553665 2.008197 12.000000
94.583633 49.952713 5.587036 31.000000
99.946503 6.778620 4.881904 1.000000
7.538899 -7.227019 0.182290 85.000000
94.957840 50.575043 5.657192 5.000000
7.431430 -7.071910 0.171900 34.000000
21.097166 27.090748 1.625277 6.000000
30.695162 -10.936093 1.137898 10.000000
7.438030 -7.021510 0.164256 155.000000
20.914217 27.059835 1.654709 8.000000
30.673769 -10.801940 1.135630 31.000000
7.573217 -7.096815 0.161231 20.000000
20.759983 27.045162 1.667487 8.000000
95.645683 52.277725 5.903243 28.000000
30.705441 -10.698775 1.112755 11.000000
7.402864 -6.891214 0.148288 9.000000
20.700298 27.182865 1.706931 8.000000
95.511009 52.659679 5.983172 19.000000
30.828472 -10.603059 1.115662 10.000000
7.601930 -7.022232 0.146315 9.000000
20.603477 27.242680 1.724317 8.000000
68.404800 38.042355 4.307545 1.000000
20.549965 27.399851 1.758996 7.000000
68.269615 38.279793 4.348527 16.000000
83.872917 7.824950 4.164096 20.000000
8.947388 -8.144352 0.154161 16.000000
26.983767 36.241085 2.360054 10.000000
68.126442 38.559784 4.390348 1.000000
83.987816 8.146290 4.171256 33.000000
7.741956 -6.995394 0.125663 255.000000
26.988728 36.526474 2.419873 5.000000
68.168282 38.882500 4.470034 1.000000
83.920433 8.450343 4.213691 37.000000
7.808548 -7.003749 0.119003 9.000000
67.758842 38.963062 4.465763 14.000000
83.932419 8.732798 4.200959 21.000000
9.026327 -8.042164 0.130824 20.000000
26.686449 36.663422 2.479733 1.000000
67.708549 39.265060 4.513020 8.000000
83.977707 9.063583 4.204937 15.000000
37.071514 -11.852422 1.243514 8.000000
9.031002 -7.984337 0.119926 17.000000
67.286369 39.350494 4.535413 12.000000
83.981201 9.345798 4.221425 31.000000
9.075297 -7.964428 0.111695 16.000000
67.000343 39.497726 4.566262 16.000000
84.059753 9.666580 4.241931 28.000000
9.079089 -7.914615 0.105111 23.000000
66.561317 39.568371 4.586881 13.000000
104.871017 12.449424 5.294403 1.000000
9.062719 -7.842072 0.096221 13.000000
23.092978 32.687912 2.328698 10.000000
105.057106 12.843557 5.361587 7.000000
9.087656 -7.805586 0.087817 19.000000
104.181023 13.124179 5.337669 1.000000
9.112444 -7.769020 0.079421 28.000000
22.402876 32.197529 2.350982 9.000000
65.460999 39.879192 4.688222 9.000000
103.805374 13.463542 5.320915 1.000000
9.101368 -7.704877 0.074926 51.000000
23.369495 33.838093 2.508023 10.000000
65.038742 39.949535 4.735298 9.000000
103.156059 13.745633 5.344691 15.000000
9.105466 -7.645811 0.064331 87.000000
102.398460 14.026844 5.289980 7.000000
9.133453 -7.612407 0.058105 23.000000
102.419609 14.412366 5.311866 10.000000
9.135567 -7.562972 0.049679 27.000000
63.785378 40.136707 4.794240 26.000000
102.254601 14.771550 5.360321 22.000000
9.136209 -7.507237 0.041277 25.000000
21.425959 32.005714 2.477180 19.000000
63.697540 40.392506 4.837860 15.000000
102.029541 15.102806 5.351254 1.000000
9.150787 -7.457883 0.032966 28.000000
63.416599 40.541016 4.867349 8.000000
102.189796 15.509488 5.380692 2.000000
44.858021 -12.229700 1.355581 6.000000
9.174186 -7.421159 0.026773 29.000000
63.100578 40.649963 4.893423 14.000000
45.093727 -12.125014 1.353259 2.000000
9.187063 -7.381310 0.018512 28.000000
9.201051 -7.339845 0.014380 23.000000
25.501194 39.298416 3.177305 4.000000
61.581184 40.312954 4.888694 8.000000
9.200457 -7.284352 0.004096 26.000000
20.333632 31.575823 2.580101 9.000000
84.147636 -21.636751 2.472442 17.000000
9.215300 -7.241314 -0.002046 26.000000
21.515900 33.682316 2.787817 10.000000
60.982143 40.547131 4.966760 10.000000
84.163795 -21.312347 2.455440 9.000000
9.233892 -7.201340 -0.006131 26.000000
21.388321 33.754669 2.822343 10.000000
60.884815 40.805016 5.009535 15.000000
9.228589 -7.142961 -0.012221 26.000000
21.192062 33.704582 2.846872 10.000000
44.176342 -10.842575 1.262635 14.000000
9.230906 -7.090806 -0.020316 25.000000
21.056240 33.762554 2.887115 10.000000
44.228497 -10.691829 1.263051 8.000000
9.260798 -7.059947 -0.028454 22.000000
21.007774 33.948185 2.931725 9.000000
60.466953 41.464619 5.165491 13.000000
87.184441 16.158680 4.817674 3.000000
44.077965 -10.484594 1.249733 3.000000
9.250710 -6.998796 -0.034418 27.000000
19.901148 32.424889 2.827239 13.000000
9.268283 -6.958824 -0.042479 23.000000
29.178146 20.324688 2.542678 8.000000
83.446632 -19.203821 2.346933 27.000000
9.280478 -6.917455 -0.046465 27.000000
19.949553 33.031635 2.935353 9.000000
60.680809 42.583927 5.352864 9.000000
83.516861 -18.897936 2.331988 36.000000
9.281624 -6.865533 -0.054404 88.000000
19.786150 33.021000 2.975559 10.000000
60.626347 42.878204 5.427030 18.000000
36.382236 -8.092400 1.008533 99.000000
9.306708 -6.831457 -0.058434 1.000000
60.506466 43.111061 5.468846 17.000000
36.439899 -7.971837 0.996324 255.000000
17.260941 -12.573054 -0.119268 23.000000
21.065464 35.733532 3.279163 10.000000
36.424725 -7.828735 1.001625 255.000000
17.290625 -12.497939 -0.134051 26.000000
18.940462 32.399734 3.006389 9.000000
60.363560 43.679882 5.602410 16.000000
87.310547 18.446970 5.036051 5.000000
36.414223 -7.686957 0.994055 255.000000
17.348467 -12.443197 -0.141598 31.000000
19.429304 33.490360 3.135600 9.000000
60.384857 43.984982 5.656523 15.000000
87.449738 18.795498 5.063496 7.000000
36.378696 -7.540287 0.985835 255.000000
17.361307 -12.356289 -0.152490 26.000000
60.279518 44.247322 5.727442 19.000000
86.607178 18.946766 5.065266 1.000000
36.362003 -7.397933 0.984641 194.000000
17.410471 -12.295393 -0.167406 25.000000
19.549166 34.259441 3.270664 10.000000
60.049324 44.401733 5.772708 14.000000
84.256714 -16.820862 2.294896 37.000000
17.430803 -12.214249 -0.174600 25.000000
19.344316 34.177044 3.297744 10.000000
59.986038 44.695927 5.848010 11.000000
84.261360 -16.516150 2.278441 35.000000
17.475426 -12.150262 -0.178315 33.000000
19.814852 35.309650 3.435584 10.000000
59.855240 44.940590 5.890709 17.000000
86.754929 19.965170 5.210961 16.000000
84.360207 -16.214678 2.294496 27.000000
17.486811 -12.063342 -0.192811 28.000000
19.745441 35.475555 3.487826 10.000000
59.693882 45.146130 5.956025 13.000000
86.484108 20.236897 5.245781 31.000000
84.487434 -15.918254 2.311370 27.000000
9.877350 -6.760631 -0.112813 3.000000
19.834311 35.944614 3.584523 10.000000
9.860701 -6.696295 -0.112342 5.000000
19.813847 35.907528 3.609676 10.000000
59.603451 45.422100 6.147877 7.000000
9.863759 -6.700887 -0.099901 4.000000
19.896694 35.761990 3.573215 10.000000
60.017673 45.391010 6.146958 3.000000
84.479279 -15.931987 2.506433 21.000000
9.876330 -6.762464 -0.089833 1.000000
19.780197 35.247898 3.500638 18.000000
59.837860 44.927536 6.099296 17.000000
86.258934 19.851023 5.429233 10.000000
84.309845 -16.204998 2.518065 22.000000
17.485022 -12.066612 -0.144609 31.000000
19.462759 34.400311 3.395388 10.000000
59.939888 44.661545 6.066704 10.000000
86.096535 19.481657 5.429946 1.000000
84.237900 -16.542088 2.562868 27.000000
17.448984 -12.136395 -0.126129 26.000000
19.501282 34.175526 3.345645 24.000000
60.050739 44.418987 6.009706 19.000000
86.826874 19.312660 5.440341 17.000000
36.496735 -7.292768 1.117614 7.000000
17.449488 -12.231884 -0.111578 28.000000
60.213982 44.199215 5.996669 15.000000
87.037537 19.024996 5.464742 22.000000
36.346756 -7.401437 1.133284 195.000000
17.396444 -12.290039 -0.092938 33.000000
19.455404 33.535347 3.235187 8.000000
60.241966 43.880898 5.931036 13.000000
87.162903 18.733847 5.452856 32.000000
36.377907 -7.546746 1.141601 255.000000
17.363537 -12.362443 -0.081844 30.000000
19.017273 32.518097 3.123575 9.000000
36.403198 -7.691267 1.162772 254.000000
17.354725 -12.452272 -0.063376 35.000000
21.023630 35.648342 3.395273 10.000000
36.398594 -7.829765 1.183047 255.000000
17.311176 -12.512794 -0.052192 29.000000
21.212809 35.683865 3.376513 10.000000
60.630375 43.183395 5.832166 18.000000
36.420158 -7.987502 1.197809 255.000000
17.277355 -12.585011 -0.033576 37.000000
19.866446 33.141880 3.108911 9.000000
60.623825 42.844685 5.777284 17.000000
36.383095 -8.105921 1.217005 102.000000
17.259342 -12.668974 -0.018684 26.000000
19.893192 32.925331 3.061308 9.000000
60.657124 42.551510 5.727238 1.000000
83.491379 -18.922808 2.810024 27.000000
9.285746 -6.868582 -0.004032 31.000000
29.195063 20.336472 2.737718 8.000000
83.419472 -19.212902 2.824800 34.000000
9.280552 -6.917510 0.006061 27.000000
20.709822 33.729256 3.087195 4.000000
29.302256 20.236925 2.721375 4.000000
87.360786 16.475410 5.406256 1.000000
83.295944 -19.536886 2.883046 24.000000
9.287113 -6.975496 0.014190 24.000000
20.839684 33.663422 3.060333 8.000000
60.507027 41.476574 5.580204 14.000000
87.257713 16.125008 5.411728 5.000000
83.191315 -19.803623 2.896625 11.000000
9.265457 -7.012496 0.024337 29.000000
21.045555 33.732307 3.038354 9.000000
60.496136 41.144005 5.526728 9.000000
87.096153 15.765248 5.382583 7.000000
43.907196 -10.622269 1.538036 4.000000
9.255589 -7.058531 0.028442 28.000000
21.126585 33.613464 3.006066 9.000000
60.778149 41.026257 5.500762 25.000000
87.272217 15.466985 5.374398 7.000000
44.197681 -10.864171 1.557549 8.000000
9.261359 -7.116769 0.034655 35.000000
21.325226 33.668087 2.982614 9.000000
60.833412 40.770561 5.454938 16.000000
87.208580 15.141925 5.351686 12.000000
9.231234 -7.147584 0.044829 29.000000
21.457647 33.604053 2.955899 9.000000
61.046307 40.589790 5.434920 11.000000
94.184845 16.031643 5.793237 7.000000
84.176949 -21.346947 3.047748 6.000000
9.224656 -7.196726 0.053093 24.000000
20.359238 31.639841 2.756344 9.000000
61.547913 40.614204 5.428102 1.000000
94.126350 15.633156 5.769018 11.000000
9.237494 -7.261363 0.061523 26.000000
61.652836 40.359859 5.385483 9.000000
94.319283 15.327075 5.760790 17.000000
9.206873 -7.292046 0.067646 25.000000
61.932358 40.219345 5.358116 1.000000
94.207916 14.988495 5.734211 1.000000
9.199574 -7.341296 0.078061 26.000000
62.978367 40.555679 5.382532 8.000000
101.789856 15.776093 6.173759 1.000000
44.873623 -12.074230 1.679601 1.000000
9.189437 -7.385857 0.086424 28.000000
63.525887 40.610878 5.391332 9.000000
44.891445 -12.255650 1.690071 6.000000
9.162255 -7.419448 0.094655 27.000000
21.410868 31.995253 2.658307 9.000000
63.647785 40.376530 5.363239 1.000000
102.220741 15.131108 6.193502 1.000000
9.150456 -7.465590 0.100999 28.000000
63.785042 40.136497 5.322716 12.000000
101.530655 14.648881 6.130428 1.000000
9.142258 -7.514881 0.113606 27.000000
101.514465 14.266929 6.126252 1.000000
9.130025 -7.561069 0.117936 23.000000
9.106007 -7.597616 0.128335 25.000000
23.347841 33.819359 2.707973 10.000000
65.178993 40.035686 5.281826 10.000000
103.634636 13.809403 6.211453 9.000000
9.112473 -7.659834 0.137133 88.000000
22.373083 32.166683 2.547538 9.000000
65.395805 39.839481 5.247244 4.000000
9.103337 -7.709272 0.145749 113.000000
9.083921 -7.747440 0.152122 20.000000
23.099815 32.709702 2.547426 10.000000
9.100886 -7.819710 0.161264 25.000000
27.439638 38.554291 2.968953 7.000000
66.594460 39.572346 5.213108 13.000000
105.435760 12.497805 6.289295 1.000000
9.098537 -7.875843 0.170135 23.000000
67.204659 39.633984 5.209523 6.000000
105.620796 12.127347 6.279018 1.000000
9.061982 -7.902486 0.178388 18.000000
67.321671 39.371143 5.166356 10.000000
83.894905 9.321372 5.014946 10.000000
9.062883 -7.961937 0.189509 14.000000
26.690157 36.655067 2.733562 8.000000
67.202087 38.987034 5.105848 22.000000
37.094307 -11.888258 1.584934 10.000000
26.831152 36.579685 2.695178 13.000000
67.917725 39.070198 5.108103 19.000000
37.055233 -12.025678 1.585137 32.000000
68.127800 38.859409 5.071917 1.000000
27.181297 36.493088 2.639652 13.000000
68.368019 38.680763 5.065950 1.000000
83.879662 8.091469 4.962225 36.000000
36.843388 -12.249022 1.620511 12.000000
7.811679 -7.065827 0.194892 14.000000
27.178076 36.224129 2.587393 9.000000
68.246170 38.282303 5.005350 11.000000
37.067581 -12.474619 1.646049 9.000000
8.484005 -7.730684 0.220387 15.000000
20.610250 27.261524 1.928665 7.000000
68.365738 38.020626 4.976449 15.000000
92.547157 8.259614 5.455075 1.000000
37.153740 -12.655401 1.658786 10.000000
8.514421 -7.815710 0.229991 42.000000
20.618584 27.075562 1.890797 8.000000
95.464363 52.655693 6.878264 31.000000
36.889313 -12.716413 1.662695 9.000000
7.597373 -7.025399 0.214948 255.000000
20.794661 27.100128 1.867922 8.000000
95.585434 52.266464 6.815872 32.000000
31.131914 -10.853466 1.416423 9.000000
7.521503 -7.004105 0.218876 169.000000
20.891584 27.020803 1.843804 8.000000
30.888889 -10.895877 1.418628 22.000000
21.057320 27.039579 1.820097 8.000000
30.603636 -10.921545 1.418720 9.000000
7.564191 -7.148100 0.236175 29.000000
99.933113 7.093173 5.846781 5.000000
30.572332 -11.036864 1.430503 22.000000
94.678139 50.002625 6.529989 28.000000
30.920162 -11.290702 1.471730 9.000000
94.850700 49.671093 6.473625 27.000000
30.528639 -11.268662 1.466340 39.000000
27.800350 34.650909 2.219360 12.000000
30.224598 -11.282480 1.464998 25.000000
27.941175 34.590801 2.190314 12.000000
30.383499 -11.468848 1.486087 75.000000
7.214772 -7.070161 0.266281 2.000000
28.194799 34.631901 2.160691 12.000000
30.168604 -11.514236 1.477630 15.000000
27.986988 34.120453 2.096567 12.000000
94.012924 47.509941 6.147408 29.000000
16.026094 -15.936836 0.627364 26.000000
28.220957 34.149666 2.073707 12.000000
93.939346 47.041321 6.076087 33.000000
30.172882 -11.763916 1.504582 8.000000
16.019497 -16.041880 0.645133 31.000000
28.580313 34.339703 2.067849 12.000000
94.085236 46.683853 6.056023 18.000000
112.929688 4.733156 6.576582 18.000000
29.849783 -11.764161 1.513059 9.000000
7.318605 -7.382752 0.304900 28.000000
28.777966 34.320564 2.026032 12.000000
112.718353 4.330203 6.523847 22.000000
29.931742 -11.923390 1.519419 10.000000
7.613927 -7.737176 0.322175 21.000000
28.805302 34.122696 1.996551 1.000000
7.602740 -7.782660 0.334311 9.000000
41.289593 -16.791153 2.148803 10.000000
7.641477 -7.877136 0.344890 13.000000
41.051540 -16.869953 2.155147 17.000000
7.626251 -7.919313 0.353194 6.000000
40.803902 -16.943262 2.168581 21.000000
49.548836 56.979324 3.138395 18.000000
40.602673 -17.034447 2.176597 11.000000
7.103229 -7.485242 0.347730 1.000000
49.534920 56.583286 3.073021 23.000000
40.358337 -17.097855 2.182023 9.000000
49.693810 56.346737 3.017509 10.000000
92.443542 42.597492 5.512524 1.000000
40.166851 -17.190645 2.175061 11.000000
92.446365 42.188705 5.467859 29.000000
39.896259 -17.248121 2.186633 16.000000
6.909100 -7.440284 0.363440 18.000000
92.383728 41.751678 5.419576 27.000000
39.723713 -17.330099 2.195481 18.000000
92.567924 41.446419 5.368607 25.000000
39.490978 -17.409365 2.216505 16.000000
92.985947 41.302818 5.314490 1.000000
39.287037 -17.475285 2.208298 22.000000
18.427216 20.159170 0.987172 3.000000
39.068714 -17.533594 2.214270 12.000000
18.386257 19.973904 0.962260 4.000000
91.934677 39.993420 5.166518 25.000000
38.839401 -17.601988 2.227303 20.000000
6.984712 -7.795530 0.411247 29.000000
91.601555 39.449863 5.087278 28.000000
122.463203 -1.432114 7.061667 10.000000
38.625546 -17.684155 2.233786 10.000000
91.676025 39.103138 5.048923 34.000000
122.567261 -1.861249 7.067999 10.000000
38.418900 -17.760162 2.247809 22.000000
6.772881 -7.668824 0.418093 35.000000
25.642570 27.258856 1.241496 9.000000
91.599823 38.712124 5.002827 20.000000
38.241432 -17.832273 2.255643 18.000000
6.797226 -7.753480 0.428558 24.000000
25.725706 27.147171 1.214557 9.000000
91.466606 38.223801 4.935095 28.000000
36.921139 -17.389513 2.188833 8.000000
6.592802 -7.573465 0.424355 33.000000
25.780899 27.006464 1.179865 8.000000
91.476479 37.853390 4.893826 35.000000
35.476048 -16.868034 2.134317 8.000000
6.623544 -7.665331 0.436996 89.000000
25.921844 26.955606 1.155653 9.000000
91.431320 37.442802 4.849463 27.000000
33.689449 -16.170208 2.043466 7.000000
6.582196 -7.674157 0.443193 34.000000
26.144970 26.998367 1.135129 9.000000
91.194595 36.956142 4.795261 27.000000
82.731522 -2.758942 4.772922 19.000000
32.528244 -15.759803 1.995505 3.000000
6.623127 -7.776646 0.456705 28.000000
91.168732 36.557213 4.752456 22.000000
31.298147 -15.285419 1.935175 7.000000
91.003227 36.141010 4.703296 26.000000
82.356949 -3.322194 4.738100 31.000000
30.184851 -14.878972 1.875590 7.000000
6.485317 -7.728899 0.463449 38.000000
30.471727 30.781761 1.202285 7.000000
90.949066 35.752464 4.659828 31.000000
28.895922 -14.375504 1.810063 9.000000
6.505993 -7.808735 0.475760 26.000000
30.507141 30.592453 1.176611 8.000000
26.425962 -13.261993 1.684117 20.000000
6.480244 -7.836053 0.484868 33.000000
30.738279 30.609791 1.151091 11.000000
90.576668 34.805405 4.542049 30.000000
26.323210 -13.331428 1.691005 30.000000
6.352983 -7.739755 0.486224 53.000000
30.381924 30.054924 1.096688 11.000000
90.605835 34.472225 4.469931 28.000000
25.847197 -13.209606 1.668608 25.000000
6.224806 -7.637808 0.483623 28.000000
30.467323 29.898373 1.058155 25.000000
90.246857 33.957520 4.412321 33.000000
77.419464 -4.518209 4.471574 1.000000
25.212219 -13.001854 1.645584 6.000000
6.259316 -7.737892 0.497211 79.000000
90.188400 33.576603 4.370043 23.000000
77.038681 -4.779371 4.450562 1.000000
24.240650 -12.608130 1.594603 10.000000
6.271336 -7.811129 0.507447 21.000000
56.441055 54.599762 1.836914 13.000000
89.984161 33.125557 4.320695 23.000000
77.244019 -5.076380 4.477026 1.000000
23.468700 -12.316118 1.560707 13.000000
6.408717 -8.039567 0.529827 23.000000
56.492966 54.288486 1.778006 14.000000
90.566368 32.963463 4.309110 12.000000
22.813950 -12.079365 1.533663 10.000000
56.751122 54.100052 1.724517 6.000000
91.442078 32.867100 4.310478 26.000000
22.093376 -11.796763 1.492368 9.000000
6.632904 -8.447104 0.566622 87.000000
56.876633 53.860825 1.668182 4.000000
92.252197 32.831390 4.309535 17.000000
21.469511 -11.564976 1.461624 9.000000
6.563163 -8.418623 0.572513 81.000000
56.808609 53.402836 1.605979 1.000000
92.500565 32.538300 4.281243 21.000000
20.864990 -11.338199 1.435767 9.000000
56.835125 53.018158 1.533106 6.000000
93.152313 32.347946 4.236392 26.000000
20.299414 -11.122815 1.411676 18.000000
56.960068 52.782543 1.477512 1.000000
19.773458 -10.929049 1.381834 10.000000
6.567666 -8.615053 0.607554 26.000000
57.098518 52.523174 1.435464 10.000000
94.379395 32.037491 4.264494 24.000000
19.300898 -10.760398 1.367042 10.000000
6.451456 -8.527259 0.607180 23.000000
57.250935 52.277287 1.366791 11.000000
95.184914 31.940819 4.225608 13.000000
18.762728 -10.546383 1.335295 10.000000
6.361437 -8.469560 0.608906 27.000000
57.190964 51.839417 1.306910 12.000000
95.568291 31.680223 4.202237 14.000000
18.306587 -10.378469 1.316592 10.000000
6.398706 -8.584523 0.622980 28.000000
57.407425 51.653606 1.240111 1.000000
95.786224 31.363285 4.136252 28.000000
18.159527 -10.383229 1.319740 18.000000
57.673759 51.530075 1.187964 1.000000
18.144184 -10.458667 1.332280 28.000000
6.182899 -8.413918 0.623989 34.000000
58.008720 51.448261 1.136828 1.000000
18.105125 -10.524747 1.343245 10.000000
6.245742 -8.571334 0.643088 34.000000
58.099911 51.149918 1.080882 1.000000
18.076685 -10.592810 1.347542 11.000000
6.189195 -8.556325 0.647737 30.000000
93.468636 29.112238 3.897740 5.000000
18.071493 -10.678938 1.361101 10.000000
6.058523 -8.440649 0.646396 42.000000
27.985218 24.275774 0.465572 21.000000
93.556900 28.763985 3.862778 14.000000
18.031618 -10.744736 1.372091 13.000000
93.553658 28.388107 3.807054 24.000000
17.998074 -10.810059 1.376082 14.000000
5.980158 -8.458595 0.658998 70.000000
90.809319 77.613327 1.313560 15.000000
93.648766 28.042538 3.772541 1.000000
17.966248 -10.880746 1.387734 14.000000
5.974573 -8.516747 0.670934 38.000000
91.007942 77.234978 1.229184 15.000000
94.144463 27.815384 3.771218 1.000000
17.942656 -10.956542 1.400060 14.000000
6.001560 -8.619054 0.684702 21.000000
91.428848 77.017517 1.126715 10.000000
95.164429 27.755922 3.738866 6.000000
17.907921 -11.021336 1.411403 14.000000
5.901525 -8.541984 0.685956 39.000000
79.951599 -11.094200 4.710692 1.000000
17.871016 -11.089138 1.422750 10.000000
6.041899 -8.814068 0.715389 76.000000
95.030731 26.962656 3.673953 1.000000
79.893791 -11.356345 4.723611 1.000000
17.854990 -11.170039 1.435803 10.000000
5.909720 -8.686103 0.712534 45.000000
58.654831 48.316929 0.570331 10.000000
95.423668 26.696630 3.650701 1.000000
80.078827 -11.682238 4.737051 1.000000
17.824120 -11.237485 1.440161 15.000000
5.936244 -8.794221 0.725195 89.000000
17.799440 -11.313307 1.445205 11.000000
5.952353 -8.884808 0.740323 21.000000
25.976898 21.080757 0.198525 6.000000
17.746599 -11.366888 1.455215 13.000000
5.941548 -8.939364 0.750580 26.000000
26.050198 20.982353 0.175143 8.000000
17.729317 -11.447675 1.468331 17.000000
5.822065 -8.826272 0.748646 31.000000
17.720253 -11.534067 1.478488 18.000000
5.775806 -8.826357 0.752403 7.000000
86.672371 22.560308 3.127518 17.000000
17.704258 -11.611838 1.491667 10.000000
5.739169 -8.837544 0.760888 6.000000
9.984976 -6.601395 0.849613 2.000000
5.844108 -9.071757 0.788670 1.000000
59.190899 46.278282 0.157362 14.000000
85.384506 21.558039 2.998320 20.000000
9.949048 -6.627666 0.854810 7.000000
15.004056 -23.479239 2.060865 13.000000
59.447109 46.128529 0.091929 9.000000
85.719360 -15.052939 5.094383 1.000000
9.895706 -6.644626 0.852314 8.000000
14.972387 -23.592707 2.081397 13.000000
59.429634 45.766979 0.052367 10.000000
84.921432 20.780142 2.900249 18.000000
85.899437 -15.409319 5.108407 1.000000
9.870915 -6.680600 0.858555 1.000000
14.911293 -23.706249 2.105778 26.000000
59.886990 45.770500 0.000000 3.000000
85.570808 20.606926 2.904449 22.000000
86.036613 -15.744110 5.119802 2.000000
17.716652 -12.080950 1.555909 10.000000
14.793156 -23.701603 2.125286 27.000000
59.807327 45.363338 -0.065507 1.000000
85.025276 20.146135 2.822340 14.000000
17.692354 -12.159618 1.565212 10.000000
14.603063 -23.589083 2.129865 10.000000
60.001091 45.164829 -0.131074 7.000000
33.284245 7.763860 1.086021 4.000000
48.291683 -9.203397 2.877643 87.000000
17.657776 -12.226825 1.569688 10.000000
13.938013 -22.691397 2.063109 9.000000
59.905769 44.750046 -0.182710 10.000000
33.229858 7.622862 1.077371 3.000000
48.056240 -9.341187 2.874207 101.000000
17.636477 -12.307952 1.586889 10.000000
13.682646 -22.459824 2.060571 10.000000
33.340992 7.519832 1.062160 8.000000
47.772522 -9.441886 2.850470 45.000000
17.627975 -12.389148 1.593593 10.000000
13.588240 -22.463387 2.070802 10.000000
33.500610 7.426907 1.048387 8.000000
17.612368 -12.479484 1.604078 10.000000
13.538212 -22.584906 2.095477 10.000000
61.100933 44.637291 -0.369792 14.000000
87.458786 19.053110 2.672235 1.000000
47.376888 -9.742314 2.814303 10.000000
17.582834 -12.546346 1.608960 10.000000
13.527617 -22.728851 2.123462 21.000000
92.049675 66.730843 -0.634989 200.000000
87.538269 18.734621 2.656909 9.000000
47.085842 -9.845323 2.790514 130.000000
17.505627 -12.583703 1.621040 9.000000
13.468605 -22.819592 2.150588 18.000000
92.224052 66.342949 -0.753484 32.000000
46.725956 -9.957482 2.763065 202.000000
17.358442 -12.574654 1.611668 10.000000
13.416187 -22.913124 2.164305 10.000000
61.424271 43.845863 -0.566391 13.000000
17.312237 -12.638191 1.611668 9.000000
13.376391 -23.038403 2.190216 15.000000
17.328552 -12.645466 1.579098 9.000000
13.396766 -23.064220 2.160089 16.000000
92.229195 66.297813 -1.030896 39.000000
17.398369 -12.603577 1.555054 10.000000
13.428149 -22.933554 2.119550 10.000000
91.941185 66.603241 -1.010582 233.000000
33.736126 7.213924 0.879282 34.000000
47.127193 -9.871139 2.599277 10.000000
17.526970 -12.599044 1.535903 9.000000
13.472870 -22.817720 2.080818 11.000000
61.102886 44.606018 -0.647002 16.000000
33.670536 7.329053 0.872249 36.000000
85.236221 -17.511986 4.636493 9.000000
17.567865 -12.535665 1.516715 10.000000
13.514344 -22.697536 2.041892 17.000000
33.648476 7.453526 0.866360 35.000000
85.663261 -17.303864 4.610688 4.000000
17.606625 -12.466186 1.497188 10.000000
13.535578 -22.553724 2.005485 10.000000
37.137936 27.520769 -0.363047 10.000000
33.632008 7.573133 0.866611 37.000000
85.635399 -16.971796 4.559972 3.000000
17.616526 -12.376508 1.475285 9.000000
13.616649 -22.501482 1.977564 13.000000
60.200661 44.953964 -0.537650 4.000000
33.613914 7.698615 0.860844 32.000000
84.410233 -16.407686 4.446356 1.000000
17.660460 -12.324690 1.456834 10.000000
59.779945 44.982021 -0.509246 18.000000
33.575439 7.819427 0.872628 19.000000
84.408890 -16.101858 4.428260 1.000000
17.706314 -12.251291 1.445223 10.000000
59.849888 45.379162 -0.485036 14.000000
85.007355 20.126221 2.195993 27.000000
17.688316 -12.147755 1.421475 14.000000
14.735949 -23.775919 2.019792 10.000000
59.520393 45.473866 -0.457566 1.000000
84.942741 20.439993 2.196244 1.000000
17.737762 -12.095345 1.403401 10.000000
14.836771 -23.762251 1.998227 29.000000
59.634853 45.908440 -0.407194 1.000000
85.129074 20.815205 2.218325 19.000000
86.013748 -15.445321 4.396378 1.000000
9.908295 -6.698337 0.773420 6.000000
14.922694 -23.687668 1.962602 13.000000
59.663834 46.280014 -0.382189 6.000000
86.288445 -15.168400 4.361559 1.000000
9.903168 -6.644622 0.760754 4.000000
14.974120 -23.586338 1.934026 10.000000
59.202488 46.270695 -0.327859 19.000000
86.111694 21.709669 2.263431 24.000000
9.931940 -6.611266 0.754825 8.000000
13.942893 -21.785137 1.763296 8.000000
10.009631 -6.612676 0.748461 1.000000
13.906117 -21.561537 1.726624 10.000000
17.668245 -11.579400 1.306840 13.000000
13.964273 -21.478466 1.697111 10.000000
99.969109 26.375648 2.689306 1.000000
17.715322 -11.517656 1.296086 23.000000
26.015203 20.946680 -0.075782 96.000000
99.978439 26.770441 2.674102 1.000000
17.747974 -11.450946 1.277042 12.000000
5.895153 -8.926902 0.689919 9.000000
25.969353 21.067116 -0.052527 7.000000
100.023369 27.157000 2.714026 12.000000
17.777775 -11.378107 1.265085 16.000000
5.836983 -8.768754 0.668269 16.000000
99.952072 27.531389 2.714811 17.000000
17.807642 -11.305432 1.245781 15.000000
5.929031 -8.839984 0.665945 68.000000
58.792274 48.412933 -0.039877 20.000000
17.826729 -11.239131 1.233567 10.000000
5.827618 -8.620314 0.640063 98.000000
58.422043 48.468472 0.013249 1.000000
17.868195 -11.165288 1.218566 21.000000
5.804603 -8.522004 0.625233 27.000000
58.343746 48.765640 0.039814 8.000000
94.631493 27.188774 2.629852 18.000000
17.893116 -11.098527 1.203001 17.000000
5.991534 -8.727522 0.630792 32.000000
58.260193 49.059635 0.093053 6.000000
94.933861 27.652719 2.658324 11.000000
79.615173 -10.750244 3.746472 1.000000
17.927629 -11.024838 1.191411 16.000000
5.942771 -8.592060 0.613348 16.000000
58.511822 49.621635 0.133902 3.000000
94.040970 27.749117 2.636018 1.000000
79.665237 -10.459838 3.718891 1.000000
17.935144 -10.947659 1.171096 11.000000
5.985944 -8.587036 0.605386 29.000000
94.119720 28.147766 2.675416 8.000000
79.941498 -10.198201 3.715922 1.000000
17.981838 -10.881611 1.160370 16.000000
6.040696 -8.598230 0.596692 31.000000
58.203186 50.097996 0.227855 20.000000
93.670616 28.387896 2.699782 23.000000
18.014065 -10.819663 1.149091 15.000000
5.967086 -8.430737 0.579276 28.000000
28.055693 24.328327 0.136107 9.000000
93.642838 28.754635 2.684890 15.000000
18.036955 -10.743651 1.137007 10.000000
6.033027 -8.457993 0.573570 14.000000
91.019386 79.513237 0.506256 10.000000
93.712509 29.152315 2.724217 10.000000
18.059864 -10.667814 1.117622 10.000000
6.147351 -8.554945 0.570531 45.000000
90.558151 79.697403 0.589531 10.000000
93.599342 29.493801 2.758335 1.000000
18.088877 -10.599954 1.106112 15.000000
6.123315 -8.455920 0.556283 37.000000
90.511063 80.218346 0.675481 10.000000
18.114510 -10.517516 1.094091 18.000000
6.139832 -8.413641 0.545864 22.000000
58.633545 52.350830 0.493887 9.000000
96.324211 31.111874 2.880486 17.000000
18.128145 -10.445208 1.081832 21.000000
6.210851 -8.448866 0.540377 31.000000
95.747795 31.313702 2.901855 36.000000
18.178156 -10.389672 1.067990 24.000000
6.268861 -8.462608 0.531664 26.000000
95.218636 31.527431 2.924341 22.000000
18.328997 -10.378494 1.059653 12.000000
6.362843 -8.523983 0.527676 27.000000
94.869751 31.798220 2.934665 16.000000
18.777227 -10.550220 1.076000 9.000000
6.350760 -8.446131 0.516831 18.000000
86.303963 79.360558 1.043649 10.000000
19.324209 -10.760135 1.093359 10.000000
6.445280 -8.506748 0.512646 22.000000
86.057480 79.634315 1.105086 10.000000
93.539108 32.062080 2.934733 23.000000
19.758068 -10.916040 1.104005 10.000000
6.553963 -8.593966 0.511578 27.000000
85.735329 79.921516 1.166080 10.000000
92.894066 32.258266 2.952891 22.000000
20.284988 -11.110309 1.110934 10.000000
56.812592 53.350574 0.829773 22.000000
92.378174 32.459019 2.974463 23.000000
20.881350 -11.342368 1.133105 9.000000
6.445922 -8.319024 0.479736 37.000000
56.808735 53.740135 0.887189 5.000000
91.803772 32.599606 2.959433 23.000000
21.429016 -11.538336 1.147749 9.000000
91.196739 32.778919 2.994689 35.000000
22.137033 -11.815110 1.170176 10.000000
6.431738 -8.179155 0.454296 137.000000
90.619423 32.946953 3.013367 21.000000
22.829908 -12.077614 1.186384 10.000000
6.409180 -8.089272 0.441582 37.000000
90.032700 33.107746 3.031390 23.000000
77.749825 -5.109622 3.361079 1.000000
23.438646 -12.295131 1.201892 10.000000
6.381481 -7.996805 0.430592 53.000000
89.919121 33.440624 3.065194 23.000000
77.628174 -4.829544 3.341470 1.000000
24.259676 -12.612647 1.227269 10.000000
6.301417 -7.837383 0.414458 24.000000
30.546354 29.965466 0.634853 10.000000
90.043877 33.863201 3.073657 24.000000
77.407135 -4.531046 3.304103 8.000000
25.283178 -13.027275 1.261701 6.000000
6.342950 -7.830097 0.404729 28.000000
30.389771 30.031223 0.663717 25.000000
90.237083 34.295876 3.118052 24.000000
25.764826 -13.161838 1.273317 33.000000
6.370420 -7.808124 0.397694 22.000000
30.599895 30.450720 0.693232 10.000000
90.392441 34.698406 3.161212 26.000000
26.330866 -13.329532 1.273064 27.000000
6.383811 -7.771778 0.388129 25.000000
56.007748 56.144768 1.328873 1.000000
90.456352 35.140205 3.202265 1.000000
81.818993 -3.887110 3.476065 13.000000
26.442450 -13.264490 1.265755 22.000000
6.375585 -7.701283 0.377090 34.000000
55.807785 56.355923 1.398255 1.000000
90.632401 35.554951 3.212654 32.000000
81.808311 -3.600440 3.446421 21.000000
28.884750 -14.357370 1.363215 9.000000
55.796413 56.759026 1.458756 6.000000
90.724243 36.011887 3.272173 14.000000
82.519768 -3.328762 3.475856 22.000000
30.306583 -14.932404 1.410128 8.000000
6.576932 -7.826980 0.367728 9.000000
55.628662 56.984901 1.515177 20.000000
90.865929 36.435795 3.316063 15.000000
82.721733 -3.033268 3.469398 18.000000
31.389616 -15.323304 1.445684 10.000000
6.641296 -7.845016 0.360735 36.000000
26.115915 26.949533 0.746775 7.000000
90.902061 36.837593 3.356563 3.000000
32.363728 -15.652205 1.469040 7.000000
6.581268 -7.719305 0.348919 34.000000
25.888462 26.911491 0.762647 9.000000
90.995682 37.227314 3.398919 30.000000
33.764439 -16.177210 1.503738 7.000000
6.590714 -7.678662 0.340995 74.000000
25.768566 26.984114 0.788083 9.000000
91.347130 37.799866 3.469512 17.000000
35.274147 -16.749397 1.561535 10.000000
25.701347 27.102510 0.815004 9.000000
91.294449 38.170570 3.507386 27.000000
90.083763 -1.997095 3.776556 11.000000
36.999504 -17.402758 1.620784 8.000000
25.645885 27.243317 0.849073 9.000000
91.416954 38.559639 3.551406 25.000000
38.287106 -17.837303 1.637397 24.000000
6.818450 -7.766746 0.319376 55.000000
91.562889 39.017113 3.614788 18.000000
77.033485 -1.169794 3.229032 9.000000
