VERSION .7
FIELDS x y z intensity
SIZE 4 4 4 4
TYPE F F F F
COUNT 1 1 1 1
WIDTH 1225
HEIGHT 1
VIEWPOINT 0 0 0 1 0 0 0
POINTS 1225
DATA ascii
87.936203 35.993568 9.785576 29.000000
35.860519 -17.405199 4.323277 10.000000
6.659565 -7.844360 0.849607 15.000000
27.872490 29.197485 2.836786 9.000000
87.992126 36.393566 9.806578 26.000000
36.083595 -17.350351 4.314196 20.000000
6.682178 -7.812773 0.841607 15.000000
25.214977 26.608221 2.601940 7.000000
88.052307 36.796970 9.861916 26.000000
36.292030 -17.294863 4.331872 18.000000
6.674014 -7.748309 0.829981 21.000000
27.433201 29.162352 2.862920 2.000000
88.213394 37.226517 9.928232 17.000000
36.475624 -17.203022 4.324148 16.000000
6.692464 -7.706946 0.819455 19.000000
27.241354 29.161713 2.881508 10.000000
88.320213 37.653542 9.989595 29.000000
36.660625 -17.141893 4.317884 11.000000
6.724230 -7.686439 0.814508 16.000000
27.176996 29.307417 2.914094 9.000000
88.452438 38.093643 10.054258 29.000000
36.860767 -17.078930 4.327238 17.000000
6.708559 -7.614723 0.802256 15.000000
30.249306 32.861320 3.287768 6.000000
88.771523 38.562119 10.138403 31.000000
37.084023 -17.017551 4.317289 10.000000
6.724221 -7.581665 0.793999 19.000000
27.732988 30.350216 3.040772 10.000000
88.746429 38.975437 10.170427 26.000000
37.577568 -17.077583 4.352862 19.000000
6.735125 -7.532827 0.782838 14.000000
27.655600 30.478491 3.072824 10.000000
88.738419 39.341984 10.219442 28.000000
37.724483 -16.985722 4.348384 12.000000
6.737805 -7.490975 0.773487 20.000000
28.987114 32.182152 3.264260 11.000000
88.813995 39.765633 10.313556 23.000000
37.895515 -16.911810 4.346965 15.000000
6.755354 -7.455346 0.768827 15.000000
28.732435 32.112915 3.277811 11.000000
88.899147 40.158184 10.338851 28.000000
38.136028 -16.851805 4.352726 10.000000
6.775065 -7.424847 0.759294 19.000000
29.480377 33.192879 3.408166 12.000000
88.716408 40.467800 10.369200 25.000000
38.314465 -16.771040 4.351626 19.000000
6.768848 -7.363646 0.748545 15.000000
23.470129 26.593550 2.741661 9.000000
89.014641 40.942162 10.453629 25.000000
38.500271 -16.684494 4.350950 24.000000
6.782594 -7.324534 0.740084 17.000000
28.339664 32.372139 3.355866 11.000000
89.179878 41.452690 10.527212 31.000000
38.527382 -16.528778 4.317558 26.000000
6.813145 -7.303648 0.733480 22.000000
28.356600 32.632038 3.402379 10.000000
89.152832 41.819176 10.575956 30.000000
38.676395 -16.433092 4.327802 10.000000
6.794388 -7.232758 0.725256 11.000000
25.652288 29.728951 3.117918 7.000000
89.274170 42.275986 10.643539 28.000000
38.852375 -16.340015 4.325895 18.000000
6.830744 -7.213216 0.715582 15.000000
23.269304 27.167952 2.859209 9.000000
89.489197 42.780060 10.705311 28.000000
39.089291 -16.271301 4.315736 10.000000
6.841119 -7.176355 0.708954 19.000000
23.116625 27.190775 2.877751 9.000000
89.540154 43.150520 10.797775 30.000000
39.294411 -16.195986 4.317125 21.000000
6.840080 -7.122809 0.699207 12.000000
22.951227 27.197601 2.894559 9.000000
89.662254 43.653744 10.868766 32.000000
39.529236 -16.123535 4.328875 18.000000
6.854754 -7.088396 0.692985 16.000000
22.867321 27.290884 2.927253 9.000000
89.823883 44.140427 10.943249 28.000000
39.731766 -16.036545 4.337034 10.000000
6.874063 -7.056423 0.685407 22.000000
22.584780 27.135973 2.914995 9.000000
89.914658 44.536263 10.989022 31.000000
40.015972 -15.989046 4.339145 10.000000
6.865275 -6.995917 0.675093 17.000000
25.988682 31.481987 3.406488 10.000000
90.171753 45.115288 11.078108 21.000000
40.182129 -15.884896 4.335584 10.000000
6.905227 -6.985232 0.669611 13.000000
23.066446 28.121555 3.060589 9.000000
90.164627 45.486191 11.131380 18.000000
40.487053 -15.834106 4.346868 9.000000
6.902869 -6.931845 0.661768 10.000000
23.014898 28.289549 3.094435 25.000000
90.214378 45.946690 11.212877 20.000000
40.631657 -15.727355 4.341111 8.000000
6.899169 -6.879930 0.650566 9.000000
22.916300 28.380205 3.114381 11.000000
90.368027 46.442856 11.253057 1.000000
45.134163 -17.280207 4.781290 18.000000
6.928205 -6.858425 0.644093 1.000000
22.349731 27.867109 3.081328 9.000000
45.233643 -17.128468 4.793671 9.000000
14.351736 -14.103411 1.322366 23.000000
90.222519 47.147144 11.400553 23.000000
44.954578 -16.843609 4.740915 9.000000
14.393437 -14.041063 1.303835 22.000000
24.551353 31.087406 3.472662 10.000000
90.037796 47.511719 11.437203 1.000000
45.031555 -16.684488 4.725626 9.000000
14.412045 -13.951617 1.286597 19.000000
24.664873 31.444975 3.531565 10.000000
90.023163 47.866169 11.508452 1.000000
44.995831 -16.483948 4.698617 9.000000
14.462310 -13.907672 1.276411 23.000000
91.113235 48.874966 11.707180 12.000000
48.117466 -17.427778 4.999849 9.000000
14.466904 -13.810389 1.258322 26.000000
91.241791 49.354836 11.764101 11.000000
47.983692 -17.190098 4.952743 9.000000
14.467347 -13.709817 1.240012 11.000000
91.462250 49.908260 11.852870 24.000000
14.547051 -13.684500 1.232039 9.000000
19.699577 25.868757 2.959154 10.000000
91.530022 50.381485 11.940921 23.000000
14.597734 -13.631673 1.218095 11.000000
19.603380 25.939131 2.981853 8.000000
91.815361 50.956947 12.075550 27.000000
36.039997 -12.472924 3.685642 7.000000
14.638374 -13.574279 1.207034 8.000000
19.701096 26.268028 3.034459 8.000000
91.829865 51.448254 12.160369 30.000000
89.592125 8.058933 10.503488 1.000000
36.171452 -12.370152 3.680956 7.000000
14.711731 -13.532869 1.194588 9.000000
19.527103 26.226263 3.056278 20.000000
91.871300 51.872498 12.225888 25.000000
89.705391 8.400680 10.520305 15.000000
43.639549 -14.745709 4.419183 9.000000
14.686827 -13.420321 1.181976 10.000000
19.166294 25.939613 3.037381 10.000000
92.169380 52.465939 12.327372 17.000000
89.375191 8.653085 10.500604 9.000000
43.653725 -14.580920 4.407331 22.000000
14.706946 -13.340121 1.165742 20.000000
19.005081 25.919657 3.049506 16.000000
91.738281 52.666660 12.351587 1.000000
90.372421 9.115957 10.621981 14.000000
43.571255 -14.376077 4.377493 32.000000
14.757584 -13.292453 1.155636 8.000000
18.327715 25.179697 2.971358 9.000000
91.322929 52.895473 12.341592 1.000000
89.918381 9.387339 10.588396 1.000000
43.619644 -14.214977 4.369011 34.000000
7.463483 -6.668437 0.573586 6.000000
91.422623 53.358868 12.453825 1.000000
90.243790 9.755807 10.630855 17.000000
43.679920 -14.066147 4.353941 28.000000
7.469349 -6.624608 0.568670 6.000000
18.388918 25.656979 3.067296 9.000000
43.840889 -13.957696 4.357246 35.000000
7.525211 -6.629699 0.565978 8.000000
18.306658 25.731426 3.090794 17.000000
43.891750 -13.796917 4.357246 27.000000
7.515933 -6.572753 0.556472 1.000000
18.134157 25.668743 3.092639 8.000000
14.217031 -12.341262 1.039371 25.000000
17.812466 25.429392 3.082520 21.000000
27.885511 16.814980 3.894425 6.000000
14.377802 -12.393079 1.034664 20.000000
17.739782 25.495705 3.105687 9.000000
27.911612 16.970526 3.918296 8.000000
14.628394 -12.515923 1.039279 15.000000
18.209200 26.395739 3.234658 8.000000
27.909706 17.103090 3.943773 10.000000
48.376877 -14.421773 4.709621 9.000000
14.640331 -12.433486 1.026797 19.000000
18.099813 26.444010 3.255023 9.000000
27.797451 17.174759 3.965710 8.000000
48.474678 -14.266873 4.714265 9.000000
14.659353 -12.357446 1.018236 25.000000
17.418831 25.640656 3.175966 8.000000
27.751165 17.287022 3.968119 12.000000
48.503387 -14.100718 4.703592 9.000000
14.942653 -12.502862 1.017674 26.000000
17.240992 25.560822 3.175292 25.000000
27.798880 17.438206 4.011818 25.000000
15.057794 -12.505660 1.015536 33.000000
17.440472 26.081797 3.264496 13.000000
27.701715 17.532606 4.025344 10.000000
47.062840 -13.317442 4.528707 9.000000
15.171107 -12.510543 1.009903 26.000000
17.229502 25.961969 3.269439 8.000000
27.693552 17.663130 4.044732 12.000000
47.095974 -13.122854 4.535396 15.000000
15.194215 -12.436321 0.994657 30.000000
16.818533 25.545429 3.230787 15.000000
27.643539 17.774103 4.064384 11.000000
42.508286 -11.692770 4.074318 7.000000
15.189710 -12.339941 0.981122 34.000000
16.803217 25.707375 3.265886 9.000000
27.584745 17.879538 4.082825 13.000000
47.164700 -12.787850 4.507500 10.000000
15.235233 -12.284506 0.970875 38.000000
17.008381 26.240717 3.352921 12.000000
62.247963 40.656387 9.273817 11.000000
15.249489 -12.204041 0.955257 34.000000
18.601240 28.907778 3.710080 8.000000
62.135914 40.908878 9.318959 7.000000
15.235588 -12.101578 0.948198 27.000000
16.594912 25.998701 3.350680 8.000000
61.766785 40.975628 9.311275 7.000000
75.309433 -19.546476 7.121862 23.000000
15.321390 -12.082747 0.937253 34.000000
16.814699 26.567415 3.448947 13.000000
27.421358 18.336216 4.173087 8.000000
75.486946 -19.311552 7.145945 24.000000
15.318762 -11.989871 0.924189 36.000000
16.774059 26.719421 3.482967 8.000000
27.322466 18.408428 4.185318 8.000000
15.378760 -11.946195 0.914941 30.000000
16.534567 26.543238 3.480081 19.000000
27.347364 18.571299 4.217120 6.000000
15.383141 -11.859449 0.905815 38.000000
60.299259 41.272308 9.373603 6.000000
76.917671 -18.793179 7.233835 1.000000
15.260272 -11.675801 0.885972 35.000000
16.406046 26.751268 3.536621 8.000000
127.689857 23.573723 15.713298 10.000000
77.374565 -18.604557 7.256339 5.000000
15.267529 -11.592885 0.873861 32.000000
16.507324 27.139111 3.613563 8.000000
59.006924 40.980339 9.292338 6.000000
127.569443 24.012268 15.777664 10.000000
15.312135 -11.542711 0.867396 27.000000
16.220926 26.879131 3.599140 10.000000
58.635338 41.056904 9.322097 9.000000
15.306583 -11.450787 0.858012 26.000000
16.768572 28.018238 3.772285 8.000000
58.389526 41.174023 9.342720 12.000000
15.360841 -11.403809 0.848668 25.000000
16.666782 28.070061 3.794503 10.000000
58.157452 41.330349 9.367761 11.000000
82.395569 -18.553534 7.656615 8.000000
15.402891 -11.347692 0.838650 25.000000
16.706066 28.372593 3.850395 8.000000
57.968521 41.501385 9.398582 9.000000
34.136082 -7.555287 3.163351 7.000000
15.384241 -11.247197 0.825388 19.000000
16.602766 28.435011 3.879712 8.000000
57.806667 41.706821 9.447695 18.000000
34.001137 -7.401015 3.154556 17.000000
15.425593 -11.190905 0.818735 16.000000
16.466866 28.429701 3.900193 8.000000
57.644699 41.896698 9.483037 22.000000
34.090801 -7.289766 3.166509 15.000000
15.450636 -11.122867 0.807909 34.000000
57.514664 42.156063 9.540078 16.000000
34.151943 -7.172045 3.163584 7.000000
15.459121 -11.043176 0.796266 29.000000
57.578644 42.481670 9.598207 15.000000
15.501988 -10.992276 0.786525 15.000000
18.721296 33.143749 4.619935 9.000000
57.596008 42.821381 9.716475 17.000000
15.546258 -10.938259 0.786731 29.000000
16.138371 28.817135 4.043674 8.000000
57.846966 43.338078 9.824086 7.000000
15.537426 -10.847122 0.774329 30.000000
18.512043 33.341694 4.702798 9.000000
57.862457 43.665855 9.916978 12.000000
15.568974 -10.784490 0.770615 33.000000
18.682760 33.927685 4.817406 9.000000
57.649181 43.837456 9.959409 11.000000
15.616853 -10.733166 0.764407 34.000000
18.465931 33.826759 4.827588 9.000000
57.598976 44.117447 10.041800 8.000000
83.230408 -15.621259 7.721722 1.000000
15.613061 -10.650508 0.759093 25.000000
18.462751 33.834976 4.862468 9.000000
57.550060 44.095913 10.124902 10.000000
83.361649 -15.645890 7.853323 7.000000
15.616928 -10.661137 0.779296 31.000000
18.642889 33.869267 4.856620 9.000000
57.711296 43.884686 10.124902 14.000000
83.133438 -15.918710 7.881970 9.000000
15.605876 -10.737657 0.800575 31.000000
18.712080 33.715839 4.816614 9.000000
57.806244 43.639275 10.101887 10.000000
15.561850 -10.791616 0.813585 31.000000
18.657404 33.328838 4.750754 6.000000
57.771854 43.281807 10.029557 9.000000
15.546405 -10.865503 0.824804 31.000000
16.263111 28.815317 4.092000 7.000000
57.623371 42.857338 9.952196 18.000000
15.522219 -10.933499 0.842242 29.000000
57.522434 42.455704 9.895104 22.000000
15.485630 -10.992867 0.855721 17.000000
57.638493 42.231365 9.851523 20.000000
34.199493 -7.194496 3.315872 4.000000
15.461117 -11.060911 0.866576 36.000000
16.157703 27.918404 3.926367 8.000000
57.638039 41.907230 9.812452 21.000000
34.054386 -7.294411 3.322773 7.000000
15.452352 -11.132293 0.878141 29.000000
16.569107 28.400126 3.978932 10.000000
57.828297 41.737778 9.781933 24.000000
34.021992 -7.417994 3.328375 7.000000
15.394790 -11.184970 0.894057 21.000000
16.755045 28.478508 3.975087 8.000000
57.956841 41.508327 9.739852 24.000000
15.389581 -11.267595 0.906156 25.000000
16.680521 28.115547 3.915568 8.000000
58.219864 41.389996 9.747014 24.000000
82.477180 -18.602161 8.141138 17.000000
15.379816 -11.347267 0.921397 25.000000
16.764671 28.033926 3.889198 10.000000
58.433285 41.220146 9.744672 25.000000
82.666222 -18.963463 8.211426 4.000000
15.337574 -11.394841 0.934496 22.000000
16.276752 26.992929 3.725136 8.000000
58.747395 41.135368 9.734803 18.000000
82.308815 -19.199297 8.197749 1.000000
15.311166 -11.470896 0.949074 24.000000
16.451836 27.069159 3.726742 8.000000
59.109470 41.066853 9.731417 10.000000
15.286578 -11.536003 0.960092 38.000000
16.230869 26.486372 3.627192 8.000000
59.965504 41.382877 9.837947 16.000000
127.668755 23.546785 16.607557 21.000000
77.466042 -18.655159 7.784673 22.000000
15.241705 -11.585863 0.973208 30.000000
16.321335 26.416178 3.603775 8.000000
60.251862 41.255310 9.821125 13.000000
77.220497 -18.895735 7.794922 24.000000
15.311911 -11.723787 0.987047 66.000000
16.550964 26.579893 3.617354 16.000000
60.642834 41.212826 9.848316 11.000000
76.774918 -19.085215 7.798776 24.000000
15.386892 -11.870908 1.008282 23.000000
16.813360 26.782022 3.630855 8.000000
60.970333 41.109524 9.837770 10.000000
15.330675 -11.926013 1.021324 31.000000
16.881870 26.683853 3.597598 23.000000
61.354481 41.026741 9.834929 10.000000
15.321803 -12.009512 1.033881 34.000000
27.440571 18.203871 4.382062 7.000000
15.273053 -12.061931 1.050599 31.000000
18.552267 28.864868 3.866989 8.000000
27.501719 18.106508 4.364163 8.000000
75.461319 -19.923651 7.790144 24.000000
15.181429 -12.080180 1.057524 27.000000
17.043324 26.304682 3.515730 9.000000
27.486805 17.952621 4.333835 7.000000
47.145782 -12.623856 4.880152 9.000000
15.171674 -12.163500 1.070155 38.000000
16.869226 25.828043 3.438460 10.000000
27.620255 17.895708 4.332817 10.000000
47.016758 -12.774170 4.880199 9.000000
15.157619 -12.243767 1.082555 31.000000
16.837976 25.584686 3.386808 22.000000
27.615705 17.769833 4.305834 10.000000
47.074314 -12.975266 4.899684 3.000000
15.090815 -12.277099 1.097868 28.000000
17.012619 25.644873 3.381261 8.000000
27.699987 17.667234 4.302049 12.000000
46.903366 -13.113306 4.921206 22.000000
15.091599 -12.369935 1.111466 18.000000
17.281868 25.844606 3.393959 18.000000
27.683792 17.521261 4.272562 14.000000
47.047924 -13.330959 4.949848 9.000000
15.061105 -12.437507 1.122831 17.000000
17.259418 25.617062 3.350149 8.000000
27.768194 17.445982 4.264994 15.000000
14.995625 -12.476157 1.135015 19.000000
17.395500 25.635178 3.343632 10.000000
27.826603 17.347502 4.247180 20.000000
45.203266 -13.166990 4.790707 9.000000
14.731780 -12.339540 1.128232 38.000000
18.017612 26.333773 3.415583 10.000000
27.841276 17.215267 4.222335 14.000000
44.965389 -13.268151 4.778643 22.000000
14.696929 -12.411077 1.139477 31.000000
18.075506 26.211723 3.391462 8.000000
27.878202 17.090479 4.212150 11.000000
45.004597 -13.459229 4.812872 30.000000
14.680987 -12.490082 1.158663 23.000000
17.747471 25.535263 3.284888 29.000000
27.909258 16.969095 4.184238 21.000000
45.116810 -13.673138 4.830200 12.000000
14.686107 -12.583070 1.172689 36.000000
17.820370 25.450125 3.265469 23.000000
27.963396 16.861944 4.177268 16.000000
14.374660 -12.407874 1.168077 40.000000
18.043865 25.569334 3.267141 8.000000
27.998425 16.750074 4.156378 20.000000
14.264759 -12.404538 1.169457 25.000000
18.231014 25.634577 3.261795 10.000000
27.999615 16.624956 4.136798 13.000000
44.074280 -13.879655 4.783292 16.000000
7.518513 -6.586598 0.623613 5.000000
18.335941 25.611372 3.243931 20.000000
28.062372 16.530001 4.131743 27.000000
89.960159 10.011164 11.515023 1.000000
43.959927 -14.020948 4.792706 11.000000
7.512618 -6.630258 0.633915 4.000000
18.340790 25.420780 3.206169 8.000000
28.132578 16.432766 4.121630 14.000000
90.021210 9.699955 11.502377 27.000000
43.611759 -14.077809 4.768161 9.000000
7.465560 -6.637560 0.638995 3.000000
18.339767 25.214748 3.172546 12.000000
28.145815 16.295876 4.097071 10.000000
43.400711 -14.185539 4.782964 14.000000
7.466949 -6.687957 0.646478 1.000000
18.977203 25.910080 3.245281 16.000000
28.213839 16.210575 4.087587 4.000000
90.506462 9.081610 11.539433 12.000000
43.234329 -14.306760 4.778410 19.000000
14.857943 -13.392243 1.300532 8.000000
19.150194 25.946238 3.235839 14.000000
90.115021 8.724713 11.469514 3.000000
43.302010 -14.497055 4.791454 18.000000
14.786089 -13.426027 1.309044 8.000000
19.481079 26.193073 3.252487 14.000000
91.497620 51.703640 13.108974 8.000000
43.750111 -14.825620 4.871472 18.000000
14.742436 -13.494761 1.323978 8.000000
19.660265 26.242203 3.243973 8.000000
91.515007 51.271851 13.028678 15.000000
36.098003 -12.380228 4.037923 7.000000
14.717865 -13.571746 1.340268 8.000000
91.489395 50.817822 12.961332 1.000000
36.004078 -12.495687 4.045965 7.000000
14.624733 -13.575877 1.346375 9.000000
19.737658 25.946936 3.173569 9.000000
91.498703 50.405869 12.919133 28.000000
14.572896 -13.637075 1.364129 27.000000
19.784046 25.820375 3.143594 8.000000
91.455956 49.946266 12.850235 35.000000
14.518740 -13.672204 1.370068 9.000000
91.426186 49.516468 12.766422 27.000000
47.771103 -17.160992 5.433640 9.000000
14.482486 -13.738563 1.381891 15.000000
91.099380 48.908489 12.659038 28.000000
14.447969 -13.816432 1.401409 26.000000
24.541725 31.321732 3.775399 10.000000
91.058769 48.477982 12.593255 24.000000
45.091858 -16.563772 5.167686 9.000000
14.451669 -13.912011 1.420309 24.000000
24.587044 31.143768 3.736836 10.000000
90.850975 47.940823 12.485548 26.000000
44.790649 -16.639698 5.165431 10.000000
14.404588 -13.973650 1.435026 25.000000
24.749130 31.113920 3.716114 10.000000
90.735237 47.455402 12.409386 25.000000
44.590992 -16.742889 5.165936 11.000000
14.386177 -14.048690 1.448408 33.000000
22.332928 27.886023 3.314257 9.000000
90.654915 47.011120 12.321630 29.000000
44.832687 -17.003483 5.200440 9.000000
14.369596 -14.135760 1.462554 21.000000
22.929142 28.406248 3.360821 8.000000
90.468369 46.494423 12.237011 25.000000
45.384197 -17.421362 5.289653 19.000000
6.910538 -6.848102 0.712741 10.000000
22.984308 28.262024 3.328056 14.000000
90.306587 46.013504 12.157437 5.000000
40.557545 -15.731235 4.748829 8.000000
6.899241 -6.887211 0.719306 10.000000
23.048180 28.129311 3.296755 9.000000
89.616783 45.249062 12.024392 4.000000
40.372360 -15.829885 4.756886 18.000000
6.904028 -6.945120 0.729455 13.000000
26.057396 31.576447 3.682582 10.000000
89.150124 44.604141 11.869176 1.000000
40.136944 -15.907550 4.751239 12.000000
6.864159 -6.955818 0.734792 15.000000
22.471750 27.028938 3.137080 8.000000
89.242271 44.261425 11.825537 26.000000
39.873547 -15.964429 4.726627 8.000000
6.883613 -7.026861 0.746533 11.000000
22.530142 26.898012 3.112930 8.000000
89.296944 43.881481 11.811391 1.000000
39.701141 -16.064487 4.743402 10.000000
6.873908 -7.063660 0.753207 24.000000
22.863293 27.102995 3.114686 9.000000
88.986870 43.324917 11.679229 1.000000
39.470013 -16.131527 4.722486 10.000000
6.849831 -7.093206 0.760472 20.000000
23.096136 27.176285 3.107727 9.000000
89.501633 43.189716 11.709347 12.000000
39.228439 -16.200844 4.730651 9.000000
6.840667 -7.135874 0.769296 17.000000
23.287704 27.199043 3.094882 9.000000
89.291161 42.685387 11.626239 17.000000
39.038868 -16.290298 4.729909 12.000000
6.840750 -7.183495 0.777205 23.000000
25.517237 29.593317 3.363692 10.000000
89.187469 42.253983 11.558538 21.000000
38.817883 -16.365391 4.717815 17.000000
6.810576 -7.204500 0.783736 16.000000
28.257076 32.528973 3.678814 1.000000
89.268959 41.892658 11.514231 26.000000
38.630997 -16.445650 4.716890 11.000000
6.802947 -7.252008 0.793043 17.000000
28.390919 32.442108 3.650420 11.000000
89.056229 41.395218 11.432400 27.000000
38.527870 -16.568813 4.726506 31.000000
6.796417 -7.298473 0.800650 19.000000
23.499674 26.655148 2.983952 9.000000
88.975533 40.980633 11.351624 32.000000
38.486511 -16.710455 4.743392 29.000000
6.772623 -7.326581 0.808016 21.000000
29.598732 33.337856 3.704425 12.000000
88.857597 40.532204 11.283000 19.000000
38.255142 -16.776911 4.737192 19.000000
6.772295 -7.380312 0.818237 21.000000
29.713303 33.244194 3.689275 9.000000
88.932182 40.173111 11.239182 29.000000
38.052406 -16.838673 4.733688 23.000000
6.760922 -7.417143 0.825121 17.000000
88.780472 39.769222 11.169757 30.000000
37.813625 -16.906933 4.726671 18.000000
6.735347 -7.446314 0.832540 14.000000
28.950304 31.938938 3.513747 10.000000
88.679436 39.334358 11.104525 28.000000
37.707439 -16.993881 4.734306 24.000000
6.733537 -7.494118 0.842466 16.000000
27.732098 30.370523 3.309007 24.000000
88.598114 38.910297 11.007972 26.000000
37.449051 -17.058624 4.710424 17.000000
6.738313 -7.549642 0.849748 16.000000
30.149618 32.787464 3.568141 9.000000
88.319084 38.457233 10.958239 27.000000
37.032722 -17.017488 4.693957 15.000000
6.706798 -7.570001 0.858156 15.000000
30.196758 32.598118 3.528337 8.000000
88.330246 38.041016 10.906585 23.000000
36.828896 -17.079781 4.675651 21.000000
6.716133 -7.634058 0.869905 16.000000
27.219994 29.169449 3.132970 1.000000
88.178085 37.611137 10.837626 28.000000
36.638615 -17.154984 4.673755 21.000000
6.707367 -7.680676 0.879582 15.000000
27.331627 29.074705 3.105503 10.000000
88.054085 37.213615 10.773366 28.000000
36.405647 -17.201099 4.673033 17.000000
6.682231 -7.708740 0.883572 11.000000
25.233858 26.656084 2.837224 10.000000
87.972412 36.763580 10.711528 28.000000
36.255711 -17.293087 4.676102 10.000000
6.680874 -7.761751 0.894174 20.000000
87.809807 36.336105 10.642631 30.000000
36.071209 -17.383167 4.689604 20.000000
6.665323 -7.806850 0.905307 19.000000
28.003731 29.151056 3.081970 20.000000
87.697052 35.949303 10.597708 27.000000
35.810944 -17.396585 4.662849 8.000000
6.645431 -7.836022 0.913358 10.000000
27.813700 28.741636 3.021358 8.000000
87.693802 35.537464 10.529831 29.000000
6.635702 -7.882942 0.919611 11.000000
87.391685 35.095802 10.463624 27.000000
33.724232 -16.682203 4.433204 17.000000
6.639669 -7.943773 0.931284 10.000000
27.854277 28.374420 2.940826 7.000000
87.370720 34.716049 10.412586 32.000000
32.643448 -16.296770 4.318324 7.000000
6.613272 -7.971385 0.938963 17.000000
28.832228 29.156101 3.011188 9.000000
87.348106 34.336910 10.361662 20.000000
31.522390 -15.881695 4.190188 7.000000
6.599419 -8.014281 0.948469 12.000000
30.580225 -15.541087 4.084278 7.000000
6.596195 -8.067591 0.959383 20.000000
28.534479 28.444979 2.902204 10.000000
88.801079 34.140900 10.402499 26.000000
75.040825 -4.037795 9.480248 1.000000
29.602642 -15.194103 3.967717 6.000000
6.569711 -8.101346 0.965761 31.000000
28.714066 28.414936 2.888596 10.000000
89.208160 33.958286 10.420078 28.000000
75.195419 -4.296238 9.501527 1.000000
28.626308 -14.806789 3.865894 7.000000
6.551647 -8.134059 0.976259 102.000000
89.581978 33.725197 10.415423 18.000000
27.831295 -14.525118 3.776811 7.000000
6.561772 -8.208031 0.989645 159.000000
90.371101 33.626667 10.458029 14.000000
27.000406 -14.217636 3.671103 7.000000
6.529776 -8.232622 0.996981 171.000000
27.466496 26.589010 2.653052 6.000000
90.833069 33.420063 10.463061 13.000000
6.523677 -8.281189 1.005807 184.000000
27.608250 26.530914 2.630476 9.000000
91.533653 33.333618 10.513771 15.000000
74.898621 -5.355660 9.472739 1.000000
6.538940 -8.363442 1.018489 189.000000
27.704964 26.438459 2.617451 9.000000
92.139328 33.190365 10.535385 26.000000
74.835602 -5.626917 9.493930 1.000000
6.515372 -8.393516 1.026863 195.000000
27.726946 26.265942 2.583628 9.000000
92.558861 32.958729 10.534781 1.000000
23.973248 -13.065211 3.332956 21.000000
6.499310 -8.436481 1.036702 207.000000
27.609589 25.963427 2.543874 9.000000
93.035263 32.726391 10.539802 19.000000
6.495106 -8.495246 1.048528 217.000000
27.735029 25.890497 2.520065 9.000000
93.224831 32.446079 10.531606 18.000000
77.056496 -6.619619 9.770352 1.000000
6.464857 -8.517135 1.057860 203.000000
93.981979 32.287220 10.532253 19.000000
77.069527 -6.905390 9.788870 1.000000
6.460204 -8.582325 1.068407 199.000000
95.319008 32.393555 10.652225 10.000000
6.437329 -8.611220 1.075026 1.000000
23.312504 21.309635 2.036935 7.000000
95.576416 32.109318 10.632813 15.000000
76.934212 -7.448580 9.778202 1.000000
13.056674 -17.593655 2.206141 12.000000
95.932961 31.838282 10.623750 14.000000
76.666245 -7.706369 9.734006 1.000000
13.035433 -17.700226 2.229002 9.000000
29.372618 26.456509 2.500932 7.000000
20.627136 -11.923487 2.971830 18.000000
13.025082 -17.822611 2.257851 24.000000
29.500763 26.376726 2.468924 8.000000
97.563545 31.587402 10.687920 12.000000
20.154219 -11.748878 2.914014 9.000000
12.962325 -17.867329 2.265556 12.000000
29.487387 26.161724 2.431753 10.000000
75.976700 -8.455023 9.670895 1.000000
19.727243 -11.592424 2.866225 10.000000
12.930694 -17.961866 2.287134 21.000000
29.430468 25.919073 2.398597 9.000000
76.278625 -8.771776 9.726968 1.000000
19.320560 -11.448916 2.825159 10.000000
12.910123 -18.065956 2.314221 24.000000
29.759485 26.015785 2.389927 10.000000
18.909111 -11.294470 2.778553 10.000000
12.897532 -18.188900 2.339637 29.000000
29.527622 25.622765 2.343204 23.000000
18.560400 -11.178684 2.744841 10.000000
12.835560 -18.242844 2.356253 17.000000
29.606098 25.519249 2.315319 24.000000
92.392403 28.088573 9.911171 6.000000
18.147726 -11.016644 2.693248 10.000000
12.799563 -18.327288 2.373211 10.000000
29.772717 25.473269 2.293582 8.000000
92.726723 27.819349 9.901881 1.000000
17.806059 -10.898746 2.655857 14.000000
12.773834 -18.434006 2.396786 24.000000
93.049080 27.562393 9.908855 8.000000
77.880592 -10.349988 9.966904 9.000000
17.490463 -10.793898 2.625604 14.000000
12.744664 -18.536669 2.419930 22.000000
55.578720 46.851387 4.153176 8.000000
17.098528 -10.634617 2.575897 10.000000
5.293026 -7.756377 1.015137 1.000000
55.697651 46.620041 4.111723 8.000000
12.682482 -18.731947 2.461473 27.000000
56.469360 46.915073 4.104555 9.000000
5.139664 -7.648627 1.007588 10.000000
56.415340 46.521755 4.049801 13.000000
5.309699 -7.964568 1.053400 22.000000
56.557278 46.291599 3.983811 19.000000
5.003079 -7.564565 1.006074 41.000000
56.801804 46.145115 3.950663 14.000000
106.300827 28.980932 11.016906 22.000000
15.789342 -10.218493 2.439326 28.000000
4.954540 -7.548307 1.006392 19.000000
56.843891 45.834488 3.903536 22.000000
15.769474 -10.283913 2.448470 23.000000
4.899343 -7.524185 1.007122 40.000000
56.920578 45.553070 3.833511 16.000000
15.730603 -10.340937 2.458327 26.000000
4.797163 -7.423804 0.997687 20.000000
108.766518 28.392380 11.121066 5.000000
83.612778 -13.871993 10.752224 1.000000
15.722267 -10.414236 2.472734 23.000000
4.978664 -7.766988 1.047872 20.000000
83.778397 -14.215181 10.765080 1.000000
15.675386 -10.466045 2.474724 25.000000
4.973857 -7.822448 1.057804 21.000000
15.667192 -10.539827 2.482576 10.000000
4.959380 -7.860141 1.067127 39.000000
26.426615 20.528149 1.677596 18.000000
83.967171 20.950933 8.470217 8.000000
83.806412 -14.837667 10.782047 1.000000
15.651992 -10.613139 2.496388 10.000000
4.951221 -7.911314 1.078206 24.000000
26.514690 20.441185 1.649131 8.000000
84.062187 20.647654 8.426355 19.000000
15.620447 -10.667537 2.500344 10.000000
4.912796 -7.911191 1.080787 35.000000
26.542519 20.307972 1.628680 32.000000
83.068817 -15.320927 10.700984 1.000000
15.586455 -10.732313 2.511564 13.000000
4.844304 -7.865073 1.078589 14.000000
26.546297 20.157040 1.595213 24.000000
83.379555 -15.694449 10.733306 7.000000
15.591510 -10.812185 2.518142 12.000000
4.834651 -7.911112 1.087503 13.000000
26.588968 20.036226 1.570058 27.000000
84.121040 19.683950 8.288297 24.000000
83.323311 -16.000299 10.718498 4.000000
15.540764 -10.857525 2.522786 11.000000
4.812949 -7.940867 1.095733 84.000000
26.622885 19.909216 1.550296 13.000000
85.105347 19.632473 8.363776 25.000000
83.077087 -16.253908 10.694057 10.000000
15.512300 -10.922463 2.531387 12.000000
4.856451 -8.076104 1.118719 90.000000
57.737343 42.848270 3.290099 16.000000
83.096626 -16.574183 10.689296 10.000000
15.509737 -11.001838 2.543977 18.000000
4.816345 -8.076288 1.121286 56.000000
85.315552 18.992128 8.277494 31.000000
83.025513 -16.861553 10.672632 13.000000
15.481041 -11.066998 2.549287 10.000000
57.533737 42.046680 3.148683 24.000000
82.940674 -17.161093 10.654725 12.000000
15.441956 -11.120709 2.552608 10.000000
4.865749 -8.293468 1.158491 10.000000
85.037483 18.277033 8.145402 20.000000
15.434772 -11.197563 2.561255 10.000000
5.043705 -8.665953 1.213382 20.000000
84.969543 17.936871 8.056100 11.000000
82.738739 -17.737648 10.599811 1.000000
15.397626 -11.256983 2.561920 10.000000
82.836601 -17.758627 10.402157 1.000000
15.407892 -11.260363 2.522622 10.000000
82.712669 -17.430294 10.304022 6.000000
15.425508 -11.190843 2.495409 10.000000
5.044091 -8.663138 1.190039 26.000000
57.556938 42.032822 2.899919 19.000000
84.950897 18.568892 7.791271 21.000000
82.916016 -17.155989 10.246471 16.000000
15.472559 -11.138649 2.476095 10.000000
4.887863 -8.324502 1.135724 16.000000
85.533470 19.009306 7.835324 12.000000
83.034157 -16.878399 10.208714 19.000000
15.482752 -11.060057 2.454340 21.000000
85.231384 19.270256 7.798697 18.000000
83.066605 -16.568195 10.160178 9.000000
15.526703 -11.009800 2.441692 25.000000
4.803419 -8.048225 1.082796 60.000000
26.631775 19.901375 1.381807 19.000000
85.309219 19.601110 7.812031 22.000000
83.134010 -16.280109 10.116420 10.000000
15.515955 -10.916938 2.416866 17.000000
4.805195 -7.984556 1.068352 36.000000
26.570436 20.007723 1.388235 8.000000
84.253647 19.683960 7.706702 31.000000
83.297256 -15.995296 10.114067 3.000000
15.571958 -10.875274 2.402820 15.000000
4.786037 -7.887145 1.047872 25.000000
26.567780 20.158733 1.415272 33.000000
83.477028 19.825459 7.657355 19.000000
83.372414 -15.708174 10.071423 9.000000
15.563815 -10.784937 2.385375 11.000000
4.863173 -7.951544 1.052086 20.000000
26.576433 20.311869 1.425349 20.000000
84.453064 20.368946 7.753361 24.000000
15.600520 -10.725950 2.371534 10.000000
4.864171 -7.888075 1.036213 26.000000
26.572651 20.463696 1.440888 17.000000
84.292084 20.657330 7.730213 22.000000
15.614978 -10.655809 2.351309 10.000000
4.903925 -7.887689 1.031952 26.000000
26.417938 20.499241 1.454105 9.000000
83.926071 -14.873958 10.012683 1.000000
15.654945 -10.599195 2.341410 10.000000
4.947833 -7.896703 1.025506 27.000000
26.810720 20.961906 1.485894 6.000000
83.817093 -14.537994 9.963155 6.000000
15.672606 -10.531554 2.325155 24.000000
4.998454 -7.912886 1.021715 25.000000
83.521423 -14.186575 9.907074 1.000000
15.716242 -10.477468 2.315877 20.000000
4.993188 -7.840755 1.006549 22.000000
108.743286 28.325502 9.989385 13.000000
83.783730 -13.915382 9.886996 13.000000
15.727239 -10.401739 2.295164 25.000000
56.941883 45.521229 3.284917 18.000000
108.346657 28.626419 10.001497 23.000000
83.851608 -13.626058 9.844252 1.000000
15.748189 -10.336760 2.279597 29.000000
4.874665 -7.535085 0.954334 36.000000
56.839882 45.782166 3.314220 19.000000
84.093987 -13.349272 9.851837 1.000000
15.782806 -10.276910 2.269135 26.000000
5.003109 -7.671828 0.967503 31.000000
34.439129 27.948023 2.052822 8.000000
15.807071 -10.214316 2.257487 16.000000
5.134089 -7.806993 0.978783 9.000000
56.511185 46.204475 3.404084 22.000000
5.135703 -7.753318 0.965980 2.000000
56.630085 46.632462 3.446694 14.000000
5.084354 -7.609273 0.942497 9.000000
56.380520 46.774773 3.480359 17.000000
92.962051 26.375719 8.675121 1.000000
5.236408 -7.783791 0.957873 3.000000
55.515038 46.368404 3.461712 1.000000
92.706696 26.653275 8.659921 1.000000
16.867765 -10.564726 2.338081 10.000000
5.173148 -7.629229 0.934678 8.000000
55.518070 46.750553 3.511666 18.000000
92.774269 27.041233 8.692435 1.000000
17.213705 -10.689594 2.362401 10.000000
12.711591 -18.585676 2.259396 27.000000
92.958145 27.464884 8.753147 11.000000
77.714264 -10.341688 8.918616 5.000000
17.532572 -10.798769 2.393429 10.000000
12.748830 -18.501198 2.242640 14.000000
29.979744 25.614172 1.949236 9.000000
92.390869 27.648296 8.691796 1.000000
17.899467 -10.934460 2.426898 10.000000
12.785691 -18.423630 2.218601 28.000000
29.884886 25.723211 1.969882 12.000000
91.104195 27.627472 8.613722 1.000000
18.262178 -11.068684 2.451939 13.000000
12.820702 -18.316662 2.192200 18.000000
29.895521 25.923723 1.990680 10.000000
91.056114 27.977732 8.602053 1.000000
77.472694 -9.457554 8.823440 1.000000
18.673771 -11.224770 2.493955 10.000000
12.865582 -18.244884 2.169303 28.000000
29.815859 26.028364 2.018814 8.000000
91.197334 28.387344 8.658777 1.000000
77.556030 -9.206814 8.801795 1.000000
19.053312 -11.367071 2.527828 10.000000
12.863492 -18.114079 2.143155 16.000000
29.511934 25.972532 2.019037 10.000000
76.284225 -8.758932 8.640008 1.000000
19.483206 -11.522336 2.562967 10.000000
12.905523 -18.019598 2.114664 21.000000
29.448837 26.109159 2.055691 10.000000
76.236809 -8.470498 8.631063 1.000000
19.835047 -11.632500 2.591431 22.000000
12.940080 -17.935265 2.094476 23.000000
28.844528 25.735683 2.032672 9.000000
76.081757 -8.211386 8.597021 1.000000
20.288782 -11.813095 2.637551 10.000000
12.979858 -17.865244 2.075760 28.000000
28.463284 25.583513 2.032494 9.000000
20.755266 -11.983059 2.675525 9.000000
13.007872 -17.766495 2.054305 20.000000
28.386766 25.703461 2.060555 14.000000
95.948143 31.768974 9.269317 20.000000
13.029411 -17.659754 2.032017 9.000000
23.400627 21.360220 1.715921 7.000000
95.764961 32.098274 9.262923 31.000000
21.702877 -12.313924 2.759235 10.000000
13.083528 -17.591316 2.006755 25.000000
95.649269 32.431320 9.298179 11.000000
22.242500 -12.512554 2.812974 10.000000
6.429530 -8.585155 0.974241 223.000000
29.658478 27.444828 2.230886 10.000000
94.212654 32.329700 9.152450 7.000000
22.713539 -12.673366 2.843962 10.000000
6.455464 -8.554258 0.963985 203.000000
29.363291 27.372131 2.237297 10.000000
93.405716 32.399410 9.119249 29.000000
23.252050 -12.872910 2.896640 9.000000
6.464493 -8.504319 0.955256 203.000000
29.094227 27.321299 2.252362 10.000000
93.202454 32.730373 9.146383 23.000000
23.805439 -13.065516 2.950002 26.000000
6.490167 -8.473451 0.943188 189.000000
92.511215 32.869007 9.124875 21.000000
23.965775 -13.044868 2.949756 25.000000
6.494192 -8.414638 0.931807 193.000000
27.642096 26.332413 2.194585 7.000000
92.123062 33.111870 9.098499 30.000000
75.064293 -5.644112 8.323867 2.000000
6.496408 -8.357034 0.920488 175.000000
27.562010 26.449493 2.229357 7.000000
91.642159 33.300690 9.113925 16.000000
6.518104 -8.315834 0.909535 159.000000
27.152105 26.247972 2.217196 9.000000
76.790047 -5.221555 8.497276 6.000000
6.533787 -8.279150 0.898616 119.000000
27.054600 26.346226 2.243560 9.000000
90.573761 33.630108 9.064822 21.000000
27.154285 -14.274460 3.256830 7.000000
6.522542 -8.205836 0.889439 47.000000
27.042244 26.527990 2.277124 18.000000
89.898239 33.736816 9.042759 13.000000
74.978004 -4.559582 8.266401 1.000000
28.116331 -14.648912 3.348968 6.000000
6.553153 -8.182597 0.878461 17.000000
27.108400 26.779217 2.310576 9.000000
89.647446 34.053867 9.064983 4.000000
74.959480 -4.282758 8.262572 1.000000
29.082832 -15.023627 3.446268 4.000000
6.570966 -8.143488 0.869486 10.000000
28.869959 28.729216 2.491086 10.000000
87.372948 33.521835 8.846182 15.000000
29.719709 -15.214890 3.491539 7.000000
28.611681 28.681677 2.506244 8.000000
87.352074 33.899174 8.890182 16.000000
30.916710 -15.684942 3.607038 7.000000
6.576257 -8.031755 0.846143 16.000000
28.849550 29.132908 2.557967 9.000000
87.131676 34.181622 8.913408 23.000000
31.731003 -15.959031 3.695519 7.000000
6.605932 -8.007939 0.840707 10.000000
86.851662 34.439621 8.914072 25.000000
32.896790 -16.380232 3.797670 7.000000
6.612903 -7.951151 0.830259 16.000000
86.854225 34.791977 8.943225 20.000000
33.916927 -16.755424 3.895995 9.000000
6.620497 -7.906801 0.818859 14.000000
27.855194 28.744331 2.581405 1.000000
87.675278 35.458717 9.089798 29.000000
6.645210 -7.880269 0.811267 15.000000
28.165770 29.268566 2.633877 3.000000
87.825569 35.930389 9.136975 21.000000
35.954269 -17.435198 4.065900 25.000000
6.645366 -7.822098 0.800571 15.000000
27.870924 29.175449 2.644575 28.000000
36.132755 -17.366226 4.065066 20.000000
6.664192 -7.780741 0.790076 13.000000
27.597599 29.081804 2.655888 7.000000
36.308449 -17.287138 4.077677 21.000000
6.679108 -7.748752 0.783566 15.000000
27.493284 29.185371 2.677213 1.000000
36.508476 -17.218517 4.071675 16.000000
6.688207 -7.702043 0.774154 18.000000
27.278933 29.191725 2.702753 10.000000
88.329826 37.621216 9.379822 30.000000
36.715157 -17.159582 4.059441 10.000000
6.693765 -7.651614 0.764408 17.000000
88.586021 38.114513 9.455783 11.000000
36.896473 -17.079834 4.058205 18.000000
6.715523 -7.619946 0.756568 18.000000
27.036774 29.330271 2.747441 10.000000
88.684319 38.505840 9.513928 29.000000
37.109364 -17.013502 4.060343 9.000000
6.706020 -7.555828 0.745429 16.000000
27.780037 30.359114 2.855908 23.000000
88.704315 38.883091 9.530577 32.000000
37.310249 -16.948240 4.061379 14.000000
6.717479 -7.513092 0.734795 17.000000
27.644094 30.433775 2.875013 15.000000
88.703751 39.271053 9.580107 32.000000
37.587982 -16.908482 4.055783 10.000000
6.719344 -7.465208 0.725238 19.000000
88.751488 39.681870 9.635174 31.000000
37.775635 -16.842503 4.069983 9.000000
6.723549 -7.415042 0.715730 19.000000
28.927912 32.286003 3.092147 11.000000
88.918121 40.092037 9.701275 25.000000
37.881016 -16.731216 4.060424 9.000000
6.753090 -7.395577 0.709095 21.000000
28.707186 32.299603 3.112711 11.000000
88.672409 40.372971 9.724894 17.000000
38.157673 -16.686543 4.068819 8.000000
6.766977 -7.356455 0.700704 17.000000
29.410385 33.312622 3.232105 6.000000
88.801010 40.825127 9.789800 22.000000
38.366081 -16.626341 4.055672 11.000000
6.773801 -7.309920 0.693388 16.000000
89.441658 41.498463 9.893719 23.000000
38.545288 -16.528496 4.053101 25.000000
6.794231 -7.278277 0.682268 14.000000
28.225555 32.435471 3.187683 11.000000
89.449364 41.901146 9.981151 32.000000
38.710979 -16.431835 4.064163 21.000000
6.809509 -7.243786 0.677772 19.000000
28.262644 32.731037 3.228810 11.000000
89.515556 42.332924 10.005782 17.000000
38.892853 -16.341061 4.047217 21.000000
6.812325 -7.193766 0.668475 18.000000
23.345165 27.218037 2.702493 9.000000
89.471825 42.695042 10.052452 25.000000
39.148563 -16.287958 4.052948 18.000000
6.825192 -7.154645 0.660226 19.000000
23.162912 27.206709 2.724282 9.000000
89.512939 43.118160 10.162364 26.000000
39.342777 -16.199858 4.051894 10.000000
6.848230 -7.126315 0.652993 12.000000
23.019976 27.240463 2.744240 9.000000
89.713425 43.620564 10.238395 33.000000
39.578365 -16.127462 4.054988 15.000000
6.845543 -7.073928 0.645202 16.000000
22.789238 27.159155 2.746692 9.000000
89.801758 44.051746 10.265962 34.000000
39.795483 -16.046110 4.056068 11.000000
6.840469 -7.017035 0.633707 20.000000
89.942421 44.530468 10.353736 19.000000
40.028252 -15.977752 4.058905 18.000000
6.866373 -6.992153 0.628576 22.000000
90.018997 44.960312 10.416055 33.000000
40.240654 -15.891793 4.059273 13.000000
6.864187 -6.938870 0.619202 13.000000
23.127348 28.185772 2.901460 9.000000
90.250053 45.489773 10.497669 30.000000
40.425148 -15.793627 4.056734 20.000000
6.882757 -6.906824 0.613463 10.000000
23.008228 28.261194 2.925712 9.000000
90.287819 45.964249 10.577064 29.000000
45.505527 -17.595631 4.543190 9.000000
6.909678 -6.880795 0.603252 11.000000
22.897429 28.316368 2.949135 10.000000
90.431702 46.395802 10.646809 29.000000
6.943325 -6.868594 0.599065 1.000000
22.305595 27.792196 2.911053 10.000000
90.659592 46.933262 10.729846 30.000000
14.368371 -14.109902 1.221110 23.000000
90.737587 47.396145 10.813762 22.000000
45.020828 -16.850512 4.434021 9.000000
14.384558 -14.022604 1.211072 21.000000
90.845398 47.856827 10.882695 30.000000
14.405332 -13.945118 1.194668 26.000000
25.072756 31.942013 3.409872 9.000000
91.037521 48.385128 10.981472 20.000000
14.424702 -13.861818 1.174533 16.000000
91.127594 48.841709 11.049337 10.000000
45.240570 -16.394722 4.396163 9.000000
14.446814 -13.781575 1.165220 25.000000
91.047829 49.229378 11.116286 18.000000
43.221180 -15.466911 4.177709 9.000000
14.479841 -13.712066 1.146361 32.000000
90.784805 49.518040 11.142774 1.000000
43.358757 -15.337110 4.169359 19.000000
14.537563 -13.666013 1.139970 36.000000
19.743118 25.907167 2.826818 8.000000
90.693398 49.879734 11.207684 1.000000
14.574808 -13.605504 1.125195 25.000000
19.839130 26.232033 2.877447 8.000000
36.080208 -12.472739 3.440634 7.000000
14.680079 -13.603423 1.115449 8.000000
19.726385 26.282631 2.903946 8.000000
89.327766 8.019438 9.838167 4.000000
36.193188 -12.377585 3.434014 7.000000
14.733940 -13.553299 1.105245 16.000000
19.526182 26.205929 2.910918 19.000000
89.566460 8.356132 9.867608 1.000000
43.486393 -14.693958 4.104705 4.000000
14.795143 -13.509822 1.092085 25.000000
19.283710 26.079473 2.911826 13.000000
92.298416 52.518063 11.686397 18.000000
44.043934 -14.694168 4.143807 9.000000
14.782372 -13.399136 1.070048 24.000000
19.019075 25.900806 2.907435 14.000000
91.962646 52.752800 11.723314 1.000000
43.780281 -14.445044 4.114473 18.000000
7.455487 -6.710595 0.534468 1.000000
18.463575 25.347752 2.864967 8.000000
43.703293 -14.225363 4.069498 17.000000
7.428113 -6.636835 0.525528 5.000000
18.494789 25.587137 2.906569 8.000000
43.837349 -14.099957 4.085473 26.000000
7.471340 -6.626373 0.519874 3.000000
18.332958 25.560049 2.917987 8.000000
43.919796 -13.965935 4.056392 26.000000
7.484535 -6.589224 0.513873 8.000000
18.388126 25.817307 2.968279 10.000000
7.538918 -6.588212 0.510689 1.000000
18.118824 25.628052 2.955809 8.000000
47.791115 -14.812104 4.377397 9.000000
14.338171 -12.437645 0.954893 12.000000
17.828604 25.414654 2.956442 25.000000
47.832268 -14.642052 4.385256 21.000000
14.548234 -12.531137 0.959245 21.000000
17.726562 25.476706 2.983053 8.000000
65.151039 39.596878 8.699955 1.000000
14.575590 -12.461936 0.944610 27.000000
65.121269 39.890728 8.728023 17.000000
14.629407 -12.415421 0.928358 55.000000
18.187412 26.532234 3.137037 8.000000
64.897583 40.081558 8.771625 17.000000
14.885139 -12.538892 0.934854 29.000000
64.663406 40.233765 8.798365 8.000000
14.985012 -12.529415 0.927985 33.000000
17.337337 25.684317 3.071184 8.000000
64.428795 40.431778 8.827865 4.000000
15.082952 -12.522107 0.917621 36.000000
17.488277 26.113817 3.137014 8.000000
47.284981 -13.362474 4.247068 7.000000
15.132969 -12.470222 0.907588 32.000000
17.244038 25.944540 3.136888 7.000000
27.617279 17.594149 3.840919 2.000000
15.174951 -12.411710 0.900514 35.000000
16.799849 25.478310 3.094575 8.000000
27.608526 17.744781 3.855384 7.000000
42.604099 -11.703131 3.795525 7.000000
15.178048 -12.321675 0.887754 30.000000
16.770220 25.637346 3.133417 8.000000
27.612337 17.870058 3.892838 8.000000
15.211917 -12.256946 0.873435 28.000000
17.012838 26.207485 3.212354 8.000000
62.498505 40.773357 8.845371 9.000000
15.241489 -12.188912 0.862323 27.000000
18.651894 28.964273 3.572245 8.000000
62.412273 41.059605 8.895084 4.000000
74.201942 -19.521893 6.537356 23.000000
15.259027 -12.111509 0.850578 37.000000
16.929663 26.502741 3.288724 8.000000
61.912762 41.056908 8.897883 7.000000
74.532303 -19.317005 6.573717 23.000000
15.301558 -12.058446 0.840378 33.000000
16.771614 26.458445 3.303582 22.000000
61.466911 41.055363 8.892586 11.000000
75.480019 -19.281710 6.623936 24.000000
15.338011 -11.996305 0.833149 29.000000
16.778534 26.685156 3.357568 10.000000
61.065563 41.096272 8.920392 5.000000
75.457260 -18.981558 6.629467 23.000000
15.342870 -11.909730 0.817453 30.000000
16.518888 26.487156 3.347057 8.000000
27.286367 18.509007 4.013365 5.000000
75.425896 -18.679995 6.606992 1.000000
15.363011 -11.835383 0.806037 34.000000
16.704998 26.994974 3.426257 8.000000
27.285412 18.647757 4.040336 8.000000
15.255807 -11.663945 0.788092 37.000000
16.747379 27.286461 3.483707 8.000000
27.247248 18.768557 4.068289 8.000000
127.574608 23.552444 14.826795 10.000000
15.246935 -11.568859 0.778746 33.000000
16.631853 27.290171 3.500070 12.000000
59.052986 40.997055 8.877796 1.000000
127.841248 24.086535 14.890946 12.000000
78.464676 -18.533804 6.798518 20.000000
15.281549 -11.515474 0.768524 26.000000
16.265909 26.932411 3.479131 9.000000
58.759323 41.097889 8.893281 10.000000
127.895889 24.582569 14.930736 10.000000
77.715630 -18.056398 6.741861 17.000000
15.337976 -11.465924 0.759099 21.000000
16.709719 27.897802 3.618886 8.000000
58.450375 41.201656 8.907340 11.000000
127.874985 25.041723 14.961452 10.000000
77.570473 -17.737514 6.709870 21.000000
15.328053 -11.371169 0.746531 24.000000
16.709612 28.119827 3.669000 18.000000
58.237671 41.356770 8.934854 15.000000
77.685867 -17.464529 6.686278 18.000000
15.357764 -11.306180 0.739288 21.000000
16.609518 28.186115 3.704376 13.000000
57.893761 41.432583 8.968435 14.000000
77.957397 -17.225649 6.718203 5.000000
15.375102 -11.232282 0.731480 19.000000
16.662693 28.514784 3.762875 8.000000
57.869701 41.721592 9.025164 8.000000
34.101315 -7.410354 2.930398 7.000000
15.396248 -11.161414 0.720563 31.000000
16.454283 28.385126 3.767169 8.000000
57.652382 41.886906 9.053065 9.000000
34.255440 -7.312469 2.935163 7.000000
15.441416 -11.108047 0.710793 35.000000
16.044046 27.912722 3.725113 8.000000
57.576099 42.154770 9.128573 12.000000
15.478157 -11.048616 0.703968 28.000000
16.097744 28.222351 3.782278 8.000000
57.504574 42.411522 9.178678 9.000000
15.486375 -10.977142 0.696047 14.000000
19.039520 33.652237 4.535244 9.000000
57.647362 42.843937 9.264701 14.000000
45.311829 -9.161160 3.865679 40.000000
15.520808 -10.920352 0.685927 30.000000
18.891855 33.678658 4.570441 7.000000
57.811161 43.279758 9.392143 5.000000
45.372433 -9.000443 3.892399 169.000000
15.548322 -10.846660 0.678588 28.000000
18.606682 33.484600 4.581397 9.000000
57.811810 43.611801 9.482426 12.000000
45.669212 -8.885468 3.915039 176.000000
15.571539 -10.778224 0.677872 27.000000
18.562185 33.653099 4.623667 9.000000
57.674999 43.825325 9.523601 22.000000
45.943970 -8.772592 3.944165 65.000000
15.595132 -10.718238 0.667427 28.000000
18.552675 33.929317 4.700179 9.000000
57.551922 44.065468 9.619986 14.000000
46.601986 -8.721324 4.006217 2.000000
15.634311 -10.661006 0.667427 33.000000
57.660595 44.148674 9.728451 19.000000
15.627738 -10.660520 0.687062 29.000000
18.550777 33.646301 4.676721 9.000000
57.738148 43.889202 9.689858 18.000000
45.924442 -8.777171 4.041259 98.000000
15.604629 -10.728775 0.701009 30.000000
18.561165 33.388962 4.622866 9.000000
57.816875 43.615623 9.663312 18.000000
45.634090 -8.903436 4.043214 181.000000
15.568801 -10.788391 0.717723 29.000000
57.804848 43.290775 9.610331 17.000000
45.335262 -9.017745 4.044026 169.000000
15.532834 -10.847951 0.731139 29.000000
57.597187 42.806644 9.511419 12.000000
45.305401 -9.184554 4.060599 35.000000
15.525341 -10.927593 0.742623 29.000000
16.038675 28.130199 3.855502 8.000000
57.540180 42.453293 9.464777 16.000000
15.484650 -10.984042 0.759191 35.000000
15.967044 27.778757 3.797936 8.000000
57.644733 42.205021 9.443779 23.000000
34.165592 -7.187365 3.091372 7.000000
15.472302 -11.060751 0.773867 35.000000
16.498751 28.461840 3.870460 8.000000
57.591194 41.857807 9.373085 19.000000
34.108212 -7.305941 3.106990 19.000000
15.463756 -11.140508 0.785473 20.000000
16.606588 28.430157 3.856142 8.000000
57.730785 41.636757 9.345630 18.000000
34.089428 -7.414002 3.113523 27.000000
15.398003 -11.179094 0.800843 21.000000
16.679369 28.327250 3.826795 8.000000
57.992615 41.518635 9.326512 11.000000
34.202507 -7.569988 3.132526 7.000000
15.380776 -11.252905 0.812083 22.000000
16.654779 28.049847 3.780230 16.000000
58.198269 41.344070 9.322480 10.000000
77.643295 -17.511911 7.159556 8.000000
15.367113 -11.329613 0.826902 24.000000
16.667212 27.848881 3.738003 9.000000
58.420551 41.195900 9.322304 16.000000
77.527740 -17.756224 7.196274 8.000000
15.340938 -11.397341 0.844446 25.000000
16.264883 26.951971 3.603327 9.000000
58.632011 41.024082 9.293890 9.000000
