VERSION .7
FIELDS x y z intensity
SIZE 4 4 4 4
TYPE F F F F
COUNT 1 1 1 1
WIDTH 1238
HEIGHT 1
VIEWPOINT 0 0 0 1 0 0 0
POINTS 1238
DATA ascii
5.890071 -3.122582 -0.616094 5.000000
6.450548 -8.214870 -0.563841 39.000000
15.517479 15.016491 -1.987981 6.000000
5.737708 -0.375064 -0.635817 10.000000
5.888952 -3.091769 -0.619357 9.000000
6.497396 -8.215332 -0.576427 33.000000
15.606441 15.213743 -1.983494 10.000000
5.694462 -0.350283 -0.630871 10.000000
5.913011 -3.076807 -0.626565 9.000000
6.335855 -7.953858 -0.572092 40.000000
15.590006 15.304219 -1.968962 19.000000
5.685785 -0.328836 -0.629772 9.000000
5.928282 -3.057194 -0.631690 27.000000
6.386458 -7.957362 -0.584743 25.000000
15.496071 15.323937 -1.945007 11.000000
5.666993 -0.306913 -0.628564 9.000000
5.956881 -3.044355 -0.637078 29.000000
6.467152 -8.000532 -0.600379 34.000000
15.528973 15.469460 -1.940817 6.000000
5.648058 -0.284142 -0.628336 8.000000
6.002161 -3.042436 -0.644394 10.000000
6.505554 -7.987977 -0.610244 32.000000
15.767180 15.811274 -1.957493 6.000000
5.604276 -0.261350 -0.624346 8.000000
6.061790 -3.044787 -0.654373 3.000000
6.578701 -8.017597 -0.625244 29.000000
15.882277 16.043871 -1.955249 6.000000
5.580373 -0.239741 -0.621581 8.000000
6.116947 -3.044467 -0.665137 1.000000
6.405873 -7.751631 -0.618574 26.000000
15.972102 16.259007 -1.949934 6.000000
5.566318 -0.218701 -0.619922 9.000000
6.191404 -3.050576 -0.674328 3.000000
6.652743 -7.993377 -0.650647 255.000000
16.017939 16.425657 -1.942700 6.000000
5.537319 -0.196270 -0.616604 9.000000
16.241896 16.766191 -1.956079 7.000000
5.532865 -0.177744 -0.617017 9.000000
16.295258 16.945112 -1.953446 7.000000
5.528351 -0.155386 -0.618394 9.000000
16.443905 17.219593 -1.953355 7.000000
5.499055 -0.135354 -0.615060 9.000000
16.389757 17.301414 -1.930035 7.000000
5.499554 -0.113279 -0.615060 9.000000
6.522412 -7.556287 -0.678751 80.000000
16.538378 17.574667 -1.933192 8.000000
5.480059 -0.092785 -0.612838 10.000000
7.201604 -3.390353 -0.801504 1.000000
6.454749 -7.422722 -0.677498 66.000000
16.586977 17.750051 -1.924769 9.000000
5.485318 -0.073722 -0.613394 18.000000
7.155457 -3.322971 -0.801376 1.000000
16.546900 17.837776 -1.902055 22.000000
5.475399 -0.053517 -0.614194 10.000000
7.108113 -3.257350 -0.802491 1.000000
6.764029 -7.666888 -0.727496 10.000000
16.452135 17.866514 -1.877354 13.000000
5.470804 -0.033420 -0.611727 25.000000
16.323702 17.851692 -1.844316 10.000000
5.480723 -0.012435 -0.613795 14.000000
7.061639 -3.164742 -0.803778 1.000000
6.904331 -7.713942 -0.754792 9.000000
16.202482 17.850058 -1.812611 13.000000
5.470903 0.005729 -0.611727 24.000000
6.969484 -7.734965 -0.768241 9.000000
16.064573 17.828997 -1.783421 14.000000
5.460907 0.025734 -0.610616 17.000000
6.722447 -7.406030 -0.748545 5.000000
16.022818 17.895388 -1.763942 8.000000
5.455807 0.045708 -0.610060 20.000000
6.848729 -7.492433 -0.768598 255.000000
16.008036 18.011280 -1.744202 7.000000
5.455592 0.066656 -0.610060 20.000000
6.977324 -3.006354 -0.805228 1.000000
6.939758 -7.536364 -0.786500 29.000000
16.071791 18.217047 -1.732840 7.000000
5.445374 0.086493 -0.608949 22.000000
6.901015 -2.943532 -0.799144 1.000000
6.902358 -7.440832 -0.789857 21.000000
16.426697 18.750853 -1.751916 7.000000
5.454957 0.106645 -0.610060 26.000000
6.888471 -2.908387 -0.800411 1.000000
6.931218 -7.419829 -0.799106 29.000000
16.558516 19.041679 -1.751278 7.000000
5.449561 0.126523 -0.609504 25.000000
6.920217 -7.353835 -0.805366 29.000000
16.460533 19.062984 -1.721442 7.000000
5.449035 0.147447 -0.609504 22.000000
6.936519 -2.868946 -0.810155 1.000000
7.004926 -7.389397 -0.821009 34.000000
16.346268 19.071518 -1.690366 7.000000
5.428697 0.166810 -0.606334 29.000000
7.224253 -2.965828 -0.845609 1.000000
7.092018 -7.429157 -0.838999 12.000000
16.274162 19.128839 -1.663731 7.000000
5.447702 0.187382 -0.610456 28.000000
7.103997 -2.877415 -0.835351 1.000000
16.124508 19.087536 -1.633333 7.000000
5.442190 0.208117 -0.607998 23.000000
7.176353 -7.408009 -0.862465 9.000000
16.013855 19.098103 -1.602995 7.000000
5.451399 0.226575 -0.609108 25.000000
7.193395 -7.376495 -0.870624 160.000000
15.890686 19.086138 -1.571211 7.000000
5.445588 0.248235 -0.607602 25.000000
7.172030 -7.298311 -0.877232 255.000000
15.767621 19.080112 -1.539925 7.000000
5.454521 0.269633 -0.608709 20.000000
7.191290 -7.264458 -0.883514 255.000000
15.648121 19.070684 -1.508815 7.000000
5.463527 0.290156 -0.608862 18.000000
7.146758 -7.166743 -0.887269 26.000000
15.497162 19.028505 -1.475180 6.000000
5.457573 0.307992 -0.608309 18.000000
7.203053 -7.172943 -0.898296 27.000000
15.368840 19.006054 -1.443585 7.000000
5.451274 0.330549 -0.607756 20.000000
7.225193 -7.142439 -0.906722 12.000000
15.293766 19.055637 -1.417409 7.000000
5.221370 2.736632 -0.542718 1.000000
5.465010 0.351491 -0.608459 17.000000
7.364260 -7.226739 -0.933551 20.000000
15.141116 19.000933 -1.379619 7.000000
5.343604 2.825711 -0.553305 1.000000
5.468643 0.371856 -0.609012 10.000000
7.368828 -7.178395 -0.938030 9.000000
15.028612 19.002234 -1.358737 7.000000
5.329158 2.843115 -0.548632 1.000000
5.472305 0.392260 -0.608606 11.000000
14.870784 18.931366 -1.324849 7.000000
5.466053 0.410995 -0.607098 13.000000
14.833087 19.019674 -1.302064 7.000000
5.489281 0.432980 -0.609850 12.000000
14.672439 18.963388 -1.260771 6.000000
5.472747 0.453788 -0.607241 9.000000
7.577955 -7.171128 -0.989897 8.000000
14.570180 18.974510 -1.232831 7.000000
5.505788 0.475885 -0.611087 9.000000
8.072429 -2.828506 -0.983638 1.000000
7.552769 -7.095003 -0.992329 1.000000
14.486466 19.002443 -1.206266 7.000000
5.518962 0.497409 -0.611769 9.000000
8.115108 -2.810108 -0.992133 5.000000
16.364590 -15.260227 -2.162423 7.000000
14.357686 18.963615 -1.179963 7.000000
5.532053 0.519037 -0.612445 9.000000
16.504000 -15.282872 -2.193596 6.000000
14.235124 18.938745 -1.150447 7.000000
5.525285 0.539812 -0.609959 8.000000
9.060299 -8.334291 -1.211398 20.000000
14.105971 18.924612 -1.121365 7.000000
5.562720 0.564060 -0.615304 8.000000
13.996611 18.901531 -1.092702 9.000000
5.580708 0.586556 -0.614554 8.000000
13.871485 18.883738 -1.059899 9.000000
5.647588 0.614522 -0.623166 8.000000
13.785169 18.911119 -1.034038 10.000000
5.640571 0.635682 -0.619649 8.000000
7.280968 -6.498512 -0.996472 10.000000
13.644283 18.841913 -1.003497 8.000000
5.643248 0.656939 -0.619200 9.000000
11.562355 -3.670016 -1.431485 4.000000
7.285470 -6.454711 -1.002427 10.000000
13.564078 18.876413 -0.978294 6.000000
4.833529 2.879075 -0.462543 1.000000
5.665478 0.680582 -0.621908 9.000000
11.560404 -3.625027 -1.433956 1.000000
7.317375 -6.439793 -1.012471 10.000000
13.388547 18.770050 -0.942137 5.000000
5.672919 0.702578 -0.621994 9.000000
11.539693 -3.572132 -1.436168 1.000000
7.342885 -6.416900 -1.021498 11.000000
13.377949 18.901348 -0.921971 1.000000
4.641409 2.813152 -0.437630 1.000000
5.680148 0.725628 -0.622076 9.000000
11.514243 -3.518060 -1.435648 1.000000
7.395727 -6.415422 -1.034209 16.000000
5.712535 0.749027 -0.622840 9.000000
11.507565 -3.469956 -1.437476 1.000000
7.445155 -6.410629 -1.043030 15.000000
24.167248 34.655827 -1.586167 7.000000
5.743857 0.776600 -0.627613 8.000000
11.510807 -3.422772 -1.440480 4.000000
7.490582 -6.402084 -1.054797 13.000000
5.805167 0.807599 -0.631542 7.000000
11.508983 -3.376367 -1.438694 1.000000
7.553293 -6.403391 -1.070489 15.000000
24.163750 35.184776 -1.512907 1.000000
5.900482 0.842915 -0.643295 7.000000
11.515545 -3.332502 -1.446468 4.000000
7.587403 -6.384661 -1.080755 16.000000
23.898262 35.059826 -1.452037 1.000000
11.527769 -3.288122 -1.450652 1.000000
7.638461 -6.384480 -1.092039 9.000000
24.030792 35.533394 -1.423020 9.000000
11.500787 -3.234891 -1.452103 3.000000
7.690073 -6.375358 -1.104573 16.000000
23.843508 35.523045 -1.366939 9.000000
11.522133 -3.195370 -1.453309 5.000000
7.741114 -6.374477 -1.117721 13.000000
29.763245 44.678764 -1.649593 149.000000
11.510435 -3.142422 -1.454458 6.000000
7.816062 -6.383717 -1.131967 10.000000
20.024656 30.299892 -1.077923 14.000000
20.613075 3.242666 -2.226310 7.000000
11.496881 -3.095639 -1.455589 6.000000
7.857779 -6.369919 -1.145347 13.000000
20.018053 30.520987 -1.045041 9.000000
20.787962 3.348301 -2.242792 7.000000
11.507659 -3.053350 -1.459745 8.000000
7.924826 -6.380838 -1.157425 12.000000
25.149799 38.638653 -1.263607 4.000000
20.806143 3.429513 -2.234929 33.000000
11.524099 -3.010396 -1.460353 10.000000
7.982292 -6.379026 -1.171429 13.000000
25.027695 38.761051 -1.216250 7.000000
11.510283 -2.961764 -1.463534 25.000000
8.026494 -6.361721 -1.183214 13.000000
21.309141 33.256195 -0.992890 5.000000
11.521061 -2.919556 -1.463534 31.000000
8.076266 -6.353113 -1.196199 10.000000
21.252563 33.424175 -0.947264 10.000000
14.730099 2.597314 -1.574719 1.000000
11.488358 -2.864369 -1.462168 46.000000
21.096354 33.435696 -0.897171 9.000000
14.305297 2.576507 -1.522610 1.000000
11.542151 -2.832889 -1.467683 28.000000
20.979536 33.522175 -0.849084 10.000000
11.532665 -2.785784 -1.469373 31.000000
20.960426 33.753067 -0.811448 9.000000
13.636788 2.561911 -1.441221 1.000000
11.533121 -2.739070 -1.472282 21.000000
5.318538 -4.036990 -0.800928 9.000000
11.615812 -2.713772 -1.479444 7.000000
5.282112 -3.977467 -0.796649 9.000000
13.017530 2.544502 -1.375369 1.000000
11.634341 -2.673170 -1.489009 1.000000
5.272127 -3.939752 -0.799953 9.000000
12.842980 2.559288 -1.350978 1.000000
11.629494 -2.625086 -1.491314 1.000000
5.258176 -3.899374 -0.800301 9.000000
12.584940 2.558148 -1.320328 2.000000
11.682883 -2.592172 -1.494811 1.000000
5.212028 -3.835622 -0.795718 9.000000
12.113004 2.508482 -1.269590 1.000000
11.730575 -2.557679 -1.503960 1.000000
5.205451 -3.801450 -0.798292 9.000000
21.796648 36.812115 -0.574972 9.000000
12.094860 2.550992 -1.259939 1.000000
11.725242 -2.509393 -1.506281 1.000000
5.214880 -3.779106 -0.802174 9.000000
12.041872 2.585951 -1.253227 1.000000
11.806925 -2.481653 -1.517735 1.000000
5.203959 -3.742179 -0.804059 10.000000
11.498167 2.513313 -1.193442 1.000000
11.883864 -2.450217 -1.530708 1.000000
5.184991 -3.699784 -0.802416 21.000000
11.436069 2.543693 -1.181759 1.000000
11.931926 -2.414568 -1.533589 1.000000
5.179083 -3.681943 -0.802759 10.000000
11.387804 2.578886 -1.173669 1.000000
11.979095 -2.378443 -1.542852 1.000000
5.175985 -3.651256 -0.803569 10.000000
11.252621 2.591667 -1.156636 3.000000
12.129615 -2.359955 -1.558869 1.000000
5.176682 -3.623406 -0.806093 10.000000
11.195191 2.621686 -1.145633 2.000000
12.406188 -2.366607 -1.593288 1.000000
5.177988 -3.594776 -0.807496 10.000000
11.071412 2.631457 -1.121819 1.000000
12.707630 -2.375873 -1.628579 4.000000
5.162191 -3.555841 -0.806331 10.000000
46.219017 83.278458 -0.332467 17.000000
11.004408 2.658181 -1.108030 4.000000
12.828894 -2.347600 -1.642953 5.000000
5.170747 -3.533860 -0.808972 10.000000
10.981340 2.652609 -1.093765 1.000000
12.728090 -2.329153 -1.616280 5.000000
5.170206 -3.545418 -0.800860 10.000000
46.399349 82.885941 -0.348156 1.000000
11.064449 2.627762 -1.097023 1.000000
12.598909 -2.353270 -1.589602 5.000000
5.193336 -3.592015 -0.799950 10.000000
46.690685 82.727524 -0.431072 1.000000
11.161241 2.607572 -1.105664 1.000000
12.361499 -2.358082 -1.554089 1.000000
5.194292 -3.618200 -0.795207 10.000000
11.262503 2.587734 -1.118820 1.000000
12.202821 -2.374198 -1.526413 1.000000
5.196644 -3.650908 -0.791049 10.000000
11.364338 2.567317 -1.125941 1.000000
12.004033 -2.383395 -1.500513 1.000000
5.233794 -3.702990 -0.791752 9.000000
11.465593 2.546060 -1.139180 1.000000
11.883846 -2.404839 -1.482286 1.000000
5.228716 -3.728230 -0.788495 10.000000
11.640607 2.538063 -1.155591 1.000000
11.890294 -2.451542 -1.477749 1.000000
5.222937 -3.772447 -0.780813 10.000000
11.795619 2.526608 -1.172178 1.000000
11.803328 -2.480897 -1.465978 1.000000
5.261690 -3.829862 -0.784090 9.000000
21.834379 36.861164 -0.456141 7.000000
11.993441 2.527414 -1.195316 1.000000
11.693220 -2.502540 -1.444961 1.000000
5.264180 -3.861269 -0.780785 9.000000
12.198637 2.519556 -1.212554 1.000000
11.708959 -2.550825 -1.441686 1.000000
5.282591 -3.904633 -0.778656 9.000000
12.534584 2.538801 -1.249476 1.000000
11.675337 -2.590498 -1.434525 1.000000
5.296555 -3.945055 -0.778166 9.000000
12.817351 2.547204 -1.274421 1.000000
11.627508 -2.624637 -1.425601 3.000000
5.342288 -4.009646 -0.779948 8.000000
13.103676 2.558966 -1.306744 1.000000
11.599181 -2.662960 -1.416994 7.000000
5.336020 -4.035601 -0.775269 8.000000
11.588871 -2.707478 -1.416994 15.000000
5.372982 -4.094597 -0.778036 9.000000
20.974123 33.735699 -0.679518 10.000000
11.531281 -2.738633 -1.404877 12.000000
5.413743 -4.157115 -0.778897 9.000000
21.004313 33.509724 -0.717940 9.000000
11.531296 -2.783324 -1.401914 29.000000
21.138420 33.489418 -0.760411 9.000000
14.221828 2.558911 -1.421948 1.000000
11.525821 -2.828880 -1.398358 27.000000
8.251387 -6.393514 -1.180091 21.000000
21.285131 33.436714 -0.809509 10.000000
14.627803 2.576644 -1.464202 6.000000
11.486938 -2.864015 -1.390715 30.000000
8.173714 -6.381412 -1.164988 17.000000
21.465742 33.474869 -0.839925 4.000000
11.491508 -2.909933 -1.386258 23.000000
8.080764 -6.356651 -1.145969 21.000000
25.038343 38.747856 -1.022752 9.000000
20.033331 3.374000 -2.013430 8.000000
11.480720 -2.954156 -1.382120 21.000000
8.034980 -6.368446 -1.131909 15.000000
25.175320 38.633602 -1.078646 13.000000
20.061794 3.296032 -2.011361 9.000000
11.478844 -3.002855 -1.379137 22.000000
7.981282 -6.373654 -1.118607 10.000000
25.280722 38.515511 -1.125957 13.000000
20.072264 3.229430 -2.014910 8.000000
11.483691 -3.044846 -1.376722 11.000000
7.927643 -6.378546 -1.105373 15.000000
20.029274 30.283894 -0.925399 12.000000
20.063610 3.152641 -2.020027 7.000000
11.511288 -3.097364 -1.377165 9.000000
7.885501 -6.392392 -1.095587 16.000000
29.763142 44.644825 -1.414412 209.000000
8.414673 1.289129 -0.848195 7.000000
11.495443 -3.140485 -1.368272 7.000000
7.820400 -6.387259 -1.080874 12.000000
23.873053 35.540245 -1.173467 1.000000
8.424116 1.258993 -0.850177 7.000000
11.513038 -3.190684 -1.367524 9.000000
7.764367 -6.386806 -1.065557 12.000000
23.931715 35.360287 -1.222481 11.000000
8.423897 1.227412 -0.848195 7.000000
11.516071 -3.237022 -1.365055 8.000000
7.726305 -6.403120 -1.054692 10.000000
23.987194 35.163914 -1.263337 14.000000
11.499238 -3.279984 -1.360314 1.000000
7.657678 -6.393735 -1.039715 13.000000
24.111992 35.083164 -1.300635 11.000000
11.521458 -3.332034 -1.355897 4.000000
7.631078 -6.419138 -1.030495 10.000000
24.253719 35.013760 -1.353437 11.000000
5.860828 0.763269 -0.593054 7.000000
11.538228 -3.382760 -1.355070 32.000000
7.596799 -6.437997 -1.020264 17.000000
24.237692 34.730999 -1.390167 10.000000
5.804256 0.734277 -0.588085 8.000000
11.478576 -3.411008 -1.345291 10.000000
7.577609 -6.469602 -1.012079 15.000000
24.406643 34.714260 -1.444801 10.000000
4.679181 2.803760 -0.406325 1.000000
5.801869 0.712380 -0.588605 10.000000
11.522934 -3.472397 -1.347788 1.000000
7.569600 -6.510883 -1.005387 9.000000
5.779963 0.687173 -0.585084 9.000000
11.529590 -3.520549 -1.345806 1.000000
7.569037 -6.558818 -0.997905 8.000000
23.497349 32.917755 -1.454736 10.000000
4.974147 2.931166 -0.436142 1.000000
5.777399 0.665403 -0.585599 10.000000
11.535246 -3.572962 -1.339595 1.000000
7.580773 -6.622455 -0.994079 7.000000
23.330843 32.432457 -1.485935 1.000000
5.769606 0.643087 -0.587637 9.000000
11.570756 -3.626055 -1.345108 1.000000
7.562897 -6.651186 -0.989297 1.000000
23.328642 32.191757 -1.520320 5.000000
5.761930 0.620859 -0.587641 7.000000
11.571629 -3.675183 -1.340405 1.000000
23.380861 32.016186 -1.550714 1.000000
5.744480 0.596674 -0.585624 6.000000
11.601105 -3.731409 -1.341089 1.000000
13.973519 18.994835 -0.947110 3.000000
5.746527 0.575606 -0.586632 4.000000
11.616151 -3.783284 -1.340106 1.000000
9.228821 -8.295096 -1.181723 26.000000
14.092577 19.017244 -0.979641 6.000000
5.669083 0.548867 -0.579541 1.000000
11.617032 -3.830723 -1.335337 3.000000
9.150995 -8.285982 -1.166943 26.000000
14.152164 18.965851 -0.995955 5.000000
5.705921 0.530327 -0.582084 1.000000
7.887858 -2.634649 -0.901963 2.000000
9.095716 -8.296801 -1.150757 32.000000
14.215026 18.898266 -1.028344 7.000000
5.692760 0.508065 -0.582564 1.000000
7.892276 -2.668318 -0.903581 1.000000
9.073315 -8.337497 -1.140935 9.000000
14.392158 18.988480 -1.061115 7.000000
5.669871 0.483089 -0.581022 1.000000
16.482780 -15.257879 -2.059899 7.000000
14.442513 18.917379 -1.084927 7.000000
5.602096 0.456639 -0.574892 1.000000
16.430729 -15.316541 -2.040298 7.000000
14.602413 18.982170 -1.116838 7.000000
5.688036 0.442664 -0.583541 1.000000
8.018326 -2.809549 -0.910992 5.000000
7.606495 -7.147973 -0.937078 9.000000
14.710807 18.985579 -1.141058 7.000000
5.664846 0.420971 -0.580006 1.000000
7.970738 -2.827284 -0.899348 1.000000
7.644847 -7.231900 -0.935495 4.000000
14.859330 19.032766 -1.176729 7.000000
5.710802 0.403345 -0.586575 1.000000
15.063946 19.156616 -1.208948 7.000000
5.623143 0.374474 -0.576418 1.000000
15.055604 19.002256 -1.232375 7.000000
5.493533 2.869509 -0.524803 1.000000
5.589589 0.350688 -0.574812 1.000000
7.480659 -7.234088 -0.897629 15.000000
15.205394 19.054287 -1.256248 6.000000
5.749708 0.341596 -0.590143 1.000000
7.216895 -7.027934 -0.858291 37.000000
15.296057 19.024458 -1.287874 6.000000
5.745749 0.320231 -0.591642 1.000000
7.191620 -7.054860 -0.849500 18.000000
15.436923 19.063013 -1.319884 7.000000
5.672277 0.295286 -0.584963 1.000000
7.173327 -7.088694 -0.841539 33.000000
15.549993 19.059381 -1.349405 7.000000
5.643764 0.272077 -0.579917 1.000000
7.179600 -7.147093 -0.836441 28.000000
15.675720 19.090727 -1.372402 7.000000
5.609941 0.249840 -0.576344 1.000000
7.197457 -7.215065 -0.830707 9.000000
15.818154 19.107279 -1.404203 7.000000
5.645505 0.230695 -0.580903 1.000000
15.857821 19.033150 -1.432775 6.000000
5.695812 0.211842 -0.588006 1.000000
7.257191 -7.382393 -0.825639 4.000000
16.051908 19.109592 -1.469592 7.000000
5.622020 0.187484 -0.580310 1.000000
7.195871 -7.373883 -0.810875 140.000000
16.223764 19.184647 -1.505897 7.000000
5.667413 0.168205 -0.584928 1.000000
7.056298 -2.893999 -0.765279 1.000000
7.076912 -7.302807 -0.791409 255.000000
16.299482 19.138287 -1.528733 7.000000
5.573424 0.144972 -0.576152 1.000000
6.987272 -2.892794 -0.754830 1.000000
7.092144 -7.372403 -0.785352 54.000000
16.433460 19.152943 -1.561231 7.000000
5.623865 0.124677 -0.579328 2.000000
6.954036 -2.908936 -0.748400 1.000000
7.055216 -7.388023 -0.775289 30.000000
16.590847 19.186806 -1.591394 7.000000
5.634230 0.104248 -0.580353 1.000000
6.928915 -2.931165 -0.742979 1.000000
6.974953 -7.355207 -0.760390 23.000000
16.699329 19.183317 -1.617973 7.000000
5.614653 0.085261 -0.578304 1.000000
6.927042 -7.353370 -0.748956 23.000000
16.781372 19.135489 -1.650339 6.000000
5.709238 0.063775 -0.590029 1.000000
6.894246 -2.976266 -0.733642 1.000000
6.969500 -7.458199 -0.746030 31.000000
16.965906 19.196712 -1.688168 6.000000
5.659707 0.041489 -0.584890 1.000000
6.915575 -3.015592 -0.733095 2.000000
6.937166 -7.475739 -0.734621 36.000000
17.121336 19.243599 -1.719852 7.000000
5.654847 0.020726 -0.584376 2.000000
17.223812 19.223234 -1.750546 7.000000
5.724720 0.000000 -0.589573 1.000000
17.316311 19.184525 -1.779979 7.000000
5.689772 -0.018868 -0.586980 2.000000
17.385492 19.133224 -1.803227 7.000000
5.620137 -0.039237 -0.578816 1.000000
7.126148 -3.219077 -0.746045 1.000000
16.682644 18.218676 -1.753389 7.000000
5.724179 -0.061944 -0.591571 1.000000
6.928348 -7.738057 -0.698975 30.000000
16.714659 18.119846 -1.767059 7.000000
5.713968 -0.082780 -0.590543 1.000000
7.145243 -3.286445 -0.744828 1.000000
16.709124 17.993750 -1.781696 8.000000
5.693735 -0.103361 -0.588487 2.000000
7.001056 -3.267622 -0.724887 1.000000
6.768027 -7.668721 -0.668597 60.000000
16.746143 17.895319 -1.804106 10.000000
5.688324 -0.125113 -0.587973 2.000000
16.852173 17.889347 -1.830693 11.000000
5.687878 -0.143975 -0.587973 5.000000
7.105455 -3.363286 -0.729266 1.000000
16.940100 17.851143 -1.863361 14.000000
5.692225 -0.166953 -0.588487 5.000000
17.100834 17.895002 -1.900230 9.000000
5.686464 -0.185659 -0.589959 6.000000
17.168612 17.834595 -1.922217 9.000000
5.725500 -0.210945 -0.593085 4.000000
17.277798 17.816856 -1.948907 9.000000
5.724769 -0.229930 -0.593085 7.000000
6.197908 -3.059160 -0.625371 1.000000
17.205715 17.612892 -1.959427 7.000000
6.956306 2.741565 -0.754218 1.000000
5.728857 -0.251129 -0.593600 7.000000
6.128561 -3.054253 -0.614734 8.000000
17.157537 17.441360 -1.968482 7.000000
6.993747 2.726748 -0.761160 1.000000
5.757761 -0.274551 -0.595683 8.000000
6.069204 -3.051165 -0.606259 9.000000
17.012682 17.167789 -1.974354 7.000000
7.044966 2.717013 -0.770971 1.000000
5.766441 -0.296152 -0.598726 9.000000
6.039239 -3.066532 -0.603299 29.000000
6.534858 -7.907713 -0.582518 23.000000
16.894724 16.924236 -1.974462 7.000000
5.770492 -0.317569 -0.597225 10.000000
6.020451 -3.082146 -0.598871 22.000000
6.542496 -7.973473 -0.573036 37.000000
16.680225 16.593115 -1.967421 7.000000
5.769393 -0.338723 -0.596216 14.000000
5.996207 -3.097524 -0.592836 10.000000
6.504145 -7.986247 -0.561418 34.000000
16.633350 16.425631 -1.975322 6.000000
5.782733 -0.361792 -0.599778 10.000000
5.970842 -3.114849 -0.586822 8.000000
6.492170 -8.028616 -0.555571 37.000000
16.478748 16.154095 -1.970201 6.000000
5.791398 -0.383649 -0.599794 9.000000
6.359927 -7.924304 -0.536065 36.000000
16.425440 15.984200 -1.985018 6.000000
5.844528 -0.408689 -0.605448 9.000000
6.351244 -7.970321 -0.526974 50.000000
16.039320 15.499816 -1.951417 6.000000
5.912463 -0.436259 -0.611609 8.000000
6.347108 -8.025308 -0.518325 26.000000
15.976425 15.326196 -1.952493 10.000000
5.965370 -0.462152 -0.617253 7.000000
6.353314 -8.091042 -0.510335 17.000000
16.047302 15.292325 -1.978343 22.000000
6.480504 -8.315587 -0.511929 34.000000
16.150471 15.267403 -2.006951 9.000000
10.654477 3.754124 -1.199274 1.000000
6.314178 -8.160758 -0.492012 125.000000
16.150574 15.155793 -2.019534 6.000000
10.695941 3.724721 -1.206394 1.000000
8.608315 -0.727400 -0.892753 1.000000
6.120224 -7.970268 -0.470383 29.000000
10.769633 3.706180 -1.223219 1.000000
8.506529 -0.751706 -0.880983 2.000000
10.716846 3.644138 -1.219695 1.000000
8.528480 -0.785158 -0.883549 1.000000
6.126903 -8.098280 -0.454025 48.000000
10.683231 3.587004 -1.218272 1.000000
8.505895 -0.814530 -0.880005 1.000000
6.158878 -8.199875 -0.447753 40.000000
10.695700 3.547622 -1.224173 1.000000
22.117905 -2.199863 -2.293020 40.000000
6.173841 -8.282844 -0.440206 199.000000
10.708224 3.508264 -1.228106 1.000000
22.273758 -2.293911 -2.306044 55.000000
6.127333 -8.280615 -0.428142 255.000000
10.687500 3.458149 -1.228235 1.000000
22.166286 -2.364980 -2.295799 23.000000
5.967056 -8.126135 -0.410209 16.000000
10.704819 3.418402 -1.234663 1.000000
22.162811 -2.446797 -2.292420 7.000000
10.735411 3.384862 -1.244706 1.000000
22.178358 -2.534747 -2.291081 7.000000
6.038088 -8.347425 -0.397576 72.000000
10.695134 3.329115 -1.242571 1.000000
20.311266 -2.396808 -2.102706 6.000000
6.172351 -8.596066 -0.397292 37.000000
10.711599 3.291226 -1.247034 1.000000
6.464464 -9.069538 -0.406450 13.000000
10.741986 3.257522 -1.255123 1.000000
19.972725 -2.505436 -2.065954 6.000000
10.696447 3.198916 -1.256251 1.000000
19.656591 -2.549457 -2.030845 7.000000
10.721975 3.163784 -1.261830 4.000000
19.504694 -2.595553 -2.019500 7.000000
6.423769 -9.221971 -0.374792 57.000000
10.728305 3.122953 -1.265170 1.000000
6.258183 -9.051459 -0.355436 27.000000
10.710605 3.075263 -1.265684 3.000000
6.158890 -8.974656 -0.340163 17.000000
10.740600 3.039284 -1.275735 1.000000
15.709408 -2.269358 -1.620664 2.000000
6.185187 -9.084164 -0.333853 23.000000
10.741668 2.997107 -1.278492 4.000000
15.326761 -2.271460 -1.584769 4.000000
5.859802 -8.671182 -0.306952 33.000000
4.305541 3.521535 -0.604256 4.000000
10.651573 2.929932 -1.270389 38.000000
14.944861 -2.270871 -1.543465 5.000000
5.800325 -8.651350 -0.294579 73.000000
4.259964 3.458276 -0.602861 1.000000
10.714620 2.903067 -1.284423 3.000000
14.676469 -2.285154 -1.511363 4.000000
6.510520 -4.213456 -0.557246 1.000000
5.861602 -8.809071 -0.290010 9.000000
4.245192 3.420547 -0.602844 2.000000
10.734350 2.866223 -1.289450 1.000000
14.480669 -2.311651 -1.494689 3.000000
6.466118 -4.218427 -0.549348 4.000000
5.764903 -8.729667 -0.273942 57.000000
4.257122 3.404503 -0.609504 5.000000
10.729504 2.822840 -1.295467 6.000000
14.207257 -2.321436 -1.464797 1.000000
6.409102 -4.214798 -0.543122 6.000000
5.604283 -8.554462 -0.257081 34.000000
4.273129 3.391700 -0.613869 2.000000
10.744145 2.784628 -1.299921 1.000000
14.016876 -2.343106 -1.448550 1.000000
5.612652 -8.632828 -0.249854 22.000000
10.768534 2.746866 -1.307485 1.000000
13.724056 -2.345896 -1.416713 1.000000
9.893825 -6.568464 -0.834596 10.000000
5.493192 -8.513972 -0.235241 24.000000
10.802165 2.713316 -1.314294 3.000000
13.646831 -2.386662 -1.404791 1.000000
9.828711 -6.577264 -0.822835 15.000000
5.507867 -8.605793 -0.228298 63.000000
10.859343 2.685404 -1.327964 1.000000
13.324352 -2.380627 -1.374871 1.000000
9.792487 -6.605116 -0.815609 21.000000
5.866497 -9.236992 -0.234944 30.000000
10.917366 2.655312 -1.337780 1.000000
13.071088 -2.384847 -1.347288 1.000000
9.760431 -6.635673 -0.806681 11.000000
5.904695 -9.372869 -0.224308 15.000000
10.950712 2.620949 -1.344666 1.000000
12.665725 -2.361175 -1.306430 4.000000
9.741787 -6.672838 -0.798778 19.000000
11.036874 2.598839 -1.360090 1.000000
12.593233 -2.395455 -1.302110 1.000000
9.733914 -6.719994 -0.795999 5.000000
11.117954 2.577004 -1.373006 1.000000
12.267169 -2.380052 -1.267086 1.000000
9.758928 -6.790213 -0.789653 1.000000
11.261898 2.566910 -1.397792 1.000000
12.083520 -2.386027 -1.248927 1.000000
9.791389 -6.866196 -0.790118 1.000000
11.294733 2.530882 -1.406856 1.000000
12.035470 -2.424591 -1.242749 1.000000
17.520203 -12.382055 -1.406167 7.000000
5.213754 -8.602153 -0.152749 1.000000
11.526371 2.536346 -1.442847 1.000000
11.992179 -2.461641 -1.241361 1.000000
17.519804 -12.478310 -1.402256 7.000000
12.172638 -20.250664 -0.338174 30.000000
11.739079 2.538079 -1.470427 1.000000
11.856479 -2.479107 -1.228246 1.000000
17.466955 -12.528182 -1.386274 6.000000
12.078975 -20.254631 -0.316950 34.000000
4.316316 3.142898 -0.660317 1.000000
11.985154 2.545337 -1.508754 1.000000
11.818118 -2.516330 -1.225220 1.000000
17.447613 -12.616048 -1.377253 7.000000
12.112738 -20.473366 -0.294794 38.000000
12.217527 2.545699 -1.543398 1.000000
11.735656 -2.545916 -1.215558 1.000000
17.373989 -12.650761 -1.363447 7.000000
12.007408 -20.466131 -0.269203 67.000000
12.527105 2.562333 -1.590373 1.000000
11.701958 -2.583550 -1.213040 1.000000
17.388235 -12.758917 -1.360667 7.000000
11.837924 -20.339592 -0.246453 33.000000
12.787427 2.566787 -1.638400 1.000000
11.696227 -2.627280 -1.224005 8.000000
17.321293 -12.807728 -1.359093 8.000000
11.760881 -20.378656 -0.229975 25.000000
12.692489 2.547730 -1.646896 1.000000
11.698729 -2.629987 -1.243350 4.000000
17.429642 -12.892548 -1.401964 6.000000
11.773251 -20.400089 -0.254885 15.000000
12.444679 2.545473 -1.618195 1.000000
11.726864 -2.591195 -1.253797 1.000000
17.395540 -12.768950 -1.410576 8.000000
11.831625 -20.336933 -0.287466 19.000000
4.223547 3.064084 -0.663806 1.000000
12.255162 2.555773 -1.594816 1.000000
11.730564 -2.546955 -1.261659 1.000000
17.406143 -12.683473 -1.438040 7.000000
11.957971 -20.390020 -0.321815 36.000000
4.324690 3.161719 -0.678670 1.000000
12.051643 2.559458 -1.569541 1.000000
11.793104 -2.513156 -1.273721 1.000000
17.459368 -12.624548 -1.461269 7.000000
12.046672 -20.377926 -0.351213 20.000000
4.273420 3.148335 -0.669606 1.000000
11.949806 2.583639 -1.559670 1.000000
11.854894 -2.480935 -1.287955 1.000000
17.484215 -12.545183 -1.478357 7.000000
12.128697 -20.346079 -0.384509 31.000000
4.318088 3.205726 -0.673675 1.000000
11.538280 2.541078 -1.503030 1.000000
11.902205 -2.445337 -1.298547 1.000000
17.538816 -12.491851 -1.501935 7.000000
5.139297 -8.553226 -0.174175 6.000000
4.278780 3.200937 -0.666527 1.000000
11.359488 2.545392 -1.480945 1.000000
11.954055 -2.410360 -1.311843 1.000000
9.815957 -6.937233 -0.851055 1.000000
5.192298 -8.573503 -0.188956 7.000000
4.288522 3.246915 -0.665226 1.000000
11.224347 2.558351 -1.464539 1.000000
12.035736 -2.380957 -1.322006 1.000000
9.734418 -6.826246 -0.854325 5.000000
12.308977 -20.165342 -0.474253 25.000000
4.316323 3.292922 -0.668520 1.000000
11.229596 2.600816 -1.468444 1.000000
12.184392 -2.368406 -1.344039 1.000000
9.693697 -6.752360 -0.861321 7.000000
12.433986 -20.211155 -0.505352 37.000000
11.011973 2.597033 -1.437325 1.000000
12.471622 -2.370067 -1.383583 1.000000
9.707919 -6.704549 -0.868467 9.000000
6.052233 -9.757448 -0.260564 26.000000
4.261502 3.300797 -0.655165 1.000000
10.939702 2.624371 -1.425206 1.000000
12.734083 -2.371619 -1.414014 5.000000
9.707119 -6.651581 -0.876534 22.000000
6.064910 -9.702117 -0.271638 20.000000
10.945880 2.664270 -1.423159 1.000000
12.790528 -2.338272 -1.421709 1.000000
9.732863 -6.621900 -0.883069 10.000000
6.098559 -9.680600 -0.285617 24.000000
10.939912 2.709381 -1.423785 1.000000
13.229881 -2.363748 -1.474226 1.000000
5.893722 -9.283439 -0.286027 41.000000
4.330485 3.432300 -0.659883 1.000000
10.800493 2.714900 -1.406865 1.000000
13.457584 -2.355986 -1.505914 1.000000
5.534117 -8.646807 -0.281380 38.000000
4.232879 3.380272 -0.643057 1.000000
10.789983 2.758356 -1.402978 1.000000
13.741004 -2.348793 -1.539024 4.000000
5.545141 -8.597782 -0.291135 38.000000
10.756266 2.791776 -1.395974 1.000000
13.973106 -2.340803 -1.574154 1.000000
5.640255 -8.678598 -0.309000 38.000000
10.774248 2.840645 -1.399714 1.000000
14.207716 -2.321511 -1.602065 1.000000
5.651138 -8.629269 -0.320558 23.000000
10.746304 2.871424 -1.391397 1.000000
14.554038 -2.325969 -1.642795 1.000000
5.712857 -8.654139 -0.331316 38.000000
4.383848 3.607344 -0.655875 1.000000
10.687044 2.901603 -1.383258 1.000000
14.704562 -2.294785 -1.661455 4.000000
5.740001 -8.629590 -0.345628 26.000000
10.671040 2.941298 -1.382638 7.000000
14.919116 -2.266959 -1.692656 5.000000
5.767102 -8.605044 -0.356309 38.000000
10.690364 2.984803 -1.382482 1.000000
15.137596 -2.248826 -1.719293 2.000000
5.918367 -8.767736 -0.376796 24.000000
10.664968 3.021903 -1.376759 4.000000
15.637569 -2.261767 -1.777871 5.000000
6.140089 -9.021313 -0.402054 28.000000
10.668589 3.065215 -1.374733 1.000000
6.188253 -9.024196 -0.414617 39.000000
10.643450 3.100267 -1.369020 1.000000
19.417953 -2.663382 -2.219251 7.000000
6.238081 -9.025752 -0.427243 38.000000
10.616871 3.138815 -1.365250 1.000000
19.530617 -2.605941 -2.234503 7.000000
6.346327 -9.114186 -0.446065 21.000000
10.657486 3.195372 -1.368097 1.000000
19.451408 -2.519393 -2.227785 9.000000
6.308929 -8.993370 -0.454671 19.000000
10.614045 3.220747 -1.359954 1.000000
19.444563 -2.446077 -2.236354 7.000000
6.355990 -8.990188 -0.467235 28.000000
10.597878 3.258308 -1.355475 1.000000
19.310011 -2.357288 -2.223310 9.000000
6.476832 -9.093606 -0.487447 10.000000
10.642601 3.316839 -1.358865 1.000000
19.303734 -2.281331 -2.224999 8.000000
6.458731 -9.001529 -0.495341 20.000000
10.640065 3.358883 -1.358128 1.000000
19.222746 -2.200351 -2.218141 9.000000
10.670684 3.411607 -1.359655 1.000000
19.175217 -2.123739 -2.221978 9.000000
10.629623 3.443521 -1.352140 1.000000
19.187426 -2.053931 -2.225918 9.000000
10.655336 3.495055 -1.351074 1.000000
19.130939 -1.973616 -2.218470 9.000000
6.154966 -8.324035 -0.509942 8.000000
10.614187 3.524699 -1.347486 1.000000
18.973789 -1.887147 -2.209547 6.000000
6.699655 -8.994827 -0.566201 9.000000
10.634002 3.578737 -1.341882 1.000000
6.255627 -8.334743 -0.537032 19.000000
6.260251 -8.280539 -0.545844 24.000000
6.254690 -8.151271 -0.565437 35.000000
5.789053 -3.126213 -0.636985 1.000000
6.294951 -8.144715 -0.577316 28.000000
14.535300 13.865988 -1.973217 6.000000
5.795495 -3.102310 -0.643388 9.000000
6.339722 -8.140800 -0.589522 35.000000
14.707587 14.133665 -1.992841 6.000000
5.652811 -0.390326 -0.663629 10.000000
5.806528 -3.080889 -0.646830 10.000000
6.364635 -8.114202 -0.600036 43.000000
14.767194 14.290429 -1.982322 6.000000
5.609833 -0.366705 -0.656432 11.000000
5.843801 -3.073271 -0.654377 22.000000
14.837375 14.464028 -1.976948 6.000000
5.601112 -0.345522 -0.656251 23.000000
5.872370 -3.060871 -0.659817 23.000000
14.785244 14.519277 -1.962481 6.000000
5.572422 -0.322280 -0.654715 23.000000
5.891772 -3.043575 -0.667753 20.000000
6.463273 -8.058833 -0.635458 62.000000
14.941945 14.781126 -1.971954 6.000000
5.553617 -0.300773 -0.653356 24.000000
5.946856 -3.044470 -0.676261 7.000000
6.428229 -7.958061 -0.640032 37.000000
15.152479 15.094409 -1.987853 6.000000
5.549624 -0.282103 -0.652773 23.000000
6.475824 -7.957144 -0.652649 30.000000
15.108572 15.161402 -1.974299 9.000000
5.540518 -0.260315 -0.653542 26.000000
6.284806 -7.667605 -0.642859 73.000000
15.134889 15.299557 -1.962326 8.000000
5.531399 -0.239572 -0.653338 27.000000
6.223484 -7.536280 -0.644035 34.000000
15.055482 15.331271 -1.940397 10.000000
5.522393 -0.216975 -0.652166 28.000000
6.239746 -7.502479 -0.653268 45.000000
15.108368 15.498346 -1.931673 7.000000
5.518155 -0.197520 -0.651581 25.000000
6.152237 -3.007296 -0.713703 1.000000
6.353414 -7.582449 -0.669192 22.000000
15.322085 15.827742 -1.946674 6.000000
5.503839 -0.176811 -0.650784 28.000000
15.413784 16.039688 -1.942305 6.000000
5.504450 -0.156638 -0.650784 29.000000
7.374248 -3.574382 -0.861315 1.000000
15.538527 16.288574 -1.941782 6.000000
5.500047 -0.135379 -0.650197 24.000000
15.585517 16.452438 -1.934897 6.000000
5.485386 -0.114902 -0.650352 31.000000
7.174935 -3.413050 -0.843503 1.000000
15.741522 16.739584 -1.937632 6.000000
5.481033 -0.094715 -0.647850 25.000000
7.402737 -3.488199 -0.874553 1.000000
6.509116 -7.490521 -0.725256 191.000000
15.789783 16.914703 -1.934922 6.000000
5.481130 -0.073666 -0.649763 24.000000
7.022296 -3.243269 -0.834835 1.000000
6.528067 -7.459578 -0.736638 16.000000
15.996621 17.262688 -1.943193 7.000000
5.481363 -0.053576 -0.649763 25.000000
7.148614 -3.289507 -0.850695 1.000000
16.106586 17.503513 -1.934706 7.000000
5.481749 -0.033487 -0.647850 27.000000
16.083794 17.607828 -1.918759 8.000000
5.481497 -0.012437 -0.650720 27.000000
7.051658 -3.163225 -0.847789 1.000000
6.862820 -7.672950 -0.795717 36.000000
16.130730 17.783480 -1.906449 9.000000
5.476656 0.005735 -0.649175 24.000000
6.944462 -7.712606 -0.811325 8.000000
16.063437 17.840252 -1.880915 10.000000
5.476599 0.025808 -0.649175 28.000000
15.951885 17.834948 -1.857962 9.000000
5.476467 0.045881 -0.649175 29.000000
6.786548 -7.429613 -0.807852 48.000000
15.857921 17.854929 -1.824917 10.000000
5.471512 0.066850 -0.646676 29.000000
6.793102 -7.382269 -0.812455 18.000000
15.753493 17.856262 -1.798804 16.000000
5.476224 0.085071 -0.647263 32.000000
6.996172 -2.987007 -0.854622 1.000000
6.815679 -7.360263 -0.822960 27.000000
15.623814 17.853224 -1.767182 21.000000
5.470649 0.106952 -0.648586 24.000000
6.910553 -2.920553 -0.846828 3.000000
6.837778 -7.324925 -0.832636 30.000000
15.529895 17.871401 -1.738675 10.000000
5.470198 0.127957 -0.648586 27.000000
6.953022 -2.908512 -0.853385 1.000000
6.918590 -7.357250 -0.849838 22.000000
15.556674 18.035303 -1.723987 7.000000
5.459765 0.147737 -0.647409 27.000000
7.128593 -7.527742 -0.883335 164.000000
15.601658 18.215631 -1.714970 7.000000
5.464488 0.167910 -0.645135 29.000000
6.937047 -2.840848 -0.856735 1.000000
7.196972 -7.544371 -0.895708 24.000000
15.713225 18.469507 -1.716942 8.000000
5.448756 0.186466 -0.645280 33.000000
7.327354 -7.624894 -0.921467 255.000000
16.074980 19.035645 -1.729123 9.000000
5.458185 0.206820 -0.644549 25.000000
7.113595 -2.852439 -0.884065 1.000000
7.120013 -7.360125 -0.901323 30.000000
15.964478 19.052721 -1.698939 8.000000
5.452125 0.228512 -0.645868 27.000000
7.116270 -7.299955 -0.908054 33.000000
15.831681 19.035528 -1.670515 9.000000
5.461240 0.249904 -0.646089 32.000000
7.111017 -7.241278 -0.912918 32.000000
15.753721 19.076849 -1.638943 7.000000
5.460288 0.269919 -0.646089 31.000000
7.080803 -7.157843 -0.916295 32.000000
15.675285 19.124201 -1.612058 7.000000
5.454415 0.289672 -0.644549 24.000000
7.154373 -7.181897 -0.931486 27.000000
15.477370 19.004204 -1.576358 6.000000
5.463285 0.309271 -0.645721 29.000000
7.166996 -7.147010 -0.938947 29.000000
15.314360 18.958973 -1.537598 6.000000
5.467182 0.331514 -0.644395 30.000000
7.230317 -7.152497 -0.954216 34.000000
15.283668 19.043055 -1.519124 7.000000
5.460984 0.349318 -0.644766 32.000000
7.370561 -7.243030 -0.978648 81.000000
15.112138 18.971361 -1.483479 7.000000
5.474466 0.371292 -0.646521 30.000000
7.433213 -7.248705 -0.994235 34.000000
14.991050 18.954739 -1.452679 7.000000
5.468228 0.391008 -0.644979 30.000000
7.466257 -7.227729 -1.004257 10.000000
14.873098 18.947926 -1.422655 7.000000
5.472046 0.411445 -0.642690 32.000000
14.764487 18.958990 -1.389760 7.000000
5.470274 0.434363 -0.642690 27.000000
8.148471 -2.925600 -1.040038 1.000000
14.720450 19.032305 -1.374695 7.000000
5.468692 0.452491 -0.643648 29.000000
14.594129 19.005697 -1.339716 7.000000
5.476892 0.473387 -0.644813 26.000000
7.976138 -2.799457 -1.024441 1.000000
14.431404 18.937069 -1.306131 7.000000
5.480092 0.494870 -0.644435 30.000000
7.958664 -2.757490 -1.025242 8.000000
7.076309 -6.605696 -0.981588 9.000000
14.326869 18.936646 -1.277705 6.000000
5.478353 0.514963 -0.643475 30.000000
7.916255 -2.711883 -1.021517 1.000000
7.086730 -6.571580 -0.986822 9.000000
14.261293 18.994259 -1.248956 7.000000
5.481707 0.535554 -0.641172 32.000000
7.991786 -2.705071 -1.031472 1.000000
7.088048 -6.524647 -0.993864 12.000000
14.103167 18.920851 -1.216105 7.000000
5.494433 0.558104 -0.642906 31.000000
8.029202 -2.684975 -1.041023 1.000000
7.074559 -6.464490 -0.997097 13.000000
13.972438 18.882666 -1.185846 9.000000
5.512219 0.580330 -0.644252 29.000000
7.115974 -6.454634 -1.008068 10.000000
13.886249 18.910753 -1.155671 8.000000
5.515104 0.601080 -0.643861 26.000000
7.141500 -6.432493 -1.016978 14.000000
13.747196 18.859026 -1.129155 9.000000
5.527673 0.623936 -0.644619 22.000000
7.186602 -6.425563 -1.028548 11.000000
13.637687 18.853579 -1.101406 9.000000
5.525460 0.644204 -0.643648 27.000000
7.237562 -6.419034 -1.042392 16.000000
13.534805 18.849554 -1.065933 8.000000
5.542900 0.666839 -0.644972 19.000000
7.275555 -6.405242 -1.049610 10.000000
13.399985 18.799963 -1.036251 9.000000
5.550388 0.688386 -0.645144 19.000000
7.316723 -6.394037 -1.064174 12.000000
13.325841 18.841671 -1.011636 9.000000
4.600767 2.788519 -0.465946 1.000000
5.572339 0.712845 -0.648009 16.000000
7.403226 -6.421927 -1.081980 11.000000
13.200315 18.803070 -0.982980 9.000000
5.594424 0.736520 -0.649889 12.000000
11.493338 -3.467854 -1.512341 1.000000
7.420286 -6.393727 -1.086560 12.000000
13.129564 18.841806 -0.954496 6.000000
5.631444 0.760400 -0.653473 10.000000
11.539343 -3.433450 -1.520919 1.000000
7.476933 -6.394938 -1.100108 22.000000
12.981518 18.775686 -0.920795 6.000000
5.678024 0.788901 -0.656184 9.000000
11.532811 -3.385544 -1.518412 1.000000
7.548828 -6.408669 -1.115973 16.000000
12.868291 18.751511 -0.897523 1.000000
5.699626 0.815237 -0.657018 8.000000
11.511933 -3.329279 -1.522392 1.000000
7.603996 -6.403159 -1.130863 13.000000
11.484818 -3.278039 -1.521520 1.000000
7.616958 -6.371025 -1.136666 12.000000
5.861709 0.874992 -0.675257 7.000000
11.515339 -3.241153 -1.528223 1.000000
7.681531 -6.377330 -1.151634 13.000000
6.011171 0.919838 -0.688558 5.000000
11.522362 -3.197600 -1.527590 1.000000
7.738727 -6.377046 -1.163791 14.000000
20.282341 30.469656 -1.271806 7.000000
11.538824 -3.154500 -1.532399 1.000000
7.785276 -6.365370 -1.177781 9.000000
20.041822 30.348896 -1.225560 19.000000
19.458893 3.064581 -2.233940 1.000000
11.516272 -3.103017 -1.532115 1.000000
7.856763 -6.378191 -1.194174 12.000000
19.974918 30.478415 -1.183398 9.000000
19.599964 3.160461 -2.247941 3.000000
11.556344 -3.066268 -1.540111 1.000000
7.917935 -6.379847 -1.208907 10.000000
19.879843 30.542206 -1.138876 9.000000
19.280012 3.184871 -2.202269 7.000000
11.480628 -3.001180 -1.532755 89.000000
7.967911 -6.372092 -1.218381 14.000000
19.871420 30.775393 -1.106449 2.000000
19.342455 3.268059 -2.203820 7.000000
11.491550 -2.959082 -1.532755 255.000000
8.029259 -6.373044 -1.233257 13.000000
21.395800 33.391441 -1.156243 6.000000
11.521535 -2.919676 -1.539466 255.000000
21.233328 33.419678 -1.105976 10.000000
14.768546 2.606751 -1.674214 5.000000
11.522014 -2.874897 -1.542327 250.000000
21.101660 33.457047 -1.063437 10.000000
14.299312 2.580583 -1.616996 1.000000
11.531950 -2.832519 -1.546472 230.000000
5.265486 -4.060830 -0.821167 8.000000
21.009377 33.569855 -1.009353 10.000000
11.552118 -2.790483 -1.549838 251.000000
5.244530 -4.014099 -0.819110 8.000000
20.882069 33.626884 -0.967392 10.000000
11.557445 -2.746978 -1.549191 241.000000
5.219127 -3.964405 -0.818676 9.000000
11.552425 -2.701090 -1.551393 37.000000
5.201586 -3.921100 -0.817128 9.000000
13.076186 2.560706 -1.466337 1.000000
11.649152 -2.676573 -1.567235 1.000000
5.175629 -3.871865 -0.816546 9.000000
12.740656 2.543522 -1.425158 1.000000
11.654049 -2.632766 -1.566585 1.000000
5.157466 -3.828876 -0.816017 9.000000
21.610159 35.922726 -0.826899 120.000000
12.541542 2.551606 -1.401661 1.000000
11.682628 -2.592115 -1.575451 1.000000
5.163567 -3.802738 -0.820353 9.000000
21.510756 36.041710 -0.776606 44.000000
12.114481 2.510993 -1.346211 1.000000
11.759858 -2.564064 -1.584588 1.000000
5.144976 -3.760040 -0.819727 9.000000
21.774986 36.775532 -0.738544 7.000000
12.183692 2.569727 -1.352692 1.000000
11.759212 -2.518810 -1.585382 1.000000
5.146099 -3.732003 -0.823361 9.000000
12.110562 2.605124 -1.341348 1.000000
11.845869 -2.489839 -1.600063 1.000000
5.143294 -3.701279 -0.824110 9.000000
11.903461 -2.456423 -1.606615 1.000000
5.136182 -3.667662 -0.825292 9.000000
11.418676 2.539824 -1.256322 1.000000
11.936821 -2.415559 -1.612017 1.000000
5.116949 -3.643151 -0.822498 10.000000
11.293130 2.555374 -1.241487 1.000000
12.052555 -2.393029 -1.626451 1.000000
5.114746 -3.610730 -0.825366 10.000000
11.235626 2.587753 -1.228107 1.000000
12.177732 -2.371523 -1.644363 1.000000
5.123412 -3.588784 -0.829079 9.000000
11.154279 2.612105 -1.212166 1.000000
12.343122 -2.354577 -1.660999 1.000000
5.116062 -3.555756 -0.826882 9.000000
11.068051 2.634741 -1.195806 1.000000
12.648597 -2.364836 -1.703214 5.000000
5.104599 -3.518797 -0.828346 9.000000
11.034762 2.669590 -1.187248 1.000000
12.779480 -2.338557 -1.719616 5.000000
5.103732 -3.493290 -0.828518 10.000000
10.992457 2.659355 -1.170725 1.000000
12.736541 -2.335295 -1.700152 4.000000
5.111444 -3.510372 -0.821853 10.000000
11.085241 2.636788 -1.175500 2.000000
12.621722 -2.364371 -1.674627 4.000000
5.144205 -3.560688 -0.821436 10.000000
11.177360 2.615453 -1.182219 1.000000
12.390627 -2.363638 -1.638280 1.000000
5.123456 -3.574172 -0.815774 18.000000
11.278962 2.595661 -1.191951 1.000000
12.124198 -2.363294 -1.595526 1.000000
5.147525 -3.619084 -0.815012 10.000000
11.361207 2.568694 -1.203701 1.000000
11.993715 -2.385698 -1.577379 1.000000
5.147058 -3.647018 -0.810333 9.000000
11.462584 2.547491 -1.215515 1.000000
11.942223 -2.420992 -1.563115 1.000000
5.162485 -3.686445 -0.809257 10.000000
11.729365 2.561704 -1.242801 1.000000
11.856253 -2.446681 -1.550824 1.000000
5.154139 -3.725493 -0.802276 9.000000
12.078632 2.591639 -1.283152 1.000000
11.754652 -2.474951 -1.534559 1.000000
5.168972 -3.765135 -0.802192 9.000000
21.800205 36.803471 -0.619699 10.000000
12.156845 2.559633 -1.288216 1.000000
11.722913 -2.508895 -1.525114 1.000000
5.183811 -3.805103 -0.799815 9.000000
12.224146 2.527049 -1.298761 1.000000
11.718559 -2.555059 -1.521559 1.000000
5.214273 -3.856951 -0.800944 9.000000
21.625397 35.933853 -0.695443 91.000000
12.677075 2.572268 -1.343590 1.000000
11.684772 -2.596871 -1.512145 1.000000
5.224422 -3.894165 -0.800072 9.000000
12.871295 2.562595 -1.367801 1.000000
11.662094 -2.632444 -1.506092 1.000000
5.254548 -3.946660 -0.798747 10.000000
13.207829 2.576912 -1.404876 1.000000
11.642061 -2.679222 -1.498587 4.000000
5.272155 -3.990193 -0.798957 9.000000
11.599804 -2.710032 -1.490073 22.000000
5.281733 -4.027974 -0.796760 8.000000
20.932478 33.681824 -0.823760 8.000000
11.561333 -2.745770 -1.482202 34.000000
5.306962 -4.078064 -0.795707 9.000000
21.044062 33.599194 -0.871989 10.000000
11.526121 -2.788462 -1.474968 31.000000
5.320009 -4.119191 -0.793967 8.000000
21.144794 33.499516 -0.905900 10.000000
14.242046 2.559983 -1.520889 1.000000
11.545483 -2.837979 -1.472446 43.000000
21.307081 33.484093 -0.956104 10.000000
14.823140 2.613720 -1.584665 5.000000
11.512432 -2.870372 -1.465232 29.000000
8.143590 -6.362470 -1.210352 14.000000
21.477240 33.492802 -1.000178 5.000000
20.575167 3.550250 -2.201863 113.000000
11.511441 -2.917119 -1.462312 23.000000
8.093725 -6.371421 -1.197292 18.000000
25.266380 39.100754 -1.227186 3.000000
20.599060 3.469280 -2.202912 131.000000
11.510237 -2.966036 -1.455236 10.000000
8.012921 -6.355518 -1.177923 18.000000
25.163404 38.630051 -1.255560 13.000000
20.920954 3.440936 -2.239648 38.000000
11.513937 -3.012035 -1.454982 8.000000
7.955447 -6.357573 -1.163888 13.000000
20.064556 30.568617 -1.034137 9.000000
21.108585 3.399944 -2.262289 7.000000
11.518236 -3.056157 -1.452643 8.000000
7.929010 -6.384207 -1.154437 14.000000
20.063005 30.334898 -1.066711 11.000000
20.737398 3.262224 -2.224916 7.000000
11.517031 -3.101065 -1.449689 6.000000
7.856020 -6.373039 -1.140051 18.000000
29.778999 44.668610 -1.640224 145.000000
20.905708 3.210226 -2.249163 6.000000
11.506076 -3.143389 -1.445526 5.000000
7.798750 -6.374116 -1.126222 12.000000
23.889606 35.564892 -1.353900 6.000000
11.513540 -3.192987 -1.443762 4.000000
7.753073 -6.384325 -1.114124 18.000000
23.965185 35.409740 -1.395991 4.000000
11.526137 -3.242022 -1.442581 7.000000
7.703740 -6.391226 -1.099784 16.000000
24.197039 35.498142 -1.447670 3.000000
5.905163 0.815207 -0.636013 5.000000
11.500340 -3.280298 -1.436613 8.000000
7.631417 -6.378592 -1.084005 14.000000
5.789878 0.776649 -0.624301 7.000000
11.511984 -3.331472 -1.435411 5.000000
7.593498 -6.394319 -1.073176 10.000000
5.762999 0.751551 -0.622128 7.000000
11.514948 -3.378117 -1.428818 1.000000
7.552884 -6.405312 -1.061847 18.000000
5.731082 0.726037 -0.619411 9.000000
11.522003 -3.426101 -1.426986 5.000000
7.481055 -6.391684 -1.044614 10.000000
4.714652 2.827252 -0.440378 1.000000
5.709262 0.701009 -0.615742 9.000000
11.509845 -3.468452 -1.422790 4.000000
7.443192 -6.406677 -1.033933 17.000000
5.687003 0.677127 -0.614080 10.000000
11.539893 -3.525897 -1.421762 2.000000
7.397796 -6.414954 -1.022247 10.000000
13.377967 18.741377 -0.928856 3.000000
4.975029 2.934026 -0.471810 1.000000
5.703942 0.657951 -0.618686 9.000000
11.526120 -3.572340 -1.417549 1.000000
7.352297 -6.422863 -1.012317 10.000000
13.635717 18.955158 -0.962333 6.000000
5.681506 0.634271 -0.617005 10.000000
11.519420 -3.612175 -1.413919 1.000000
7.344303 -6.463491 -1.005842 15.000000
13.692407 18.894482 -0.986151 6.000000
5.664342 0.610344 -0.612871 8.000000
11.535441 -3.663690 -1.408959 3.000000
7.325069 -6.494362 -0.996103 10.000000
13.801233 18.919277 -1.010177 7.000000
5.661277 0.589031 -0.615316 8.000000
11.554618 -3.718682 -1.410888 23.000000
7.350096 -6.564823 -0.994083 8.000000
13.914806 18.915024 -1.041667 8.000000
5.653611 0.567295 -0.613250 8.000000
14.006855 18.901567 -1.068298 8.000000
5.650599 0.546082 -0.613704 8.000000
14.104738 18.902294 -1.091602 7.000000
5.647521 0.525893 -0.613167 8.000000
14.295737 19.019386 -1.134534 7.000000
5.619558 0.500544 -0.612896 8.000000
14.328444 18.918133 -1.156529 7.000000
5.611343 0.479089 -0.612799 7.000000
7.876918 -2.696872 -0.951549 1.000000
14.506422 19.001091 -1.185909 7.000000
5.588370 0.455520 -0.610095 8.000000
8.125630 -2.815340 -0.978273 1.000000
14.556676 18.929552 -1.209677 7.000000
5.560163 0.432712 -0.607823 8.000000
8.058825 -2.826898 -0.968510 1.000000
14.713352 19.002558 -1.242687 6.000000
5.556716 0.413911 -0.606309 9.000000
