VERSION .7
FIELDS x y z intensity
SIZE 4 4 4 4
TYPE F F F F
COUNT 1 1 1 1
WIDTH 1218
HEIGHT 1
VIEWPOINT 0 0 0 1 0 0 0
POINTS 1218
DATA ascii
7.302496 -7.312700 -0.101011 11.000000
49.906658 60.670959 0.904984 1.000000
93.804123 47.260643 0.788309 32.000000
30.057959 -11.574299 -0.196758 9.000000
73.602791 37.405460 0.662867 16.000000
30.001989 -11.426657 -0.207324 88.000000
73.349411 37.647942 0.705113 187.000000
30.270878 -11.408234 -0.220198 9.000000
7.352632 -7.197716 -0.125713 35.000000
73.414780 37.989605 0.750233 203.000000
30.317102 -11.298927 -0.231526 24.000000
7.317788 -7.118723 -0.133645 31.000000
73.536057 38.427383 0.796491 101.000000
30.292555 -11.163502 -0.242294 44.000000
7.400200 -7.141299 -0.141806 31.000000
49.966312 63.064404 1.292054 19.000000
94.419266 49.760571 1.117706 22.000000
30.394295 -11.074635 -0.248428 66.000000
7.390149 -7.079473 -0.148261 35.000000
49.832310 63.302837 1.349984 20.000000
94.527420 50.261124 1.139847 28.000000
100.893433 7.196733 0.211848 6.000000
30.448622 -10.968181 -0.271137 38.000000
7.435217 -7.075514 -0.157653 33.000000
49.399162 63.228043 1.414560 1.000000
30.658089 -10.916855 -0.284005 9.000000
20.940865 27.006533 0.632311 8.000000
95.395340 51.623108 1.268446 24.000000
20.806189 27.046669 0.661164 8.000000
95.148132 51.919540 1.324323 28.000000
93.887939 7.718993 0.230186 9.000000
34.490746 -11.983955 -0.344141 6.000000
20.673191 27.078571 0.689829 8.000000
95.420845 52.523140 1.387829 16.000000
37.149612 -12.769884 -0.383959 8.000000
20.647989 27.222446 0.727634 8.000000
64.834488 35.967937 1.009415 52.000000
37.129890 -12.611127 -0.383275 8.000000
8.107078 -7.439187 -0.209347 195.000000
20.565199 27.340549 0.758447 6.000000
64.510590 36.127663 1.019529 162.000000
37.267838 -12.498583 -0.411646 8.000000
7.996229 -7.278560 -0.217056 26.000000
64.194031 36.230545 1.055022 156.000000
83.721771 8.120484 0.234893 173.000000
51.390911 69.298943 2.078381 1.000000
83.696289 8.427773 0.278952 255.000000
40.399582 -13.235844 -0.460048 8.000000
16.501368 -14.805830 -0.472137 25.000000
51.248062 69.638329 2.158411 1.000000
33.964844 19.491230 0.615177 7.000000
83.719536 8.740190 0.279134 255.000000
39.971977 -12.933714 -0.469302 8.000000
8.646366 -7.706339 -0.254747 5.000000
51.097889 69.944405 2.237996 1.000000
33.789047 19.555323 0.633734 1.000000
83.699989 9.018832 0.293860 120.000000
40.833332 -13.047286 -0.493816 8.000000
16.525198 -14.620261 -0.500709 24.000000
67.349701 39.292938 1.320199 26.000000
40.260876 -12.701930 -0.501065 8.000000
16.574650 -14.556061 -0.515996 29.000000
66.825447 39.316086 1.353347 23.000000
100.065781 -31.167021 -1.280525 1.000000
16.601168 -14.471920 -0.534397 21.000000
27.882772 39.046944 1.373736 9.000000
66.589989 39.506813 1.392055 17.000000
73.488441 8.723944 0.284158 1.000000
99.858719 -30.701475 -1.312900 1.000000
16.589558 -14.355128 -0.547651 24.000000
27.346754 38.580360 1.395256 14.000000
66.186714 39.596245 1.427046 22.000000
73.202820 8.962239 0.296051 1.000000
80.063179 -24.294531 -1.080669 26.000000
16.650644 -14.306651 -0.563351 27.000000
27.213085 38.691586 1.436979 14.000000
65.721863 39.630322 1.473595 19.000000
73.521629 9.274905 0.310409 1.000000
16.687454 -14.232295 -0.578150 30.000000
27.150440 38.904774 1.482632 1.000000
65.379013 39.751060 1.509244 22.000000
16.720119 -14.154626 -0.592785 30.000000
27.141628 39.182877 1.539575 6.000000
65.070251 39.890724 1.545460 18.000000
84.668343 -24.678574 -1.216072 18.000000
16.752352 -14.076834 -0.611205 35.000000
27.101633 39.433121 1.595655 7.000000
64.827370 40.053833 1.609531 18.000000
85.272354 -24.515894 -1.223448 72.000000
16.765285 -13.983188 -0.617429 36.000000
64.343971 40.081760 1.654114 14.000000
85.356400 -24.201704 -1.254349 36.000000
16.789139 -13.899058 -0.631656 24.000000
26.466908 39.106159 1.665484 1.000000
64.047729 40.223812 1.689897 6.000000
106.332054 15.379519 0.562552 16.000000
44.378365 -12.407362 -0.667575 75.000000
16.839537 -13.837074 -0.650676 32.000000
26.346136 39.221970 1.707775 14.000000
63.678089 40.302299 1.723324 11.000000
44.596935 -12.292418 -0.678256 125.000000
16.858799 -13.749701 -0.664671 29.000000
26.240158 39.375225 1.751597 14.000000
63.406715 40.456795 1.772519 1.000000
44.808193 -12.182514 -0.697030 125.000000
16.881527 -13.665512 -0.678765 32.000000
63.017590 40.534279 1.805037 1.000000
44.992466 -12.055695 -0.707336 117.000000
16.920961 -13.599939 -0.693609 30.000000
62.917862 40.796913 1.858833 4.000000
45.229458 -11.941693 -0.726702 110.000000
16.923431 -13.500128 -0.706806 25.000000
25.917568 39.803009 1.891085 13.000000
16.968489 -13.434599 -0.721753 34.000000
25.786499 39.920940 1.950343 8.000000
61.916637 40.779999 1.941413 9.000000
17.025276 -13.378335 -0.729644 32.000000
61.543716 40.843113 1.985782 1.000000
82.993301 -20.938894 -1.374503 27.000000
17.030443 -13.281723 -0.742870 34.000000
21.381109 33.626339 1.711940 8.000000
61.234867 40.962227 2.019250 11.000000
44.157078 -10.968675 -0.738585 6.000000
9.270334 -7.175272 -0.411417 16.000000
21.212152 33.619225 1.742553 8.000000
61.282047 41.319702 2.077426 12.000000
9.292377 -7.138026 -0.419422 25.000000
21.135340 33.771126 1.795169 9.000000
60.970554 41.419991 2.136131 7.000000
83.251831 -20.033106 -1.419900 28.000000
9.358039 -7.134079 -0.427372 15.000000
21.036385 33.849014 1.823668 9.000000
60.627396 41.512444 2.180766 1.000000
83.407158 -19.747362 -1.436269 27.000000
17.161947 -12.984188 -0.796634 28.000000
21.021236 34.102818 1.875220 5.000000
29.303225 20.222488 1.075354 8.000000
38.235882 7.231658 0.312426 9.000000
83.454140 -19.435741 -1.465761 34.000000
17.184999 -12.902863 -0.810527 30.000000
29.182274 20.289762 1.110763 8.000000
38.260319 7.395481 0.340073 9.000000
83.481201 -19.119749 -1.450044 34.000000
17.199896 -12.815738 -0.816507 30.000000
29.066305 20.367569 1.127785 7.000000
38.174034 7.524049 0.346340 17.000000
83.589493 -18.822376 -1.465675 27.000000
17.218168 -12.731475 -0.830126 25.000000
24.168886 40.160244 2.333424 14.000000
60.561485 42.768932 2.407692 15.000000
38.197834 7.660416 0.353585 9.000000
83.680229 -18.551460 -1.496107 37.000000
17.264246 -12.667937 -0.845075 27.000000
20.839041 34.916237 2.074085 10.000000
60.568897 43.091824 2.478890 7.000000
38.335861 7.834364 0.375615 9.000000
17.310320 -12.604400 -0.852550 26.000000
20.741545 35.030163 2.112160 21.000000
33.744801 7.025073 0.342915 39.000000
36.407539 -7.778519 -0.656338 5.000000
17.315418 -12.511258 -0.865475 34.000000
33.710232 7.140737 0.348830 255.000000
17.352543 -12.441533 -0.879977 26.000000
23.835094 40.919933 2.564688 8.000000
60.498352 44.035339 2.665340 3.000000
33.708092 7.269475 0.367138 255.000000
76.246925 -15.706728 -1.372432 3.000000
17.393707 -12.374776 -0.887222 24.000000
60.125519 44.101994 2.708142 15.000000
33.671322 7.390800 0.379065 255.000000
17.422110 -12.299055 -0.901280 25.000000
19.144043 33.413860 2.159757 9.000000
37.184174 27.474689 1.711460 8.000000
33.619545 7.508698 0.384802 255.000000
84.223785 -16.737871 -1.558849 32.000000
17.462591 -12.231980 -0.912232 31.000000
59.993267 44.668762 2.834165 9.000000
33.611095 7.636254 0.403073 255.000000
84.338806 -16.439636 -1.544851 27.000000
17.466024 -12.139203 -0.917520 24.000000
19.186235 34.050079 2.280918 11.000000
59.782604 44.837120 2.909960 1.000000
33.564472 7.748970 0.426888 255.000000
84.413498 -16.133276 -1.530121 27.000000
17.505890 -12.071996 -0.928439 10.000000
19.341444 34.607437 2.348433 10.000000
59.791611 45.187241 2.970844 6.000000
33.521168 7.868491 0.432712 255.000000
85.700226 -16.053844 -1.567590 23.000000
9.832312 -6.727284 -0.524320 7.000000
19.249146 34.740677 2.408326 5.000000
59.769711 45.499355 3.069551 17.000000
9.844352 -6.682682 -0.527814 10.000000
19.124765 34.516193 2.427328 5.000000
59.675259 45.427456 3.156486 9.000000
9.853070 -6.688600 -0.515786 7.000000
19.347128 34.617607 2.404694 16.000000
59.718334 45.131859 3.137324 1.000000
33.539330 7.872755 0.529170 255.000000
85.735550 -16.075951 -1.339857 24.000000
9.849543 -6.739074 -0.504371 6.000000
19.213856 34.099098 2.345897 17.000000
59.921051 44.940956 3.086918 14.000000
33.582748 7.753189 0.517369 255.000000
84.316116 -16.129917 -1.303604 27.000000
17.491001 -12.061728 -0.883069 14.000000
59.990047 44.650089 3.055873 6.000000
33.610851 7.630029 0.523385 255.000000
84.286522 -16.444715 -1.259095 30.000000
17.455505 -12.131892 -0.864934 26.000000
19.126863 33.383873 2.238663 8.000000
37.285709 27.529596 1.861513 6.000000
33.643562 7.507897 0.517444 255.000000
84.270035 -16.762352 -1.244758 32.000000
17.444147 -12.219061 -0.851692 27.000000
19.251545 33.331219 2.212663 5.000000
60.245678 44.173962 2.987415 7.000000
33.680622 7.386680 0.517595 255.000000
76.653114 -15.539531 -1.092122 13.000000
17.420256 -12.297748 -0.834083 30.000000
60.344627 43.923447 2.932512 1.000000
33.722221 7.266363 0.511799 255.000000
76.346107 -15.768834 -1.074955 21.000000
17.367393 -12.356055 -0.818812 26.000000
24.003756 40.880711 2.633857 7.000000
33.723011 7.143444 0.505412 224.000000
76.258820 -16.042454 -1.047340 17.000000
17.338692 -12.431602 -0.804685 25.000000
20.753523 35.050392 2.234583 16.000000
60.537487 43.388542 2.848236 1.000000
33.822384 7.035067 0.506511 24.000000
36.523411 -7.823274 -0.482443 5.000000
17.305723 -12.504253 -0.786619 26.000000
60.591679 43.108032 2.817694 18.000000
85.119270 17.379604 1.288918 8.000000
76.335594 -16.643850 -0.968211 17.000000
17.304760 -12.600351 -0.769964 27.000000
60.725971 42.869213 2.777637 11.000000
85.609100 17.153006 1.280132 6.000000
83.663971 -18.563175 -1.047058 29.000000
17.262917 -12.666962 -0.755196 27.000000
29.187777 20.445093 1.306715 1.000000
85.838402 16.871944 1.267356 16.000000
83.566795 -18.863243 -0.986883 40.000000
17.228951 -12.739449 -0.737026 26.000000
24.154089 39.493206 2.377556 10.000000
29.119848 20.246361 1.288105 11.000000
85.089661 16.401089 1.255405 6.000000
83.526505 -19.176157 -0.972272 27.000000
17.190567 -12.808787 -0.722403 31.000000
21.004387 34.075481 2.020779 7.000000
29.235544 20.168251 1.271323 8.000000
38.218460 7.228362 0.556706 5.000000
83.426765 -19.475424 -0.942027 27.000000
17.167881 -12.890011 -0.708426 29.000000
21.040440 33.855541 1.977423 8.000000
29.281750 20.049631 1.245475 11.000000
83.286880 -19.764942 -0.926317 27.000000
17.152794 -12.977263 -0.694730 29.000000
21.156925 33.779396 1.935437 8.000000
29.326818 19.923004 1.219496 10.000000
87.299301 15.849232 1.238934 1.000000
83.189735 -20.064249 -0.911111 14.000000
9.367434 -7.141241 -0.374287 23.000000
21.260153 33.669254 1.898748 9.000000
29.292080 19.742884 1.208862 8.000000
44.306644 -10.858160 -0.453837 16.000000
9.278090 -7.127050 -0.359495 28.000000
21.386301 33.608585 1.871652 10.000000
29.328285 19.618755 1.182860 7.000000
44.208405 -11.006004 -0.445289 8.000000
9.248149 -7.158101 -0.351177 12.000000
21.620960 33.703979 1.839342 6.000000
82.891212 -20.943916 -0.805807 32.000000
17.052896 -13.299233 -0.634280 29.000000
25.690220 39.741447 2.132326 9.000000
82.925674 -21.276268 -0.762064 52.000000
17.003731 -13.371007 -0.615550 31.000000
25.994684 39.890987 2.112141 5.000000
45.369381 -11.817839 -0.400961 131.000000
16.957285 -13.430543 -0.600449 26.000000
26.082712 39.752480 2.059250 11.000000
45.160816 -11.923570 -0.391312 188.000000
16.932516 -13.502542 -0.586023 26.000000
26.165836 39.562263 2.012882 8.000000
44.967846 -12.065923 -0.373804 169.000000
16.906609 -13.583549 -0.571694 30.000000
26.154980 39.217735 1.959239 14.000000
63.298504 40.387749 2.267843 2.000000
44.740120 -12.180780 -0.356093 171.000000
16.876440 -13.661395 -0.557195 24.000000
26.397255 39.298073 1.926232 5.000000
63.789173 40.372604 2.240543 1.000000
106.270081 15.749461 1.406346 1.000000
44.526558 -12.298108 -0.346686 151.000000
16.861414 -13.751833 -0.543159 26.000000
64.034729 40.200062 2.217563 1.000000
106.326843 15.359819 1.425096 1.000000
44.332153 -12.419472 -0.313382 113.000000
16.842154 -13.839224 -0.525135 33.000000
64.362938 40.093575 2.157840 1.000000
85.379128 -24.256456 -0.604165 28.000000
16.818480 -13.923348 -0.514545 31.000000
64.688362 39.967945 2.150542 8.000000
85.226448 -24.518801 -0.557221 28.000000
16.763834 -13.981977 -0.495378 29.000000
65.168083 39.935051 2.108209 1.000000
16.743416 -14.069324 -0.477201 30.000000
27.016947 38.713486 1.722809 5.000000
65.530090 39.842918 2.075222 2.000000
16.733955 -14.166340 -0.463094 33.000000
27.171179 38.632004 1.674080 28.000000
66.053276 39.830162 2.046738 3.000000
16.678358 -14.224539 -0.447685 28.000000
27.368328 38.610794 1.636146 13.000000
66.371315 39.690952 2.011551 4.000000
16.646597 -14.308226 -0.432973 30.000000
66.414352 39.386936 1.954525 1.000000
16.625746 -14.386442 -0.418314 32.000000
66.961578 39.396175 1.925866 1.000000
40.408043 -12.608917 -0.184699 8.000000
16.568130 -14.453300 -0.399128 25.000000
67.244545 39.231590 1.889068 6.000000
39.972889 -12.626417 -0.168277 8.000000
16.537781 -14.533911 -0.384302 24.000000
33.912582 19.618917 0.943821 7.000000
83.695831 9.003607 1.028488 136.000000
39.202560 -12.541296 -0.143675 8.000000
8.664227 -7.665460 -0.191829 1.000000
83.718491 8.695770 1.013676 250.000000
36.848831 -11.923159 -0.121674 10.000000
16.507254 -14.712595 -0.351227 28.000000
83.720131 8.385896 0.998629 249.000000
34.544018 -11.330778 -0.101522 17.000000
8.646548 -7.760828 -0.176436 7.000000
64.391174 36.326996 1.651921 1.000000
83.805038 8.084270 0.999282 52.000000
34.520523 -11.450001 -0.088869 32.000000
8.662657 -7.832805 -0.167155 16.000000
20.607944 27.377478 0.951173 8.000000
64.616249 36.142406 1.615501 1.000000
34.493263 -11.594864 -0.076215 20.000000
20.639172 27.210821 0.918179 8.000000
34.279484 -11.649663 -0.063190 25.000000
20.707197 27.103493 0.887204 8.000000
34.160931 -11.749214 -0.050440 31.000000
20.809910 27.031979 0.857565 8.000000
95.131905 51.867596 2.193991 29.000000
34.344315 -11.953235 -0.038081 7.000000
20.938196 27.003090 0.835092 8.000000
94.851143 51.264427 2.164342 20.000000
94.837265 50.829987 2.066029 21.000000
30.567862 -10.890738 -0.011327 81.000000
7.468894 -7.055577 -0.100425 255.000000
94.215973 50.053345 1.992602 1.000000
30.383833 -10.944843 0.000000 37.000000
49.930260 62.973728 1.739563 1.000000
94.505859 49.764065 1.938919 29.000000
30.569010 -11.138295 0.011357 36.000000
94.316231 49.223522 1.875592 1.000000
102.842026 6.524335 1.133126 10.000000
28.464716 -10.501187 0.026477 8.000000
7.470134 -7.213825 -0.077938 23.000000
94.159767 48.724419 1.813558 18.000000
29.957094 -11.164756 0.039059 30.000000
7.473620 -7.267778 -0.070960 37.000000
29.949444 -11.299034 0.050281 75.000000
93.878464 47.709702 1.709433 11.000000
30.019255 -11.439232 0.061676 13.000000
50.000828 60.785435 1.373853 22.000000
93.731468 47.203522 1.685273 27.000000
29.967747 -11.545568 0.084077 44.000000
50.224026 60.602665 1.305167 1.000000
93.954582 46.905468 1.631333 33.000000
27.833279 -10.840550 0.088626 7.000000
7.180398 -7.187922 -0.035465 53.000000
94.646935 46.818542 1.548195 23.000000
27.576578 -10.851584 0.093101 57.000000
7.203306 -7.263907 -0.030353 49.000000
94.981697 46.592735 1.514198 24.000000
27.564463 -10.963659 0.103550 39.000000
7.169634 -7.283149 -0.021405 69.000000
94.939293 46.100044 1.455288 21.000000
28.397356 33.296074 0.580504 1.000000
93.023071 44.768982 1.405489 26.000000
27.464689 -11.157838 0.139698 47.000000
7.193956 -7.413223 -0.003606 39.000000
28.447100 33.096169 0.540828 1.000000
93.322578 44.492592 1.353399 6.000000
26.988781 -11.079913 0.147667 57.000000
7.149391 -7.421536 0.005396 31.000000
59.529259 28.139353 0.815982 6.000000
27.091160 -11.238148 0.148452 9.000000
7.146329 -7.472982 0.010828 48.000000
94.646591 44.315559 1.240380 8.000000
26.883705 -11.267756 0.162803 6.000000
7.111997 -7.491862 0.019832 20.000000
26.719778 -11.308866 0.182305 32.000000
7.037769 -7.465688 0.030442 23.000000
92.396439 42.419487 1.135697 29.000000
6.905270 -7.384297 0.038820 37.000000
92.228851 41.933949 1.061001 29.000000
7.156372 -7.703870 0.044045 1.000000
92.026024 41.474022 1.004222 18.000000
39.768997 -17.349857 0.318062 22.000000
18.336346 20.271889 0.176520 8.000000
92.173820 41.096272 0.968795 25.000000
39.590652 -17.445053 0.332248 10.000000
7.013208 -7.658940 0.061625 23.000000
18.423763 20.233257 0.152834 16.000000
92.058525 40.679440 0.913458 1.000000
39.497379 -17.568848 0.354614 9.000000
6.998510 -7.699358 0.069008 5.000000
18.369200 20.039440 0.132850 4.000000
91.588654 40.109318 0.872566 32.000000
39.270004 -17.623932 0.368121 8.000000
6.952793 -7.700210 0.077863 37.000000
91.551689 39.693859 0.853405 33.000000
39.027298 -17.687143 0.396367 10.000000
6.852382 -7.642470 0.087786 23.000000
60.327374 64.874557 0.293775 16.000000
91.465103 39.277603 0.781817 32.000000
38.862125 -17.784267 0.402809 8.000000
6.820971 -7.663765 0.093116 22.000000
60.995605 65.112953 0.218005 7.000000
91.516556 38.865326 0.728853 32.000000
38.637634 -17.853094 0.423446 8.000000
6.806021 -7.703637 0.102268 12.000000
25.661707 27.193481 0.058732 9.000000
91.405518 38.460892 0.692332 31.000000
76.971069 -1.504798 0.806223 101.000000
38.268234 -17.852901 0.434853 8.000000
6.873278 -7.837471 0.112807 12.000000
25.749609 27.096514 0.032620 9.000000
91.273285 37.974712 0.638406 30.000000
76.940041 -1.786321 0.805961 239.000000
37.359573 -17.588045 0.446846 8.000000
6.796573 -7.804798 0.119221 38.000000
25.803808 26.955009 -0.006513 9.000000
91.314972 37.600029 0.603256 33.000000
76.907990 -2.067636 0.805699 31.000000
35.786419 -17.007952 0.449522 8.000000
25.947538 26.907030 -0.039144 8.000000
91.184715 37.193230 0.567201 30.000000
76.784958 -2.345993 0.804495 244.000000
34.168537 -16.392822 0.443181 7.000000
6.742290 -7.858033 0.137350 18.000000
26.368708 27.153440 -0.066061 2.000000
90.914436 36.676456 0.513308 32.000000
76.795830 -2.628092 0.804704 97.000000
32.749088 -15.859744 0.444577 7.000000
6.516961 -7.649284 0.142074 255.000000
90.848885 36.263412 0.443892 30.000000
82.676277 -3.132750 0.851995 15.000000
31.468925 -15.382430 0.434075 7.000000
6.443635 -7.619616 0.146309 215.000000
56.408241 57.241348 -0.266500 1.000000
90.713043 35.860901 0.408594 23.000000
30.217606 -14.901674 0.435174 7.000000
6.436204 -7.664934 0.155483 83.000000
56.490665 56.906292 -0.335877 12.000000
90.573914 35.422604 0.373431 20.000000
77.737000 -3.502825 0.801333 25.000000
29.146631 -14.506577 0.431879 7.000000
6.603225 -7.922625 0.169221 255.000000
56.017155 56.036716 -0.387214 6.000000
63.559002 24.589123 0.225994 141.000000
77.625076 -3.755759 0.800303 34.000000
30.340742 30.129658 -0.246279 11.000000
63.756172 24.397129 0.202546 198.000000
77.525764 -4.035818 0.812977 36.000000
26.216343 -13.288805 0.420678 31.000000
30.490005 30.056734 -0.276485 11.000000
64.093063 24.257111 0.179411 188.000000
77.485497 -4.318546 0.812715 35.000000
26.131866 -13.355090 0.435400 23.000000
6.333612 -7.768544 0.188956 58.000000
64.415283 24.096703 0.144042 54.000000
77.404266 -4.598660 0.812034 33.000000
25.307114 -13.056382 0.437404 9.000000
90.100639 33.364998 0.134153 14.000000
77.242325 -4.873210 0.797008 34.000000
24.425196 -12.714952 0.437386 8.000000
6.318370 -7.864087 0.206027 33.000000
89.985008 32.912029 0.100337 23.000000
77.164085 -5.152287 0.796390 38.000000
23.625877 -12.409123 0.433201 10.000000
57.827156 55.376804 -0.796553 3.000000
90.471817 32.714626 0.067164 1.000000
77.108818 -5.446072 0.796030 39.000000
22.913008 -12.142055 0.434525 10.000000
57.815521 54.960846 -0.849309 18.000000
90.942314 32.544155 0.033716 13.000000
76.995461 -5.694727 0.808526 38.000000
22.200222 -11.863774 0.426185 10.000000
56.692539 53.499119 -0.884352 16.000000
77.051727 -6.009980 0.809364 36.000000
21.601931 -11.646035 0.428369 10.000000
56.880360 53.283592 -0.952254 12.000000
92.363121 32.290825 -0.034154 5.000000
77.021271 -6.264637 0.822747 42.000000
21.018721 -11.431241 0.430164 10.000000
6.355925 -8.208790 0.257352 80.000000
86.361504 80.336372 -1.523463 22.000000
92.783295 32.056568 -0.068532 8.000000
76.997787 -6.546893 0.822747 39.000000
20.481215 -11.236380 0.432239 9.000000
6.255607 -8.140692 0.263462 22.000000
86.775360 80.130096 -1.649283 20.000000
77.013260 -6.832607 0.809678 38.000000
19.925550 -11.022194 0.429273 9.000000
86.960716 79.712746 -1.729615 32.000000
93.910294 31.695568 -0.172988 17.000000
19.457003 -10.856332 0.431704 9.000000
6.537889 -8.635238 0.293079 27.000000
87.299217 79.436172 -1.833570 36.000000
94.585472 31.537756 -0.208822 21.000000
18.981232 -10.682284 0.433422 9.000000
6.307856 -8.395170 0.295150 25.000000
95.374725 31.412960 -0.245360 9.000000
75.277969 -7.500471 0.805446 17.000000
18.398323 -10.443210 0.432065 9.000000
6.335133 -8.493043 0.307065 32.000000
95.745888 31.146681 -0.281165 26.000000
75.324432 -7.784023 0.819461 22.000000
18.187302 -10.399110 0.438848 14.000000
6.265145 -8.463767 0.314372 36.000000
58.395821 51.992226 -1.405717 9.000000
73.292091 -7.845603 0.784792 7.000000
18.132353 -10.464500 0.442188 20.000000
6.268018 -8.529752 0.321555 28.000000
89.925316 79.531219 -2.242180 32.000000
96.848221 30.722065 -0.390134 7.000000
75.551659 -8.340981 0.809279 36.000000
18.114635 -10.534506 0.453583 26.000000
6.118729 -8.390872 0.326358 10.000000
75.631676 -8.657258 0.823790 33.000000
18.086781 -10.611452 0.464887 22.000000
6.163935 -8.518271 0.339617 6.000000
58.844753 51.243183 -1.566358 10.000000
98.145325 30.343515 -0.466172 12.000000
75.668800 -8.942601 0.837846 33.000000
18.086203 -10.700411 0.480556 24.000000
6.198127 -8.628784 0.352440 7.000000
27.973669 24.197390 -0.768309 6.000000
98.638306 30.100292 -0.503986 22.000000
75.792587 -9.212180 0.839550 33.000000
18.041885 -10.755122 0.487659 20.000000
6.134374 -8.606427 0.359839 17.000000
99.389221 29.931681 -0.561609 18.000000
75.892410 -9.506708 0.827685 32.000000
18.002197 -10.821089 0.494991 16.000000
6.135895 -8.672453 0.369128 17.000000
75.952827 -9.783683 0.842079 33.000000
17.989742 -10.899267 0.506711 20.000000
6.066556 -8.641451 0.376084 20.000000
69.699905 20.434511 -0.443699 1.000000
76.175468 -10.123384 0.858405 32.000000
17.966507 -10.975412 0.518216 27.000000
6.027596 -8.650003 0.384751 208.000000
69.597755 20.141008 -0.467891 1.000000
76.152557 -10.404524 0.871987 30.000000
17.909227 -11.039385 0.532535 17.000000
6.038281 -8.733406 0.396752 31.000000
55.724590 46.460941 -1.811154 1.000000
76.216972 -10.670903 0.846257 30.000000
17.887117 -11.103453 0.536589 12.000000
6.013255 -8.762439 0.404545 37.000000
55.835762 46.207779 -1.859881 1.000000
60.024250 -8.628240 0.677397 2.000000
17.854536 -11.174091 0.547872 11.000000
6.054006 -8.891500 0.418877 19.000000
58.757294 48.263786 -2.017692 28.000000
103.524384 28.729313 -0.825072 25.000000
76.368874 -11.263556 0.875787 4.000000
17.838495 -11.255252 0.563378 10.000000
6.056335 -8.962007 0.428763 25.000000
76.539497 -11.575511 0.891737 26.000000
17.822174 -11.336493 0.575238 16.000000
5.619793 -8.382082 0.410615 8.000000
76.572884 -11.854109 0.879077 27.000000
17.757076 -11.382343 0.581784 16.000000
5.642882 -8.480370 0.423367 12.000000
76.662399 -12.155849 0.867062 19.000000
17.752764 -11.471597 0.594092 20.000000
6.206058 -9.401266 0.476080 20.000000
4.978790 3.944726 -0.191855 1.000000
17.706234 -11.533744 0.601328 10.000000
6.116594 -9.340019 0.481601 21.000000
17.682314 -11.606276 0.612972 14.000000
5.629102 -8.661436 0.456433 8.000000
79.323669 -13.473564 0.912827 8.000000
17.639296 -11.670768 0.627738 10.000000
5.491589 -8.518012 0.454901 6.000000
39.028442 -6.776463 0.456322 9.000000
9.953951 -6.638460 0.361370 1.000000
84.671989 -15.021399 1.005636 27.000000
9.930613 -6.673095 0.365546 1.000000
6.083728 -9.579030 0.529188 4.000000
84.584778 -15.310665 0.990224 34.000000
9.914257 -6.714981 0.370031 1.000000
6.044043 -9.597777 0.536873 1.000000
4.664515 3.532867 -0.205358 1.000000
84.479095 -15.611526 0.974654 40.000000
17.715294 -12.093618 0.666588 10.000000
14.839052 -23.747448 1.349954 37.000000
32.213253 7.555550 -0.410035 4.000000
84.455528 -15.927507 0.990051 35.000000
17.680819 -12.160779 0.681880 22.000000
14.738133 -23.779442 1.373165 36.000000
4.609890 3.438610 -0.211888 1.000000
32.167439 7.420525 -0.426391 10.000000
84.323105 -16.222809 0.974200 44.000000
17.619501 -12.213975 0.688728 17.000000
13.893293 -22.592060 1.320351 37.000000
4.638436 3.433515 -0.215646 1.000000
33.476582 7.593405 -0.455357 3.000000
84.154808 -16.510517 1.002888 36.000000
17.596949 -12.289505 0.700769 17.000000
5.509826 -9.033632 0.537879 5.000000
4.623034 3.412133 -0.217721 8.000000
33.664982 7.506509 -0.475605 33.000000
84.103706 -16.820845 0.988035 26.000000
17.559759 -12.359529 0.708591 21.000000
13.590580 -22.458403 1.348162 10.000000
4.623230 3.386172 -0.223155 8.000000
31.797182 6.967795 -0.465901 16.000000
36.453159 -7.429731 0.422068 10.000000
17.583429 -12.472813 0.718920 20.000000
13.561521 -22.596952 1.376546 9.000000
4.603184 3.345637 -0.224578 10.000000
33.816429 7.280488 -0.507171 52.000000
36.396244 -7.557176 0.428216 75.000000
17.567831 -12.554157 0.735161 17.000000
13.487175 -22.651905 1.395473 10.000000
33.859509 7.172358 -0.537668 34.000000
36.424934 -7.689218 0.415854 40.000000
17.533655 -12.627072 0.743214 18.000000
13.469438 -22.811909 1.425464 25.000000
33.838799 7.026158 -0.554987 20.000000
36.437054 -7.824732 0.409797 39.000000
17.373808 -12.608917 0.745894 20.000000
13.427073 -22.922543 1.448040 22.000000
33.775661 6.884015 -0.583623 3.000000
36.442520 -7.965745 0.390650 30.000000
17.281490 -12.634250 0.736338 20.000000
36.593151 -8.005363 0.326896 8.000000
17.280100 -12.637860 0.706447 22.000000
36.554081 -7.856537 0.293657 10.000000
17.379663 -12.613167 0.678608 19.000000
13.415710 -22.903147 1.400355 13.000000
4.616959 3.342121 -0.246859 2.000000
31.870424 6.733582 -0.625453 3.000000
36.484932 -7.701884 0.273348 8.000000
17.523392 -12.619681 0.671092 17.000000
13.494373 -22.835930 1.362267 13.000000
4.600747 3.356152 -0.243661 7.000000
31.669588 6.812500 -0.621997 9.000000
36.664822 -7.599593 0.254878 26.000000
17.547569 -12.544306 0.647727 28.000000
5.920233 -9.935226 0.581829 3.000000
4.612633 3.390795 -0.242945 7.000000
31.522108 6.901753 -0.630861 19.000000
17.561451 -12.457222 0.620222 22.000000
13.548542 -22.557478 1.286947 9.000000
4.616366 3.419674 -0.239782 9.000000
31.569901 7.033571 -0.626682 7.000000
84.439415 -16.872660 0.480926 4.000000
17.547878 -12.355746 0.606969 23.000000
5.466652 -9.026516 0.506889 3.000000
4.609354 3.454515 -0.235381 8.000000
31.851168 7.218872 -0.627084 5.000000
84.303635 -16.554996 0.464843 25.000000
17.577168 -12.280254 0.583950 26.000000
5.505704 -9.026875 0.494931 7.000000
4.616661 3.486489 -0.234383 9.000000
32.063190 7.390583 -0.631788 8.000000
84.319786 -16.237431 0.419638 23.000000
17.593716 -12.196100 0.564316 17.000000
5.505558 -8.945657 0.478825 9.000000
4.588077 3.491383 -0.229548 8.000000
32.128471 7.529749 -0.627852 4.000000
84.364067 -15.925505 0.404581 22.000000
17.669445 -12.157499 0.550396 17.000000
5.563297 -8.969184 0.471892 4.000000
4.587270 3.517393 -0.226109 9.000000
32.416752 7.722760 -0.634035 3.000000
84.441727 -15.619864 0.359711 24.000000
17.701735 -12.084362 0.538789 9.000000
14.842491 -23.734510 1.222215 17.000000
4.590255 3.546473 -0.223854 8.000000
84.451584 -15.317003 0.329563 21.000000
9.882920 -6.693756 0.291720 1.000000
6.085917 -9.656796 0.488391 29.000000
4.597000 3.578667 -0.222784 9.000000
12.037859 2.965694 -0.233721 1.000000
9.927258 -6.673355 0.277717 1.000000
6.051932 -9.525290 0.469046 18.000000
4.591836 3.601754 -0.219092 8.000000
11.969836 2.991073 -0.228283 1.000000
39.014881 -6.781123 0.124407 8.000000
9.897705 -6.600949 0.269979 149.000000
6.092770 -9.523336 0.461984 8.000000
4.598324 3.634145 -0.215938 6.000000
12.186572 3.092731 -0.230436 1.000000
39.108501 -6.649817 0.117703 5.000000
9.963676 -6.592313 0.262773 1.000000
5.537579 -8.586057 0.406781 7.000000
12.170314 3.136129 -0.230344 1.000000
85.180382 -14.162625 0.210993 4.000000
17.679588 -11.608902 0.446728 10.000000
5.548687 -8.537702 0.394726 5.000000
12.004047 3.140248 -0.223081 1.000000
85.118248 -13.831889 0.195661 8.000000
17.713900 -11.538736 0.431758 18.000000
12.035945 3.195770 -0.223890 1.000000
85.101898 -13.524497 0.150395 14.000000
17.745981 -11.471604 0.413114 10.000000
6.136384 -9.288666 0.406268 10.000000
11.913166 3.209958 -0.219670 1.000000
59.557228 -9.241235 0.094672 135.000000
17.762838 -11.390409 0.401479 17.000000
5.612429 -8.431413 0.360778 126.000000
12.031522 3.289195 -0.222073 1.000000
59.887356 -9.067803 0.063429 152.000000
17.792099 -11.317363 0.382793 18.000000
5.696434 -8.489985 0.351669 9.000000
11.932745 3.309243 -0.216148 1.000000
80.170601 -11.838564 0.070721 1.000000
17.820997 -11.244212 0.367809 16.000000
6.102457 -9.030256 0.365362 38.000000
11.858045 3.335379 -0.210714 1.000000
79.911560 -11.501196 0.070455 1.000000
17.830639 -11.163467 0.356184 10.000000
6.114432 -8.980246 0.354708 57.000000
11.845776 3.378829 -0.208564 1.000000
79.626381 -11.162416 0.056133 1.000000
17.884384 -11.106082 0.341741 18.000000
6.133338 -8.937423 0.344433 25.000000
55.474018 46.597744 -2.314743 22.000000
79.884758 -10.900243 0.014072 4.000000
17.912447 -11.032743 0.323138 10.000000
6.008602 -8.683998 0.322639 54.000000
50.382900 42.637180 -2.062690 155.000000
100.812271 29.555986 -1.742047 17.000000
79.755653 -10.585011 0.000000 5.000000
17.955257 -10.972844 0.312197 16.000000
5.929057 -8.502266 0.307639 72.000000
50.261871 42.851894 -2.006457 5.000000
79.608643 -10.282846 -0.014010 11.000000
17.978388 -10.896679 0.300893 21.000000
6.036486 -8.592239 0.298815 32.000000
58.032784 49.845623 -2.283858 8.000000
79.571358 -9.981661 -0.055987 12.000000
18.005569 -10.823115 0.282346 16.000000
6.134514 -8.664086 0.292822 22.000000
28.021042 24.229820 -1.086500 6.000000
79.319534 -9.654910 -0.055784 7.000000
18.021935 -10.747493 0.267361 13.000000
6.208267 -8.710098 0.285694 7.000000
57.938225 50.471550 -2.186569 11.000000
98.058594 30.297951 -1.594365 25.000000
79.408997 -9.370568 -0.069778 11.000000
18.069931 -10.686527 0.256496 10.000000
6.260857 -8.709696 0.275262 46.000000
57.842793 50.780373 -2.136532 1.000000
97.908714 30.645205 -1.593743 1.000000
72.930168 -8.335132 -0.102493 190.000000
18.096224 -10.612746 0.238005 22.000000
6.188777 -8.546320 0.259723 25.000000
72.977280 -8.095446 -0.102521 242.000000
18.083242 -10.516250 0.226372 28.000000
6.075848 -8.332067 0.244819 26.000000
58.291653 51.935966 -2.085299 8.000000
73.009117 -7.802424 -0.140966 242.000000
18.124336 -10.455655 0.208166 18.000000
6.122773 -8.329050 0.232783 35.000000
58.418373 52.397408 -2.013802 1.000000
95.736900 31.125277 -1.458423 15.000000
73.024673 -7.559248 -0.128133 233.000000
18.175587 -10.396622 0.204661 17.000000
6.135560 -8.288708 0.226820 21.000000
95.162003 31.324488 -1.416426 26.000000
73.192474 -7.292678 -0.128378 6.000000
18.583357 -10.539662 0.193900 9.000000
6.167480 -8.265273 0.216021 36.000000
87.177414 79.353157 -2.881042 31.000000
94.429962 31.467592 -1.407237 27.000000
78.773109 -7.557237 -0.179551 1.000000
19.057810 -10.716623 0.179358 9.000000
6.200869 -8.246784 0.205321 34.000000
86.846916 79.636330 -2.797437 45.000000
93.968628 31.696987 -1.367461 14.000000
78.484055 -7.266930 -0.192593 1.000000
19.501274 -10.876572 0.171480 9.000000
6.412361 -8.469440 0.202119 40.000000
86.482025 79.859222 -2.691865 27.000000
93.757637 32.009029 -1.331499 15.000000
78.624710 -6.989405 -0.192874 7.000000
20.035515 -11.078456 0.163832 9.000000
86.005112 80.060860 -2.584411 30.000000
93.328247 32.244850 -1.292598 1.000000
78.522568 -6.662736 -0.206311 20.000000
20.610954 -11.298198 0.155890 9.000000
6.302258 -8.195478 0.176849 27.000000
56.759853 53.189304 -1.683731 1.000000
78.369728 -6.388086 -0.233300 15.000000
21.175127 -11.506728 0.138805 9.000000
6.340306 -8.191571 0.168152 61.000000
56.689163 53.514641 -1.619379 15.000000
78.514343 -6.082704 -0.247400 1.000000
21.716995 -11.703177 0.129171 9.000000
6.351711 -8.138599 0.156773 113.000000
22.372816 -11.950989 0.119529 9.000000
6.363039 -8.091790 0.147334 224.000000
23.105848 -12.233917 0.109516 12.000000
6.326451 -7.993452 0.137007 25.000000
57.346947 55.321304 -1.474312 8.000000
89.992126 32.932442 -1.103915 30.000000
108.163559 -7.222140 -0.359484 14.000000
23.792545 -12.486069 0.098483 10.000000
6.339849 -7.944634 0.127734 56.000000
89.824280 33.244835 -1.069906 17.000000
107.969742 -6.811799 -0.358754 213.000000
24.567875 -12.783777 0.087006 10.000000
6.358212 -7.910849 0.118688 17.000000
90.194000 33.758045 -1.025346 1.000000
91.067909 -5.426382 -0.318452 7.000000
25.494488 -13.147419 0.075097 10.000000
6.290123 -7.773201 0.108208 18.000000
30.417307 29.995537 -0.693463 11.000000
90.280090 34.168034 -1.027741 1.000000
108.265121 -6.052960 -0.416359 1.000000
26.143599 -13.361086 0.056367 28.000000
6.302842 -7.730803 0.097493 115.000000
30.323393 30.112431 -0.663872 11.000000
90.336693 34.568512 -0.996054 1.000000
108.396431 -5.661846 -0.416782 202.000000
26.223463 -13.292414 0.041050 23.000000
6.459927 -7.867243 0.090613 225.000000
56.107231 56.126827 -1.163583 11.000000
84.664558 -4.111165 -0.340268 18.000000
6.443688 -7.783546 0.079364 30.000000
56.482769 56.918198 -1.119697 20.000000
90.603157 35.434044 -0.916923 28.000000
77.216629 -3.465874 -0.310281 237.000000
29.308409 -14.580713 0.011427 7.000000
6.451649 -7.738016 0.070336 137.000000
56.263912 57.114826 -1.049524 1.000000
90.789146 35.890987 -0.886050 25.000000
77.118912 -3.178308 -0.309840 249.000000
30.455935 -15.012596 -0.005926 7.000000
90.854095 36.283875 -0.836686 31.000000
77.025124 -2.891693 -0.309418 251.000000
31.637545 -15.464853 -0.018439 7.000000
26.149990 26.909412 -0.432247 5.000000
90.932938 36.665466 -0.804300 33.000000
33.075508 -16.017822 -0.051313 7.000000
25.948322 26.917244 -0.398065 9.000000
91.015816 37.087288 -0.771921 32.000000
76.744331 -2.317938 -0.321614 197.000000
34.441292 -16.523680 -0.073339 7.000000
6.641906 -7.741038 0.037385 8.000000
25.773674 26.932940 -0.364363 9.000000
91.213257 37.595390 -0.723209 27.000000
76.937248 -2.041547 -0.322389 31.000000
6.853357 -7.928494 0.029266 9.000000
25.724405 27.069992 -0.345445 9.000000
91.421135 38.073666 -0.708674 26.000000
76.869110 -1.757827 -0.348915 200.000000
6.864061 -7.879519 0.018239 25.000000
25.693830 27.237041 -0.313695 9.000000
91.497795 38.499718 -0.675704 30.000000
76.929771 -1.490559 -0.349164 5.000000
38.425835 -17.910097 -0.140587 8.000000
6.939076 -7.906930 0.009180 27.000000
91.388603 38.848644 -0.623948 29.000000
38.840691 -17.930470 -0.164263 8.000000
6.835540 -7.731609 0.000000 20.000000
91.516853 39.299824 -0.591035 29.000000
38.974308 -17.819153 -0.179510 8.000000
6.909032 -7.759980 -0.009067 27.000000
55.527702 60.111610 -0.485616 1.000000
91.514748 39.658871 -0.539643 29.000000
39.260799 -17.792965 -0.203127 8.000000
6.928047 -7.729572 -0.016305 31.000000
55.488888 60.555492 -0.415721 1.000000
91.792564 40.198616 -0.489717 29.000000
39.470146 -17.705475 -0.226508 10.000000
7.042808 -7.794430 -0.027502 137.000000
18.359463 20.183863 -0.114291 17.000000
91.809380 40.607658 -0.455554 25.000000
39.514858 -17.568363 -0.241524 8.000000
6.893652 -7.578682 -0.033974 226.000000
18.332880 20.282284 -0.100206 7.000000
91.975639 41.046402 -0.439472 29.000000
39.670345 -17.463634 -0.272343 19.000000
6.909905 -7.543481 -0.044637 219.000000
54.625149 60.880726 -0.228414 5.000000
92.175705 41.541481 -0.405860 19.000000
39.802700 -17.348024 -0.295548 23.000000
6.957823 -7.540121 -0.053721 27.000000
92.210579 41.925644 -0.353586 22.000000
40.043514 -17.295195 -0.312136 16.000000
6.935121 -7.465691 -0.060468 23.000000
87.417007 40.133415 -0.302189 187.000000
26.893961 -11.498996 -0.224622 35.000000
6.930358 -7.408534 -0.069054 30.000000
87.428230 40.527206 -0.252283 6.000000
26.682608 -11.293133 -0.232624 47.000000
6.977996 -7.404870 -0.078138 29.000000
26.736835 -11.189744 -0.247880 39.000000
7.024833 -7.394871 -0.087230 32.000000
59.380817 28.043827 -0.103154 16.000000
27.000021 -11.194819 -0.260178 98.000000
7.094194 -7.418463 -0.094952 27.000000
28.475283 33.128956 0.099118 8.000000
27.385695 -11.242861 -0.279016 25.000000
7.182411 -7.458417 -0.104821 23.000000
53.805992 63.065556 0.245969 1.000000
41.665680 -16.927149 -0.439572 20.000000
7.163473 -7.379234 -0.113087 39.000000
53.637077 63.313839 0.318620 1.000000
94.874702 46.130085 -0.018412 30.000000
7.158954 -7.320700 -0.119741 36.000000
53.472034 63.590134 0.391527 1.000000
95.128891 46.623753 0.036980 34.000000
7.162070 -7.275464 -0.128299 36.000000
94.325439 46.659512 0.091835 32.000000
27.430822 -10.794229 -0.324143 7.000000
7.268312 -7.332019 -0.136952 35.000000
50.127785 60.486534 0.507315 22.000000
93.724266 46.790485 0.146266 25.000000
27.493387 -10.702643 -0.334716 30.000000
7.507012 -7.517501 -0.150202 154.000000
93.882492 47.300129 0.201825 33.000000
7.718791 -7.673122 -0.163376 7.000000
7.312646 -7.216286 -0.161393 33.000000
73.382751 37.632698 0.230299 173.000000
7.330546 -7.183616 -0.170192 26.000000
73.390747 37.977173 0.274028 192.000000
7.295822 -7.097355 -0.175889 34.000000
73.525726 38.389313 0.318485 180.000000
7.318077 -7.066985 -0.184681 29.000000
50.034733 63.105492 0.955846 1.000000
94.626862 49.848877 0.466678 26.000000
112.524490 7.572503 -0.472410 1.000000
30.791580 -11.219392 -0.451891 23.000000
7.401575 -7.095376 -0.193291 37.000000
49.617058 63.052036 1.022302 1.000000
94.849487 50.411133 0.524927 17.000000
112.687691 8.038018 -0.473227 177.000000
30.822937 -11.103017 -0.463189 9.000000
7.452755 -7.092203 -0.202928 8.000000
112.552856 8.443136 -0.453088 1.000000
20.942251 27.008322 0.495122 8.000000
95.303848 51.530598 0.642928 26.000000
34.322205 -12.080023 -0.539837 7.000000
20.795731 27.013557 0.523641 8.000000
95.193031 51.922482 0.700238 33.000000
93.801468 7.728367 -0.361394 10.000000
8.209143 -7.644442 -0.246721 64.000000
20.656841 27.037580 0.552336 8.000000
95.295135 52.432274 0.778335 28.000000
34.352638 -11.808446 -0.570647 7.000000
8.206556 -7.580752 -0.255481 141.000000
20.684162 27.280027 0.585620 8.000000
34.026264 -11.556983 -0.577065 7.000000
20.648563 27.431440 0.623286 7.000000
64.562065 36.126892 0.606896 152.000000
34.627472 -11.619801 -0.599288 7.000000
8.471988 -7.719735 -0.278114 27.000000
31.500460 42.168877 1.001463 17.000000
64.172028 36.218124 0.643058 181.000000
83.607132 8.109365 -0.293215 1.000000
34.389656 -11.399932 -0.607095 7.000000
8.529697 -7.715290 -0.289122 14.000000
63.968819 36.413223 0.706594 110.000000
83.754036 8.404057 -0.249752 36.000000
39.899715 -13.064364 -0.703516 8.000000
16.479631 -14.796714 -0.568354 18.000000
51.300804 69.659050 1.812147 1.000000
33.954285 19.485170 0.396305 8.000000
83.702782 8.708905 -0.249693 36.000000
40.085041 -12.962569 -0.720651 2.000000
16.503603 -14.709341 -0.582762 23.000000
34.003620 19.679506 0.418293 4.000000
40.151089 -12.821569 -0.735706 8.000000
16.527147 -14.621984 -0.597113 27.000000
67.248840 39.249828 0.883388 11.000000
73.564194 8.199546 -0.193784 40.000000
40.259880 -12.709344 -0.751665 4.000000
16.561455 -14.544473 -0.615672 25.000000
66.776657 39.303066 0.919648 12.000000
73.439270 8.458248 -0.193535 252.000000
99.517418 -30.996223 -1.892182 1.000000
16.570360 -14.450154 -0.629486 27.000000
66.522545 39.466797 0.958546 27.000000
73.343262 8.719689 -0.180474 251.000000
99.858238 -30.739483 -1.914955 5.000000
16.600203 -14.369407 -0.643955 29.000000
27.379637 38.612461 1.206433 12.000000
66.089546 39.538113 0.994719 16.000000
73.226471 8.978107 -0.167390 250.000000
80.070251 -24.296677 -1.562822 17.000000
16.656202 -14.311426 -0.659433 30.000000
27.218933 38.699902 1.255470 18.000000
65.725250 39.648003 1.045013 18.000000
73.203018 9.247692 -0.154535 93.000000
80.186974 -24.011488 -1.592601 21.000000
16.692890 -14.236932 -0.677979 33.000000
27.404608 39.239784 1.311828 7.000000
65.393738 39.760017 1.082023 8.000000
16.729336 -14.162430 -0.692664 30.000000
27.132978 39.141193 1.346951 7.000000
65.093643 39.905064 1.119456 19.000000
84.765511 -24.706894 -1.741556 19.000000
16.765453 -14.087842 -0.707320 34.000000
64.699615 39.990501 1.168305 24.000000
125.447243 17.228748 -0.221002 120.000000
85.272888 -24.516047 -1.781107 39.000000
16.775326 -13.981636 -0.724441 25.000000
64.360779 40.107830 1.231029 23.000000
125.526924 17.708689 -0.154879 143.000000
85.376892 -24.207516 -1.765919 28.000000
16.806004 -13.913021 -0.731393 30.000000
29.838575 18.739481 0.590424 8.000000
85.483711 -23.899651 -1.797301 28.000000
16.841043 -13.838312 -0.745941 25.000000
26.062181 38.770000 1.508906 14.000000
29.845367 18.896635 0.616593 8.000000
85.878548 -23.671021 -1.834875 4.000000
16.861736 -13.756998 -0.759937 31.000000
26.129896 39.180126 1.562272 10.000000
29.830414 19.040686 0.636258 8.000000
44.955078 -12.214025 -0.975812 7.000000
16.888329 -13.675899 -0.774061 39.000000
29.822248 19.182316 0.662271 9.000000
16.918333 -13.597827 -0.792113 34.000000
25.786827 39.271626 1.648825 12.000000
29.684330 19.247778 0.679301 7.000000
24.510418 -6.466780 -0.544268 10.000000
16.932468 -13.507337 -0.805594 27.000000
26.022528 39.933712 1.714446 14.000000
29.696875 19.410891 0.705990 5.000000
24.468746 -6.369071 -0.547286 14.000000
16.961830 -13.429326 -0.819768 29.000000
25.956207 40.152916 1.778253 8.000000
99.845482 16.654667 0.035334 1.000000
24.462872 -6.271897 -0.546636 17.000000
17.002853 -13.360716 -0.826938 25.000000
25.647785 39.981220 1.808184 1.000000
99.965103 17.087349 0.053101 1.000000
24.603994 -6.202927 -0.558090 18.000000
17.047310 -13.294877 -0.841840 23.000000
21.393536 33.619953 1.558726 8.000000
61.302372 41.022865 1.622376 9.000000
99.448654 17.374454 0.070480 1.000000
9.256909 -7.164882 -0.464015 10.000000
21.168617 33.524292 1.585510 9.000000
61.336063 41.356121 1.678749 9.000000
99.512268 17.761675 0.088213 1.000000
9.290772 -7.136793 -0.472590 28.000000
21.071226 33.642567 1.629079 9.000000
61.104786 41.526768 1.715278 10.000000
83.214058 -20.039381 -1.942376 27.000000
9.368253 -7.141865 -0.483434 16.000000
21.000216 33.790817 1.674432 9.000000
61.045506 41.814381 1.795433 19.000000
83.337601 -19.715532 -1.943397 34.000000
17.170839 -12.990915 -0.894904 33.000000
24.138697 39.160282 1.984368 5.000000
29.257032 20.175539 0.880969 8.000000
38.319298 7.254361 0.074875 9.000000
83.407066 -19.440125 -1.958458 27.000000
17.189871 -12.906520 -0.908458 37.000000
24.084343 39.379169 2.031547 13.000000
29.134264 20.263926 0.904506 9.000000
38.230946 7.396725 0.081556 9.000000
83.459396 -19.099422 -1.987772 29.000000
17.204502 -12.819170 -0.921748 21.000000
29.005928 20.332811 0.933762 2.000000
38.176727 7.517658 0.101866 10.000000
83.582817 -18.805546 -1.974096 35.000000
17.235044 -12.743954 -0.928372 26.000000
24.240093 40.278564 2.167602 14.000000
60.603901 42.798885 2.007599 20.000000
38.246941 7.677208 0.108936 9.000000
83.722137 -18.545420 -2.005872 27.000000
17.281113 -12.680313 -0.943336 32.000000
20.823288 34.876011 1.922673 10.000000
60.692940 43.164120 2.054305 4.000000
33.897984 6.933598 0.108699 10.000000
36.539021 -7.953435 -0.881253 1.000000
17.314821 -12.607677 -0.957630 33.000000
20.732450 35.014801 1.968833 10.000000
60.285332 43.223747 2.123852 1.000000
33.745014 7.031263 0.126339 91.000000
36.475201 -7.799632 -0.872505 6.000000
17.344448 -12.532233 -0.964206 34.000000
33.734921 7.152119 0.132413 255.000000
36.420082 -7.648364 -0.883507 1.000000
17.369417 -12.453630 -0.978002 24.000000
23.832338 40.915199 2.382083 9.000000
33.698658 7.273596 0.144408 255.000000
17.389967 -12.372115 -0.991530 21.000000
23.733078 41.073780 2.436283 8.000000
60.083328 44.038795 2.302039 16.000000
33.671692 7.397041 0.162459 255.000000
84.066109 -17.011786 -2.066220 16.000000
17.426750 -12.302331 -0.998512 19.000000
19.095722 33.329521 2.013103 8.000000
37.236069 27.502985 1.462869 9.000000
33.629688 7.517126 0.168403 253.000000
84.206345 -16.719130 -2.068146 28.000000
17.471148 -12.237974 -1.013404 17.000000
60.056583 44.699608 2.431223 16.000000
33.592037 7.638090 0.192404 255.000000
84.301758 -16.417141 -2.053999 29.000000
17.486887 -12.153703 -1.019177 13.000000
19.200876 34.062164 2.145025 9.000000
33.558846 7.760010 0.210411 255.000000
84.440269 -16.123117 -2.040908 27.000000
9.826251 -6.776146 -0.575422 5.000000
19.303730 34.539959 2.212206 10.000000
33.521664 7.874781 0.234390 221.000000
85.776260 -16.052589 -2.071763 20.000000
9.854894 -6.742735 -0.581915 8.000000
19.278526 34.779385 2.271954 10.000000
59.774090 45.486214 2.662375 18.000000
9.842185 -6.681211 -0.583877 7.000000
19.246487 34.721584 2.289033 10.000000
9.846568 -6.684186 -0.577891 8.000000
19.214727 34.380707 2.250279 10.000000
33.506660 7.871257 0.288353 255.000000
85.816833 -16.075687 -1.889856 23.000000
9.859676 -6.746008 -0.565478 6.000000
19.252445 34.167583 2.199514 17.000000
59.897774 44.907166 2.666586 5.000000
33.554726 7.752887 0.294531 255.000000
84.412956 -16.133173 -1.815210 30.000000
17.528357 -12.087488 -0.989210 10.000000
60.007317 44.646667 2.611878 12.000000
33.607342 7.635401 0.288730 255.000000
84.353569 -16.442514 -1.800210 27.000000
17.455788 -12.132089 -0.972745 29.000000
19.167486 33.427719 2.093627 9.000000
37.208298 27.482475 1.599176 7.000000
33.615585 7.507813 0.288562 255.000000
84.200485 -16.733242 -1.753272 29.000000
17.460806 -12.239819 -0.957108 28.000000
23.797695 41.185608 2.551139 8.000000
60.157444 44.093121 2.552479 17.000000
33.657475 7.387760 0.294702 255.000000
84.178093 -17.049740 -1.739098 1.000000
17.404474 -12.286607 -0.937620 29.000000
23.862005 40.966133 2.501199 12.000000
33.712479 7.276579 0.282920 255.000000
76.571114 -15.801373 -1.555823 1.000000
17.371819 -12.368340 -0.923612 31.000000
23.861565 40.622307 2.436059 10.000000
33.719406 7.148830 0.276740 249.000000
76.209633 -16.018219 -1.536064 1.000000
17.359648 -12.446627 -0.910214 28.000000
20.714491 34.984470 2.073831 15.000000
33.755127 7.027223 0.282838 33.000000
36.413548 -7.793095 -0.715009 5.000000
17.298037 -12.507893 -0.890948 35.000000
20.819670 34.883781 2.029507 10.000000
60.521523 43.026306 2.372543 15.000000
38.262974 7.819468 0.306734 8.000000
17.309465 -12.603778 -0.878710 32.000000
24.303413 40.383781 2.321673 14.000000
60.484184 42.682709 2.339358 7.000000
38.306026 7.682114 0.313671 7.000000
83.683800 -18.552252 -1.570996 27.000000
17.279875 -12.679406 -0.860827 32.000000
24.564625 40.497181 2.283390 14.000000
29.160177 20.418177 1.100055 7.000000
38.260391 7.527196 0.306263 34.000000
83.571617 -18.849005 -1.555219 33.000000
17.241800 -12.748949 -0.846258 30.000000
24.653986 40.310566 2.236618 14.000000
29.162134 20.268211 1.072637 9.000000
38.287773 7.386924 0.299457 8.000000
83.511978 -19.157480 -1.540447 33.000000
17.198965 -12.824384 -0.831675 30.000000
20.989960 34.052074 1.865433 7.000000
29.388762 20.266380 1.065761 8.000000
38.244549 7.240210 0.298920 9.000000
83.403282 -19.454592 -1.479939 27.000000
17.188883 -12.905778 -0.814467 35.000000
21.036551 33.849285 1.816712 8.000000
83.336533 -19.761362 -1.465077 27.000000
17.157850 -12.981089 -0.800204 23.000000
21.126247 33.730412 1.779476 9.000000
61.052822 41.460308 2.112977 9.000000
83.230019 -20.058594 -1.434594 34.000000
9.347543 -7.131238 -0.429061 25.000000
21.237381 33.633190 1.736706 9.000000
61.114098 41.175434 2.071245 12.000000
9.288415 -7.134981 -0.419243 16.000000
21.392847 33.618874 1.711940 10.000000
61.207020 40.912674 2.043579 10.000000
44.226265 -11.002254 -0.723894 7.000000
9.267942 -7.178595 -0.407325 7.000000
83.015533 -20.975328 -1.345096 27.000000
17.034487 -13.284876 -0.739272 29.000000
25.757038 39.844810 1.947062 8.000000
24.454935 -6.274411 -0.387797 22.000000
17.001062 -13.368910 -0.725028 29.000000
26.004742 39.906418 1.913082 9.000000
62.347698 40.706005 1.949790 13.000000
45.366051 -11.816971 -0.695527 105.000000
16.960369 -13.437804 -0.702703 30.000000
25.791037 39.278038 1.846193 14.000000
62.683208 40.613693 1.916703 9.000000
45.182499 -11.946168 -0.677063 147.000000
