VERSION .7
FIELDS x y z intensity
SIZE 4 4 4 4
TYPE F F F F
COUNT 1 1 1 1
WIDTH 1226
HEIGHT 1
VIEWPOINT 0 0 0 1 0 0 0
POINTS 1226
DATA ascii
17.894335 -11.172937 -0.895250 21.000000
6.172945 -9.025492 -0.097333 33.000000
10.777952 3.098673 -0.892452 1.000000
19.326584 -2.685223 -1.292581 8.000000
17.887642 -11.077847 -0.914952 14.000000
6.205933 -9.002733 -0.106875 27.000000
10.790447 3.145129 -0.894435 1.000000
19.429556 -2.626979 -1.309126 9.000000
17.927715 -11.011958 -0.925969 30.000000
5.889313 -8.479925 -0.111725 26.000000
10.783371 3.188040 -0.890906 3.000000
19.517967 -2.566123 -1.317892 6.000000
17.960943 -10.946203 -0.947776 12.000000
5.951807 -8.503220 -0.125001 18.000000
10.790862 3.233309 -0.890520 6.000000
19.571550 -2.500230 -1.324341 4.000000
17.996094 -10.877368 -0.962231 21.000000
6.131197 -8.694746 -0.139273 28.000000
10.764926 3.268582 -0.885411 1.000000
19.709074 -2.444416 -1.336514 1.000000
18.001135 -10.790533 -0.971392 29.000000
6.158526 -8.669092 -0.150344 14.000000
10.762698 3.311038 -0.882265 28.000000
18.039976 -10.724134 -0.986044 20.000000
6.134852 -8.569071 -0.161876 8.000000
10.693673 3.332756 -0.873668 229.000000
18.059343 -10.650508 -1.003402 18.000000
6.167549 -8.551517 -0.172995 16.000000
10.695938 3.376522 -0.870920 230.000000
84.283913 -9.513542 -5.767516 2.000000
18.093340 -10.581368 -1.017796 23.000000
6.231071 -8.573186 -0.184995 39.000000
10.712270 3.424903 -0.869316 233.000000
84.287460 -9.201205 -5.780280 27.000000
18.131536 -10.514712 -1.028771 23.000000
6.172265 -8.430242 -0.191496 26.000000
10.699184 3.466056 -0.867354 229.000000
18.164997 -10.445337 -1.043154 12.000000
6.223774 -8.435555 -0.203115 23.000000
19.831257 17.931494 -1.921155 9.000000
10.700907 3.510003 -0.864576 223.000000
18.493008 -10.543948 -1.078388 9.000000
6.154626 -8.281172 -0.212524 17.000000
19.729761 17.971594 -1.894283 10.000000
10.702450 3.554008 -0.861788 221.000000
26.783268 -2.621403 -1.853500 6.000000
18.948513 -10.711823 -1.110271 26.000000
6.202779 -8.282381 -0.223978 35.000000
19.584118 17.970707 -1.863300 10.000000
10.703528 3.597976 -0.862931 224.000000
19.409304 -10.878634 -1.154395 29.000000
6.156249 -8.160724 -0.231978 109.000000
19.526398 18.050016 -1.845436 8.000000
10.690697 3.637328 -0.857018 6.000000
19.961414 -11.096695 -1.200909 20.000000
6.358414 -8.364769 -0.247613 22.000000
19.452999 18.102167 -1.820863 7.000000
10.753001 3.702555 -0.859102 1.000000
20.530512 -11.314758 -1.244952 32.000000
6.460342 -8.437562 -0.261569 108.000000
19.650143 18.426914 -1.822308 7.000000
10.800849 3.763367 -0.860006 1.000000
21.066381 -11.509624 -1.287485 24.000000
6.063609 -7.859558 -0.254739 92.000000
20.642136 19.486202 -1.895401 7.000000
10.787407 3.803078 -0.854017 1.000000
21.682735 -11.743382 -1.339780 25.000000
6.189009 -7.964461 -0.267646 32.000000
20.347851 19.363457 -1.855806 7.000000
10.796486 3.852951 -0.851877 1.000000
22.401974 -12.026939 -1.403744 30.000000
6.187139 -7.902107 -0.278582 39.000000
20.396149 19.538713 -1.846306 9.000000
10.778018 3.890954 -0.845507 3.000000
23.062243 -12.272740 -1.456010 38.000000
6.363055 -8.068601 -0.296002 33.000000
20.347094 19.635239 -1.823588 9.000000
10.763962 3.930532 -0.841507 1.000000
6.400961 -0.412810 -0.449654 4.000000
23.737854 -12.531440 -1.510131 22.000000
6.364440 -8.009803 -0.303634 17.000000
20.129263 19.561188 -1.785579 9.000000
10.791721 3.985556 -0.842795 1.000000
6.342689 -0.385713 -0.445458 7.000000
24.724882 -12.925856 -1.589149 6.000000
6.395281 -7.991186 -0.314501 33.000000
20.015528 19.593811 -1.762216 9.000000
10.791331 4.030420 -0.839870 1.000000
6.289052 -0.359321 -0.444910 9.000000
24.886086 -12.894211 -1.621002 6.000000
6.402323 -7.940156 -0.325887 24.000000
19.827900 19.566624 -1.723313 8.000000
10.781561 4.071862 -0.834199 1.000000
6.310365 -0.335130 -0.446319 8.000000
26.066807 -13.390768 -1.710251 6.000000
6.423518 -7.909777 -0.334460 33.000000
19.732309 19.601871 -1.691409 10.000000
10.804107 4.125688 -0.833050 1.000000
26.235279 -13.356008 -1.728393 7.000000
6.572528 -8.032920 -0.349751 255.000000
19.530832 19.544474 -1.656068 9.000000
10.873066 4.197747 -0.833413 1.000000
6.509552 -7.896718 -0.353799 58.000000
19.417395 19.567083 -1.637745 6.000000
10.960228 4.277622 -0.835099 1.000000
19.238148 19.529099 -1.599847 6.000000
10.995780 4.338005 -0.834867 1.000000
22.173576 -10.982951 -1.500437 6.000000
6.494876 -7.765030 -0.371201 28.000000
19.027809 19.457716 -1.564445 7.000000
22.383223 -10.984812 -1.524993 6.000000
6.582848 -7.814615 -0.385382 9.000000
18.932968 19.503222 -1.538717 5.000000
22.786770 -11.089245 -1.563292 6.000000
6.698514 -7.893029 -0.399505 255.000000
18.813543 19.516048 -1.515554 7.000000
23.149670 -11.161095 -1.607885 6.000000
6.728949 -7.873020 -0.412351 34.000000
18.642694 19.481218 -1.483930 6.000000
7.002682 -3.307162 -0.492661 1.000000
6.692279 -7.772256 -0.419113 7.000000
18.523911 19.499672 -1.456613 7.000000
7.010002 -3.279250 -0.496396 1.000000
6.655008 -7.671923 -0.423893 36.000000
18.278862 19.390274 -1.410538 7.000000
6.890448 -3.192594 -0.491091 1.000000
18.170759 19.404116 -1.388543 7.000000
6.937035 -3.186280 -0.497669 1.000000
18.113937 19.486095 -1.366370 7.000000
6.368556 -0.057801 -0.454288 1.000000
17.887417 19.384409 -1.331556 6.000000
6.902705 -7.731112 -0.472450 22.000000
17.769970 19.392517 -1.300231 6.000000
6.204150 -0.010828 -0.443631 1.000000
7.037599 -7.824281 -0.488920 8.000000
17.682726 19.439878 -1.276064 6.000000
6.885056 -3.043852 -0.507920 2.000000
7.348160 -8.115270 -0.518197 17.000000
17.525074 19.409000 -1.246939 7.000000
6.863933 -3.004487 -0.509487 3.000000
7.164079 -7.856676 -0.514439 9.000000
17.351326 19.338369 -1.216170 6.000000
6.902280 -2.991175 -0.512835 5.000000
7.118258 -7.749186 -0.516469 20.000000
17.227879 19.342943 -1.189825 6.000000
6.945038 -2.979517 -0.519173 6.000000
7.075016 -7.645674 -0.522230 17.000000
17.167608 19.418106 -1.163372 7.000000
6.997849 -2.968969 -0.528891 6.000000
7.135327 -7.657058 -0.535694 26.000000
16.952085 19.309744 -1.130860 7.000000
7.049040 -2.963143 -0.532014 7.000000
7.098153 -7.561409 -0.538079 27.000000
16.799921 19.278481 -1.098586 6.000000
7.111108 -2.955701 -0.542552 6.000000
7.091056 -7.498581 -0.548097 27.000000
25.805483 29.832724 -1.660135 19.000000
7.185173 -2.958580 -0.551540 6.000000
7.082425 -7.437279 -0.554408 23.000000
7.222473 -2.945966 -0.556387 6.000000
7.044657 -7.348668 -0.554887 4.000000
25.648285 30.083405 -1.594714 1.000000
7.267988 -2.939409 -0.561970 4.000000
25.776791 30.448772 -1.560485 1.000000
6.149862 0.237329 -0.437917 1.000000
15.511073 -6.260583 -1.201932 7.000000
6.973380 -7.165878 -0.567778 32.000000
25.582138 30.444416 -1.527643 1.000000
6.298282 0.266179 -0.450764 1.000000
15.609603 -6.227600 -1.216465 7.000000
7.338204 -7.485682 -0.604422 43.000000
25.555523 30.618320 -1.497254 7.000000
15.703979 -6.204967 -1.228135 9.000000
7.203884 -7.294984 -0.600130 29.000000
25.430506 30.685640 -1.447439 8.000000
15.851416 -6.196150 -1.246840 9.000000
7.255889 -7.299075 -0.609652 9.000000
25.419128 30.923738 -1.411873 10.000000
16.023521 -6.192604 -1.264526 10.000000
7.354051 -7.341227 -0.626448 1.000000
25.359190 31.071289 -1.379517 10.000000
16.185221 -6.187009 -1.284611 9.000000
7.543582 -7.475428 -0.649556 1.000000
25.297674 31.206602 -1.346695 14.000000
16.361702 -6.185836 -1.296810 9.000000
7.511022 -7.393956 -0.653870 1.000000
25.369587 31.542130 -1.314526 10.000000
16.565336 -6.193526 -1.326661 8.000000
16.194363 -15.814456 -1.424089 7.000000
16.709080 -6.177561 -1.342604 10.000000
16.280807 -15.788223 -1.446706 6.000000
16.932301 -6.189641 -1.368202 8.000000
17.109150 -6.183295 -1.387038 8.000000
16.341906 -15.627582 -1.482035 7.000000
17.300020 -6.180682 -1.410342 7.000000
20.947323 27.005125 -0.942711 8.000000
17.486618 -6.175168 -1.430211 8.000000
20.769522 26.979513 -0.903472 8.000000
17.715752 -6.183148 -1.453677 7.000000
16.354183 -15.303975 -1.526943 6.000000
20.715149 27.104094 -0.875427 8.000000
17.908785 -6.173482 -1.470887 6.000000
16.429125 -15.250862 -1.547866 7.000000
20.595066 27.152672 -0.838841 8.000000
11.862319 -4.040573 -0.981857 1.000000
9.056249 -8.345167 -0.861144 30.000000
20.545780 27.284983 -0.804919 8.000000
11.862550 -3.992189 -0.985054 1.000000
9.082537 -8.308042 -0.871537 29.000000
11.787071 -3.918752 -0.979768 1.000000
9.108894 -8.271036 -0.877626 24.000000
23.868294 32.173862 -0.867131 8.000000
11.791230 -3.872199 -0.987647 1.000000
9.186616 -8.280379 -0.895203 1.000000
23.759626 32.273922 -0.825488 18.000000
11.762347 -3.815010 -0.988393 1.000000
16.605358 -14.862556 -1.632618 7.000000
23.727043 32.466427 -0.779140 10.000000
11.695559 -3.746028 -0.981621 1.000000
16.677504 -14.817394 -1.650020 7.000000
23.749229 32.748066 -0.741427 2.000000
11.632852 -3.678988 -0.979505 1.000000
16.641083 -14.676250 -1.656659 7.000000
23.486252 32.624462 -0.694658 1.000000
6.275308 0.750507 -0.435289 7.000000
11.613261 -3.623800 -0.980951 1.000000
16.699816 -14.629884 -1.677151 6.000000
6.277270 0.776313 -0.434529 7.000000
11.625808 -3.581008 -0.989444 1.000000
16.730734 -14.538679 -1.697727 7.000000
11.600545 -3.526727 -0.988317 7.000000
16.756582 -14.453691 -1.710503 7.000000
27.196070 38.638725 -0.676276 26.000000
11.574878 -3.472630 -0.989286 1.000000
16.773224 -14.371315 -1.722841 7.000000
27.071836 38.763298 -0.627194 7.000000
11.582417 -3.428669 -0.993095 9.000000
16.836027 -14.318450 -1.743296 7.000000
11.589789 -3.384701 -0.996900 5.000000
16.838863 -14.204773 -1.757017 7.000000
20.127920 2.775079 -1.378039 1.000000
11.587417 -3.337964 -0.999875 7.000000
16.875937 -14.135515 -1.771193 7.000000
19.993874 2.834870 -1.366056 7.000000
11.560822 -3.286643 -0.994472 8.000000
16.932125 -14.082299 -1.783527 8.000000
19.934216 2.900982 -1.359166 8.000000
11.578218 -3.241411 -1.001179 8.000000
16.909403 -13.958874 -1.794994 7.000000
19.903950 2.971114 -1.354307 7.000000
11.585048 -3.197581 -1.002862 4.000000
16.996105 -13.921061 -1.821672 8.000000
19.838913 3.035780 -1.347111 9.000000
11.562359 -3.145757 -1.008317 2.000000
17.022575 -13.838806 -1.838339 7.000000
19.822956 3.107737 -1.343274 9.000000
11.559372 -3.099487 -1.007060 4.000000
17.059872 -13.775415 -1.848985 7.000000
19.787037 3.176454 -1.338107 12.000000
11.590118 -3.060077 -1.012921 4.000000
17.079021 -13.677983 -1.860480 8.000000
19.795872 3.252342 -1.325434 6.000000
11.572325 -3.010051 -1.010395 14.000000
17.092918 -13.586583 -1.871912 7.000000
19.779125 3.324087 -1.321604 3.000000
11.591550 -2.974048 -1.015414 28.000000
17.125122 -13.519754 -1.885863 7.000000
19.762119 3.395753 -1.317776 18.000000
11.569409 -2.918918 -1.014538 5.000000
17.181360 -13.462225 -1.901963 8.000000
21.345955 33.532261 -0.013875 8.000000
19.735025 3.465613 -1.313295 110.000000
11.660868 -2.900897 -1.025934 1.000000
9.251591 -7.194389 -1.031524 25.000000
21.116621 33.429020 0.027604 9.000000
19.747419 3.542448 -1.304425 27.000000
11.701606 -2.859036 -1.032691 4.000000
9.260105 -7.141545 -1.037496 28.000000
21.036951 33.561794 0.069132 9.000000
19.778921 3.622975 -1.300326 19.000000
11.697124 -2.812550 -1.035609 1.000000
9.285494 -7.107004 -1.047701 27.000000
20.975666 33.711933 0.117807 8.000000
13.894415 2.600269 -0.911633 2.000000
11.706562 -2.773787 -1.033509 1.000000
9.348366 -7.106088 -1.056262 14.000000
20.949718 33.933727 0.160088 4.000000
13.929985 2.654767 -0.912054 5.000000
11.721149 -2.731910 -1.038138 1.000000
17.315855 -13.062654 -1.973977 7.000000
19.483395 31.806473 0.188791 19.000000
4.907793 3.437750 -0.188307 1.000000
13.896290 2.701165 -0.900567 1.000000
11.764894 -2.696682 -1.043253 1.000000
8.840831 -6.618601 -1.010898 1.000000
19.317230 31.796259 0.233764 147.000000
4.936094 3.484612 -0.185660 1.000000
13.441029 2.663833 -0.869289 1.000000
11.755367 -2.647031 -1.045737 1.000000
8.828492 -6.559008 -1.014475 6.000000
19.180172 31.820444 0.272358 108.000000
12.981329 2.622211 -0.837853 2.000000
11.789131 -2.609270 -1.050006 1.000000
8.883814 -6.549713 -1.027781 8.000000
19.094486 31.929852 0.311684 10.000000
12.903771 2.655806 -0.824236 1.000000
11.779145 -2.561809 -1.048273 16.000000
8.960845 -6.553545 -1.037683 24.000000
21.866625 36.871559 0.418998 64.000000
11.861164 -2.534153 -1.059004 1.000000
21.727413 36.930031 0.463673 6.000000
11.889689 -2.494716 -1.062864 1.000000
12.108716 2.631273 -0.766569 1.000000
12.016271 -2.473144 -1.073323 1.000000
5.697361 -4.045911 -0.671618 1.000000
11.899720 2.631568 -0.745403 1.000000
12.103187 -2.444827 -1.082451 1.000000
5.939867 -4.202548 -0.701902 1.000000
5.344522 3.961961 -0.167241 4.000000
11.880383 2.673003 -0.742667 1.000000
12.190241 -2.415944 -1.089437 1.000000
5.334062 3.984583 -0.162718 1.000000
11.652077 2.666541 -0.720625 1.000000
12.306392 -2.392120 -1.101231 1.000000
6.018806 -4.192533 -0.716626 1.000000
23.667841 41.900993 0.797989 67.000000
11.807624 2.747720 -0.728740 1.000000
12.452678 -2.370971 -1.111269 1.000000
23.489111 41.942825 0.864282 247.000000
12.740377 -2.377393 -1.136158 3.000000
23.349236 42.036579 0.931694 255.000000
59.678604 45.495842 -1.611230 5.000000
23.348993 42.036144 0.956871 255.000000
59.779297 45.572605 -1.535197 7.000000
23.491014 41.929054 0.922821 243.000000
59.774078 45.223186 -1.556971 7.000000
12.723100 -2.374169 -1.107307 3.000000
23.662277 41.891148 0.873399 56.000000
60.054691 45.090340 -1.599304 1.000000
12.601898 -2.401661 -1.090787 3.000000
60.062981 44.769566 -1.621515 1.000000
11.654574 2.664973 -0.685156 1.000000
12.461520 -2.422274 -1.072703 1.000000
5.943117 -4.156780 -0.686845 1.000000
5.355784 3.955843 -0.149936 1.000000
11.756916 2.643068 -0.688488 1.000000
12.306125 -2.438910 -1.057883 1.000000
12.014873 2.654834 -0.707329 1.000000
12.146420 -2.453560 -1.036209 1.000000
21.486483 36.813946 0.617526 1.000000
12.195377 2.647876 -0.715194 1.000000
12.015513 -2.472988 -1.023651 1.000000
5.837181 -4.197530 -0.660642 7.000000
21.796566 37.032780 0.577525 11.000000
11.938178 -2.504890 -1.011443 5.000000
5.826346 -4.222222 -0.653565 8.000000
21.839266 36.810776 0.530419 185.000000
11.826927 -2.526839 -0.998545 1.000000
21.978161 36.751938 0.485824 151.000000
12.937232 2.660339 -0.763877 6.000000
11.769065 -2.559617 -0.992329 7.000000
19.208427 31.854742 0.389550 36.000000
13.083768 2.640527 -0.774290 1.000000
11.789471 -2.609345 -0.986363 7.000000
17.337910 -12.773269 -1.914377 5.000000
19.298899 31.753595 0.356705 179.000000
4.968906 3.465068 -0.163919 1.000000
13.808393 2.734135 -0.814110 1.000000
11.779995 -2.652576 -0.984255 1.000000
17.360031 -12.887997 -1.906810 7.000000
19.446684 31.734102 0.318306 101.000000
5.036126 3.481980 -0.169951 1.000000
11.736386 -2.690147 -0.973006 1.000000
17.289808 -12.934428 -1.889101 8.000000
20.858009 33.771996 0.297905 1.000000
4.945743 3.392764 -0.169623 1.000000
14.112797 2.684502 -0.833361 5.000000
11.736320 -2.735446 -0.971708 2.000000
17.303522 -13.043876 -1.872947 7.000000
20.936289 33.635555 0.255853 8.000000
4.957457 3.375412 -0.173810 1.000000
14.142026 2.636391 -0.837030 1.000000
11.697446 -2.771627 -0.965101 5.000000
9.374122 -7.120504 -1.009201 24.000000
21.064854 33.567238 0.221335 10.000000
11.673162 -2.811099 -0.957614 8.000000
9.313188 -7.128200 -0.993076 22.000000
21.219427 33.552845 0.180152 9.000000
11.648581 -2.850389 -0.952235 16.000000
9.267955 -7.147599 -0.980754 25.000000
21.355320 33.508232 0.138701 8.000000
11.604012 -2.886753 -0.945291 25.000000
9.257972 -7.194168 -0.974238 1.000000
19.791752 3.390177 -1.185938 7.000000
11.583848 -2.926862 -0.942418 38.000000
17.141918 -13.421666 -1.793746 7.000000
47.132175 72.799515 0.121091 21.000000
19.705591 3.301121 -1.180043 4.000000
11.564020 -2.966985 -0.933297 25.000000
17.105568 -13.494627 -1.775965 8.000000
19.741983 3.232874 -1.185008 5.000000
11.572680 -3.014457 -0.930681 22.000000
17.108160 -13.598699 -1.758361 7.000000
19.842207 3.174655 -1.193837 2.000000
11.571506 -3.059484 -0.927279 17.000000
17.133076 -13.721273 -1.750657 7.000000
20.118696 3.150504 -1.213404 2.000000
11.569999 -3.104501 -0.925961 10.000000
17.083851 -13.784931 -1.731501 8.000000
20.096851 3.064482 -1.207774 1.000000
11.567924 -3.151609 -0.922546 16.000000
16.991598 -13.813622 -1.711889 7.000000
19.840118 2.958046 -1.195263 1.000000
11.561412 -3.195401 -0.918743 7.000000
16.965145 -13.895702 -1.695090 7.000000
19.757278 2.868190 -1.193096 1.000000
11.569439 -3.243309 -0.911882 5.000000
16.903473 -13.949019 -1.678634 8.000000
20.202333 2.857233 -1.222906 1.000000
11.562574 -3.287142 -0.908065 5.000000
16.853355 -14.011812 -1.659508 8.000000
20.192680 2.780416 -1.225267 1.000000
11.550752 -3.329586 -0.903868 3.000000
16.891123 -14.148235 -1.645118 7.000000
11.572275 -3.381778 -0.902284 6.000000
16.836218 -14.207570 -1.629367 8.000000
27.144041 38.837799 -0.405237 9.000000
11.555325 -3.422843 -0.897705 6.000000
16.825596 -14.299461 -1.613786 7.000000
27.238934 38.685280 -0.445927 26.000000
6.519190 0.798146 -0.399407 5.000000
11.585375 -3.480187 -0.896825 5.000000
16.747620 -14.339241 -1.591995 8.000000
6.457712 0.766606 -0.394326 7.000000
11.601461 -3.531430 -0.894810 4.000000
16.759987 -14.456627 -1.582665 7.000000
6.460410 0.742925 -0.395461 7.000000
11.574592 -3.569657 -0.887364 1.000000
16.738043 -14.545030 -1.566168 7.000000
11.599950 -3.624090 -0.883923 1.000000
16.730677 -14.646601 -1.550991 7.000000
11.696239 -3.701281 -0.887983 1.000000
16.662725 -14.695337 -1.534089 7.000000
23.663347 32.343708 -0.580588 10.000000
11.668642 -3.739653 -0.882623 1.000000
16.662155 -14.803758 -1.515571 6.000000
23.710918 32.184223 -0.607048 21.000000
11.683610 -3.791727 -0.880491 1.000000
16.649652 -14.902202 -1.499804 7.000000
23.855082 32.132607 -0.656624 10.000000
11.694958 -3.838322 -0.877982 1.000000
9.216448 -8.307268 -0.821950 25.000000
23.978722 32.064686 -0.691893 1.000000
11.774395 -3.916820 -0.880765 1.000000
9.134752 -8.294515 -0.806556 22.000000
20.584635 27.316730 -0.626896 8.000000
18.452526 -6.217133 -1.371842 9.000000
9.078932 -8.304745 -0.795683 30.000000
20.646276 27.200464 -0.655689 8.000000
18.208189 -6.209214 -1.348611 9.000000
9.078296 -8.365483 -0.787492 8.000000
20.690811 27.052670 -0.683682 8.000000
17.978291 -6.204465 -1.326588 7.000000
16.428434 -15.250220 -1.410275 7.000000
20.839582 27.050983 -0.721248 8.000000
17.739246 -6.194822 -1.304025 6.000000
16.355097 -15.294125 -1.389165 6.000000
20.980944 27.028982 -0.764530 8.000000
17.596737 -6.210601 -1.288511 8.000000
16.411484 -15.454589 -1.378781 7.000000
17.375013 -6.210894 -1.264384 8.000000
16.344736 -15.505154 -1.358206 7.000000
17.223368 -6.221176 -1.248421 7.000000
16.360817 -15.634735 -1.344476 7.000000
17.030207 -6.228800 -1.226683 7.000000
16.322220 -15.712711 -1.326187 8.000000
16.904728 -6.253249 -1.212968 6.000000
25.195963 31.292698 -1.080100 7.000000
16.709593 -6.250785 -1.188091 6.000000
25.366316 31.268957 -1.131711 10.000000
16.660967 -6.295655 -1.182989 6.000000
7.658590 -7.533962 -0.602514 55.000000
25.348057 31.024473 -1.168046 10.000000
6.554447 0.318273 -0.410557 1.000000
16.628841 -6.353263 -1.176113 5.000000
7.627749 -7.558834 -0.592863 55.000000
25.340242 30.783936 -1.197304 10.000000
6.341204 0.284625 -0.397132 1.000000
7.543822 -7.530667 -0.579152 168.000000
25.460779 30.722170 -1.226061 10.000000
6.461799 0.266311 -0.405754 1.000000
7.531928 -7.571469 -0.570917 177.000000
25.628977 30.684549 -1.270386 10.000000
6.482763 0.241111 -0.407006 1.000000
25.718025 30.562784 -1.304132 10.000000
7.400075 -7.548798 -0.544751 226.000000
6.444418 0.193517 -0.404502 1.000000
7.383134 -7.586944 -0.536285 23.000000
6.420213 0.169240 -0.401815 1.000000
7.048077 -7.293401 -0.504921 23.000000
25.735203 29.919935 -1.398845 1.000000
7.014686 -7.312291 -0.495581 13.000000
25.808905 29.794615 -1.445411 46.000000
7.019130 -7.370813 -0.488897 7.000000
26.045219 29.845680 -1.487125 4.000000
7.137777 -7.547988 -0.489907 33.000000
26.255301 29.885780 -1.528219 1.000000
7.096681 -7.559841 -0.479917 20.000000
6.297346 0.050559 -0.396208 1.000000
7.283735 -7.816318 -0.485157 8.000000
6.372399 0.003337 -0.400917 1.000000
17.522848 19.392920 -1.100029 7.000000
17.744474 19.494085 -1.132495 7.000000
7.090433 -7.833385 -0.440991 22.000000
17.794735 19.405943 -1.158780 7.000000
7.079407 -7.870761 -0.432587 8.000000
17.892153 19.362402 -1.183326 5.000000
6.927598 -7.758991 -0.417772 173.000000
18.118849 19.477739 -1.217302 7.000000
6.919330 -7.807140 -0.406231 24.000000
18.257687 19.483307 -1.245175 7.000000
6.997896 -7.951532 -0.403213 214.000000
18.386532 19.484043 -1.272746 6.000000
6.663221 -7.627438 -0.376687 29.000000
18.484165 19.430647 -1.306936 7.000000
6.596109 -7.606705 -0.367428 19.000000
18.675232 19.487965 -1.343720 6.000000
6.543680 -7.599678 -0.355468 255.000000
18.808498 19.504004 -1.367857 7.000000
23.202089 -11.181377 -1.421935 6.000000
6.645846 -7.775788 -0.353626 19.000000
18.969484 19.527197 -1.398170 6.000000
22.867247 -11.118539 -1.390431 6.000000
6.677102 -7.867800 -0.345929 255.000000
19.060846 19.477890 -1.428248 5.000000
22.468430 -11.026627 -1.355485 6.000000
6.574362 -7.804541 -0.333171 39.000000
19.292463 19.570568 -1.464268 5.000000
22.133207 -10.962955 -1.324707 6.000000
6.558249 -7.838017 -0.324742 19.000000
19.394926 19.537624 -1.490953 7.000000
11.004825 4.288389 -0.755494 1.000000
6.624090 -7.978755 -0.318647 29.000000
19.567667 19.567667 -1.527774 7.000000
10.875525 4.192155 -0.755772 1.000000
6.455097 -7.833444 -0.304804 11.000000
19.702074 19.558176 -1.556962 8.000000
10.837845 4.136403 -0.756262 1.000000
6.481256 -0.373707 -0.410719 7.000000
26.200655 -13.338383 -1.525377 28.000000
6.510233 -7.956783 -0.296146 20.000000
19.829538 19.540932 -1.585737 13.000000
10.830647 4.083922 -0.760697 1.000000
6.464833 -0.398804 -0.408641 7.000000
26.142944 -13.429880 -1.519729 32.000000
6.396084 -7.875995 -0.285175 22.000000
20.032402 19.603483 -1.616110 9.000000
10.778444 4.023464 -0.760122 1.000000
6.518394 -0.423811 -0.409824 5.000000
25.660244 -13.301007 -1.469204 9.000000
6.379934 -7.915215 -0.273317 52.000000
20.153017 19.577431 -1.649563 8.000000
10.812857 3.986930 -0.767475 1.000000
6.621192 -0.456032 -0.417557 4.000000
24.611511 -12.872058 -1.406990 7.000000
6.514784 -8.140512 -0.273026 23.000000
20.352930 19.627155 -1.684788 9.000000
10.770647 3.926583 -0.771492 1.000000
23.845129 -12.582749 -1.346934 24.000000
20.481346 19.606623 -1.714290 10.000000
10.765940 3.880222 -0.774143 1.000000
32.510910 -2.347522 -2.050738 28.000000
23.111803 -12.304291 -1.294306 27.000000
6.270964 -7.951825 -0.245730 30.000000
20.693066 19.664461 -1.750970 9.000000
10.747067 3.828972 -0.773772 4.000000
32.442730 -2.462160 -2.041292 42.000000
6.158748 -7.868674 -0.231992 37.000000
20.840084 19.666189 -1.787713 10.000000
10.755812 3.787719 -0.781395 1.000000
32.447697 -2.582183 -2.053594 43.000000
6.171215 -7.941563 -0.226479 33.000000
21.009205 19.680710 -1.821241 9.000000
10.750391 3.741579 -0.785988 3.000000
32.473186 -2.704020 -2.050110 9.000000
21.142841 -11.551398 -1.148823 11.000000
6.065887 -7.865350 -0.213264 38.000000
21.131182 19.650055 -1.850843 9.000000
10.759056 3.700439 -0.789615 1.000000
32.468025 -2.823455 -2.050424 5.000000
20.540655 -11.320349 -1.114246 21.000000
6.324173 -8.259717 -0.214275 40.000000
21.044218 19.425846 -1.862074 10.000000
10.772285 3.660892 -0.793587 1.000000
19.984591 -11.109578 -1.070285 23.000000
6.227451 -8.195450 -0.201231 111.000000
21.011150 19.259920 -1.883165 7.000000
10.779741 3.621502 -0.801178 1.000000
19.486786 -10.926532 -1.034040 17.000000
6.194465 -8.214365 -0.192155 79.000000
20.438335 18.597452 -1.849925 7.000000
10.750074 3.567740 -0.801969 1.000000
26.718330 -2.624464 -1.689065 6.000000
19.012463 -10.752354 -0.995674 25.000000
6.216804 -8.304128 -0.182879 52.000000
20.353374 18.384233 -1.860167 7.000000
10.757938 3.526630 -0.807544 1.000000
26.520176 -2.703174 -1.672482 7.000000
18.487144 -10.544880 -0.966458 22.000000
6.243064 -8.403229 -0.175418 38.000000
20.363447 18.258249 -1.883734 7.000000
10.718062 3.470105 -0.811496 1.000000
18.158857 -10.446024 -0.936637 17.000000
6.276098 -8.509583 -0.167950 45.000000
10.741137 3.430000 -0.816151 3.000000
18.116552 -10.510248 -0.925447 22.000000
6.256778 -8.548803 -0.157174 33.000000
10.772388 3.396521 -0.821537 4.000000
18.088932 -10.578791 -0.911259 26.000000
6.694237 -9.213827 -0.157041 10.000000
10.732115 3.340626 -0.821471 1.000000
18.041840 -10.640185 -0.899858 24.000000
6.642957 -9.214076 -0.146715 10.000000
10.752392 3.307868 -0.826127 1.000000
20.610584 -2.483206 -1.295173 2.000000
18.033312 -10.724432 -0.886713 15.000000
6.733032 -9.408068 -0.139331 10.000000
10.765168 3.264552 -0.832017 1.000000
20.200212 -2.508909 -1.269955 1.000000
18.007263 -10.798478 -0.872688 25.000000
6.591477 -9.281970 -0.125182 22.000000
10.795187 3.232551 -0.839393 1.000000
19.815783 -2.527915 -1.242806 1.000000
17.976372 -10.869732 -0.865770 32.000000
6.507247 -9.231450 -0.114336 101.000000
10.777988 3.184403 -0.841087 2.000000
19.771082 -2.599402 -1.244113 1.000000
17.958124 -10.948783 -0.855787 20.000000
6.004970 -8.582360 -0.095067 199.000000
10.789021 3.144713 -0.848933 1.000000
19.583603 -2.647807 -1.229456 1.000000
17.911537 -11.006328 -0.848042 14.000000
5.927898 -8.538664 -0.085270 33.000000
10.776232 3.098178 -0.850964 1.000000
19.361433 -2.690065 -1.212694 5.000000
17.888563 -11.082736 -0.834157 31.000000
6.096693 -8.847567 -0.076889 20.000000
10.764311 3.048022 -0.852977 6.000000
19.315689 -2.762789 -1.213933 8.000000
17.860905 -11.156398 -0.823725 14.000000
6.078375 -8.890552 -0.065790 20.000000
10.778873 3.013572 -0.857264 5.000000
19.291819 -2.824689 -1.209598 9.000000
17.828279 -11.218378 -0.816568 16.000000
6.188077 -9.112319 -0.059597 24.000000
10.736402 2.959314 -0.860839 72.000000
19.251513 -2.890900 -1.211138 23.000000
17.796236 -11.298192 -0.802433 16.000000
6.143103 -9.124691 -0.047996 36.000000
10.766128 2.925092 -0.866275 9.000000
19.240999 -2.961473 -1.207741 7.000000
17.754929 -11.354752 -0.787529 21.000000
5.850396 -8.749123 -0.036739 34.000000
10.815510 2.893961 -0.873280 9.000000
19.299238 -3.042889 -1.208665 2.000000
17.736851 -11.439385 -0.773915 22.000000
10.796682 2.846560 -0.876793 1.000000
19.238480 -3.105617 -1.208979 7.000000
17.707312 -11.503656 -0.770596 22.000000
10.859814 2.820675 -0.885015 1.000000
19.251240 -3.183570 -1.207122 9.000000
17.690580 -11.594038 -0.760798 17.000000
10.835977 2.772129 -0.886168 28.000000
14.604419 -2.470153 -0.913716 1.000000
17.644346 -11.656407 -0.742164 21.000000
10.869628 2.738331 -0.895968 28.000000
14.634767 -2.530494 -0.913587 1.000000
17.612190 -11.723679 -0.731437 14.000000
5.909636 -9.194611 0.015261 9.000000
10.898788 2.703234 -0.899521 31.000000
14.590991 -2.578038 -0.911438 1.000000
9.950807 -6.676585 -0.405897 1.000000
5.918892 -9.283648 0.026902 9.000000
10.889109 2.656492 -0.905749 8.000000
9.878985 -6.676010 -0.401784 1.000000
5.635152 -8.907044 0.034952 39.000000
11.009920 2.643248 -0.918965 1.000000
9.854680 -6.712330 -0.393460 1.000000
5.563019 -8.857906 0.043815 28.000000
11.106363 2.623386 -0.932221 1.000000
9.871379 -6.776803 -0.388840 1.000000
5.555368 -8.921601 0.055030 32.000000
11.168661 2.594919 -0.944704 1.000000
17.490429 -12.101916 -0.683270 16.000000
5.529420 -8.949401 0.064263 7.000000
11.338243 2.590557 -0.960282 1.000000
17.452566 -12.166023 -0.668578 19.000000
5.541504 -9.035830 0.074001 15.000000
11.434962 2.566496 -0.975870 1.000000
17.428402 -12.253430 -0.658365 16.000000
5.524907 -9.086876 0.085382 10.000000
11.545969 2.546997 -0.990774 1.000000
12.856946 -2.615775 -0.804773 1.000000
17.391846 -12.314113 -0.654800 10.000000
5.445629 -9.023761 0.091978 6.000000
11.720445 2.540474 -1.009156 1.000000
12.881342 -2.669942 -0.809212 1.000000
17.383667 -12.404228 -0.637547 20.000000
11.963059 2.547192 -1.035685 1.000000
12.519897 -2.642921 -0.787109 1.000000
17.348558 -12.470796 -0.630387 11.000000
12.243169 -20.611652 0.255245 37.000000
11.986234 2.506238 -1.045500 1.000000
12.305070 -2.644718 -0.776412 1.000000
17.306959 -12.537357 -0.623075 14.000000
12.258776 -20.811272 0.278239 71.000000
12.302675 2.523139 -1.078872 1.000000
12.222428 -2.673860 -0.767427 1.000000
17.269224 -12.606791 -0.612171 10.000000
12.266646 -20.991850 0.301300 70.000000
12.094980 -2.692468 -0.770894 1.000000
17.255198 -12.693758 -0.609577 20.000000
12.164452 -20.993223 0.317619 38.000000
12.094119 -2.690061 -0.792519 1.000000
17.254223 -12.693041 -0.650702 16.000000
12.239836 -21.123320 0.289756 36.000000
12.343395 2.531490 -1.120115 1.000000
12.141559 -2.658389 -0.801581 1.000000
17.289791 -12.626431 -0.672818 19.000000
12.217862 -20.916744 0.253679 36.000000
11.948715 2.496217 -1.087269 1.000000
12.268660 -2.634653 -0.818064 1.000000
17.307049 -12.542028 -0.694102 19.000000
12.259065 -20.811762 0.223436 43.000000
11.807522 2.514074 -1.075292 1.000000
12.414219 -2.618349 -0.838244 1.000000
17.342112 -12.475346 -0.712420 10.000000
12.247529 -20.627190 0.192602 36.000000
11.773891 2.552059 -1.073074 1.000000
12.583605 -2.610521 -0.855851 1.000000
17.391169 -12.414163 -0.734963 13.000000
12.304164 -20.558758 0.163089 31.000000
11.550292 2.547951 -1.055620 1.000000
12.661233 -2.578259 -0.865013 1.000000
17.415527 -12.335445 -0.756453 13.000000
12.412112 -20.575794 0.130014 24.000000
11.433970 2.566274 -1.045841 1.000000
12.909858 -2.579644 -0.888271 1.000000
17.437384 -12.259746 -0.777890 10.000000
12.549877 -20.632809 0.101159 36.000000
11.332138 2.589162 -1.033339 1.000000
12.918921 -2.532250 -0.892866 1.000000
17.469458 -12.186863 -0.792213 14.000000
5.725574 -9.339627 0.034416 6.000000
11.293640 2.623957 -1.028659 1.000000
12.976642 -2.494210 -0.903169 1.000000
17.497118 -12.111061 -0.806327 10.000000
5.545281 -8.975070 0.022096 39.000000
11.090065 2.619537 -1.010984 1.000000
13.279346 -2.501958 -0.930701 1.000000
9.887328 -6.792831 -0.467127 1.000000
5.591367 -8.975921 0.009228 19.000000
10.993218 2.639238 -1.003031 1.000000
13.352464 -2.462682 -0.937537 1.000000
9.853953 -6.716873 -0.476892 1.000000
5.590764 -8.905535 -0.005506 28.000000
10.954779 2.672513 -0.996444 1.000000
13.734128 -2.481060 -0.968586 1.000000
9.886504 -6.686120 -0.485624 4.000000
5.707354 -9.021167 -0.016768 18.000000
10.881761 2.699011 -0.988765 28.000000
13.840861 -2.447990 -0.982869 1.000000
9.948069 -6.674748 -0.493726 6.000000
5.826405 -9.135066 -0.028366 10.000000
10.944577 2.757212 -0.991414 8.000000
14.218171 -2.461016 -1.011546 1.000000
17.630156 -11.740079 -0.887764 10.000000
5.871755 -9.135672 -0.039804 1.000000
4.366589 3.478322 -0.500201 1.000000
10.881319 2.783728 -0.986602 1.000000
17.647276 -11.658343 -0.908657 17.000000
12.962320 -20.013712 -0.116528 35.000000
4.343646 3.483652 -0.494975 1.000000
10.837296 2.814826 -0.983539 1.000000
17.684902 -11.590317 -0.930585 21.000000
13.101102 -20.066414 -0.146393 28.000000
4.380242 3.541990 -0.496798 1.000000
10.817108 2.853964 -0.978759 4.000000
19.254833 -3.115154 -1.394728 7.000000
17.722527 -11.522342 -0.945123 15.000000
6.158180 -9.360684 -0.080181 11.000000
4.278747 3.485932 -0.481880 1.000000
10.802093 2.892391 -0.974420 5.000000
19.260952 -3.043744 -1.397775 8.000000
17.749491 -11.451924 -0.959200 17.000000
10.767385 2.925434 -0.972250 8.000000
19.306240 -2.978414 -1.403687 10.000000
17.765390 -11.370181 -0.976246 20.000000
5.844339 -8.746671 -0.099147 28.000000
10.771323 2.968940 -0.969652 9.000000
19.287195 -2.903143 -1.404941 17.000000
17.814800 -11.309978 -0.991441 17.000000
6.187500 -9.190636 -0.116027 8.000000
10.775086 3.012513 -0.967043 18.000000
19.272305 -2.828703 -1.413344 29.000000
17.830187 -11.228267 -1.004743 19.000000
6.139659 -9.047814 -0.125959 21.000000
4.458466 3.739771 -0.491726 1.000000
10.754711 3.049360 -0.962280 5.000000
19.312403 -2.758879 -1.418920 10.000000
17.860048 -11.160197 -1.022646 13.000000
6.188029 -9.050937 -0.141614 39.000000
4.527378 3.828640 -0.496848 1.000000
10.762074 3.096141 -0.963995 4.000000
19.316706 -2.687288 -1.428769 8.000000
17.900223 -11.094283 -1.037349 14.000000
5.950086 -8.638035 -0.144633 29.000000
10.803582 3.151003 -0.964784 5.000000
19.395359 -2.625803 -1.437300 7.000000
17.927383 -11.020374 -1.051302 10.000000
5.896083 -8.492837 -0.153391 33.000000
10.744187 3.176455 -0.960513 6.000000
19.513369 -2.568983 -1.448791 7.000000
17.975391 -10.959311 -1.070174 10.000000
6.002929 -8.582631 -0.170018 220.000000
10.775743 3.228779 -0.960430 3.000000
19.586700 -2.505640 -1.457009 4.000000
18.014793 -10.892963 -1.084871 10.000000
5.979531 -8.482811 -0.177533 27.000000
10.773693 3.271244 -0.957351 1.000000
19.788231 -2.457740 -1.478319 1.000000
18.034925 -10.819346 -1.098525 10.000000
5.956893 -8.388363 -0.186768 23.000000
10.723277 3.300959 -0.950046 32.000000
19.811703 -2.386955 -1.482911 1.000000
18.082544 -10.757984 -1.110063 10.000000
6.048578 -8.451679 -0.199557 39.000000
10.696997 3.335840 -0.946824 238.000000
18.155241 -10.711335 -1.134246 9.000000
6.051584 -8.393816 -0.211336 36.000000
10.699265 3.379625 -0.944171 235.000000
18.172319 -10.631813 -1.143926 9.000000
6.145340 -8.461441 -0.224533 24.000000
10.682375 3.417400 -0.939837 227.000000
18.232059 -10.577260 -1.159998 8.000000
6.205693 -8.479003 -0.236610 28.000000
10.704479 3.463643 -0.938832 226.000000
18.331047 -10.553596 -1.182579 8.000000
6.184710 -8.394871 -0.245728 28.000000
19.258545 17.413647 -1.988700 1.000000
10.700114 3.509743 -0.937698 227.000000
18.492115 -10.551994 -1.205258 14.000000
6.242023 -8.401828 -0.259458 7.000000
19.413332 17.683361 -1.988315 8.000000
10.673920 3.542466 -0.932528 226.000000
26.748516 -2.632142 -2.039816 5.000000
19.012964 -10.765780 -1.248349 20.000000
6.238204 -8.335747 -0.268999 83.000000
19.456198 17.853327 -1.976219 9.000000
10.697705 3.598097 -0.931893 221.000000
27.270115 -2.572983 -2.078789 7.000000
19.538500 -10.960011 -1.295647 25.000000
6.235467 -8.268738 -0.276616 25.000000
19.387697 17.915527 -1.952437 17.000000
10.694187 3.640598 -0.928773 37.000000
28.519407 -2.595469 -2.178380 2.000000
20.001087 -11.123319 -1.335633 36.000000
19.260599 17.929401 -1.932390 10.000000
10.723636 3.694538 -0.926522 1.000000
29.651258 -2.583720 -2.269284 5.000000
20.543137 -11.326390 -1.393700 26.000000
6.120931 -7.997164 -0.291857 36.000000
19.108673 17.919151 -1.900741 10.000000
10.748975 3.743189 -0.929778 1.000000
31.931028 -2.664487 -2.442997 1.000000
21.114141 -11.550077 -1.442478 32.000000
6.054026 -7.852803 -0.297750 80.000000
18.978809 17.928553 -1.871446 13.000000
10.767522 3.798181 -0.922664 1.000000
31.721487 -2.529962 -2.431826 1.000000
6.196040 -7.976382 -0.312117 143.000000
18.885244 17.971609 -1.845836 9.000000
10.739447 3.832595 -0.921456 1.000000
31.849854 -2.422756 -2.440970 1.000000
6.248276 -7.985930 -0.323971 37.000000
18.762794 17.986588 -1.817505 7.000000
10.769176 3.883513 -0.921085 1.000000
6.233978 -7.907764 -0.332281 77.000000
18.783569 18.132748 -1.802744 7.000000
10.759319 3.926708 -0.915489 1.000000
6.760274 -3.537191 -0.482697 1.000000
6.227142 -7.842629 -0.340954 42.000000
18.954138 18.432095 -1.802405 7.000000
10.749829 3.967953 -0.911887 1.000000
6.752041 -3.498431 -0.485100 1.000000
6.302443 -7.877999 -0.354071 40.000000
19.528805 19.130695 -1.844534 7.000000
10.773017 4.021438 -0.909040 1.000000
6.323397 -7.847877 -0.364275 26.000000
19.729570 19.469589 -1.845927 9.000000
10.819126 4.083892 -0.910125 1.000000
6.167768 -0.329716 -0.477430 8.000000
6.377069 -7.855381 -0.376315 34.000000
19.666290 19.549934 -1.822393 9.000000
10.762321 4.107578 -0.904584 1.000000
6.471052 -7.920173 -0.389329 15.000000
19.497004 19.517431 -1.783996 7.000000
10.835996 4.181262 -0.905940 1.000000
6.639775 -3.320604 -0.490486 1.000000
6.493001 -7.882244 -0.399453 23.000000
19.338587 19.501280 -1.751963 7.000000
10.899842 4.251863 -0.908466 1.000000
6.638104 -3.289409 -0.495963 1.000000
6.666988 -8.036132 -0.417555 22.000000
19.197823 19.501776 -1.726492 6.000000
10.995930 4.335846 -0.911567 1.000000
6.606357 -7.903917 -0.424546 39.000000
19.005188 19.448156 -1.691744 7.000000
6.583508 -7.818167 -0.431956 255.000000
18.875647 19.450964 -1.662504 7.000000
6.691184 -7.889973 -0.449873 87.000000
18.832823 19.536049 -1.640661 7.000000
6.736076 -7.884144 -0.458199 131.000000
18.610241 19.447306 -1.603894 6.000000
6.767061 -7.870213 -0.467698 10.000000
18.440336 19.418482 -1.567525 7.000000
6.559164 -3.069746 -0.511488 1.000000
6.634697 -7.653904 -0.467052 6.000000
18.321852 19.435879 -1.544787 7.000000
6.546525 -3.037407 -0.512246 4.000000
6.660994 -7.630262 -0.479427 181.000000
18.197014 19.445753 -1.512280 7.000000
6.580027 -3.023692 -0.517808 8.000000
6.698532 -7.616731 -0.488988 59.000000
18.017611 19.396046 -1.484728 6.000000
6.622592 -3.013902 -0.524114 10.000000
6.729371 -7.595479 -0.499856 27.000000
17.907005 19.412432 -1.448823 6.000000
6.657037 -2.997379 -0.531007 22.000000
6.931754 -7.769103 -0.521980 42.000000
17.701712 19.331572 -1.414994 7.000000
6.693050 -2.989741 -0.535742 9.000000
6.946522 -7.728447 -0.530047 9.000000
17.628366 19.393711 -1.387280 7.000000
6.754912 -2.984906 -0.543618 9.000000
6.981851 -7.716131 -0.539892 9.000000
17.487831 19.360960 -1.358170 7.000000
6.801052 -2.978377 -0.550442 10.000000
17.290865 19.284523 -1.325690 7.000000
7.177977 -7.819676 -0.571153 9.000000
17.187576 19.297691 -1.304582 7.000000
6.315159 0.078260 -0.494834 1.000000
6.941383 -2.979384 -0.566646 6.000000
7.189300 -7.774618 -0.579050 5.000000
17.110931 19.347193 -1.281287 7.000000
6.988693 -2.969404 -0.573614 5.000000
7.156868 -7.688241 -0.583576 68.000000
16.931908 19.300343 -1.246721 7.000000
6.944103 -2.920458 -0.573038 1.000000
7.220067 -7.696663 -0.597401 98.000000
16.812738 19.293188 -1.220267 7.000000
7.078753 -2.946600 -0.587293 1.000000
6.963302 -7.368636 -0.582793 34.000000
16.644806 19.235632 -1.186247 6.000000
7.001108 -7.359600 -0.592806 101.000000
16.587875 19.312441 -1.164962 6.000000
7.141036 -2.911295 -0.600152 1.000000
7.047111 -7.356366 -0.603444 24.000000
16.436747 19.278999 -1.132719 7.000000
7.290139 -2.954292 -0.614924 1.000000
6.954723 -7.201826 -0.605327 42.000000
16.263601 19.211340 -1.098990 6.000000
7.317374 -2.940082 -0.616482 1.000000
6.987736 -7.183138 -0.612927 68.000000
16.167976 19.240950 -1.075314 6.000000
7.362709 -2.932955 -0.625133 1.000000
7.233235 -7.388916 -0.643291 39.000000
16.008734 19.187025 -1.038588 6.000000
6.458655 0.294415 -0.504294 1.000000
7.421864 -2.932532 -0.629458 7.000000
7.354555 -7.457968 -0.658987 9.000000
16.040728 19.369251 -1.027675 2.000000
7.464750 -2.917891 -0.636407 1.000000
7.205600 -7.253549 -0.652211 1.000000
15.827617 19.248297 -0.996538 1.000000
7.526324 -2.910205 -0.643577 1.000000
16.190018 -6.192081 -1.397685 8.000000
7.385190 -7.326134 -0.683643 8.000000
16.342665 -6.181898 -1.415036 9.000000
7.531041 -7.418841 -0.705862 3.000000
25.290430 31.443712 -1.493759 1.000000
16.523214 -6.181064 -1.437996 9.000000
16.222916 -15.853407 -1.538410 7.000000
25.363020 31.771708 -1.462285 1.000000
16.704195 -6.179070 -1.458024 8.000000
7.247880 -7.035960 -0.692181 8.000000
23.347279 29.456934 -1.306010 7.000000
16.894972 -6.179338 -1.475850 9.000000
7.363064 -7.095542 -0.707865 16.000000
17.088253 -6.185861 -1.497321 8.000000
7.365716 -7.048676 -0.714691 8.000000
17.248278 -6.165590 -1.518818 7.000000
7.564613 -7.186081 -0.740579 7.000000
20.923046 26.993280 -1.085227 8.000000
17.472847 -6.170305 -1.549521 8.000000
16.379959 -15.435692 -1.617268 6.000000
20.777565 26.999706 -1.046851 9.000000
17.669403 -6.166972 -1.564937 6.000000
16.433659 -15.383728 -1.637271 7.000000
20.666771 27.060366 -1.022466 8.000000
11.836116 -4.082435 -1.057968 17.000000
16.494783 -15.322534 -1.665141 6.000000
20.566887 27.125355 -0.980578 8.000000
11.813272 -4.026168 -1.054600 1.000000
9.069442 -8.369040 -0.919246 33.000000
20.561092 27.325161 -0.949231 8.000000
11.865373 -3.995445 -1.062338 1.000000
9.065592 -8.298357 -0.926258 34.000000
24.051836 32.174164 -1.079965 1.000000
11.778769 -3.922842 -1.059961 1.000000
9.121967 -8.294533 -0.940024 26.000000
23.851925 32.175262 -1.020818 7.000000
11.784955 -3.872417 -1.059111 1.000000
9.199123 -8.297476 -0.953234 3.000000
23.731098 32.246956 -0.985497 10.000000
5.169209 2.998897 -0.325748 1.000000
11.723214 -3.802318 -1.060909 1.000000
16.610449 -14.882784 -1.735668 7.000000
23.648623 32.382843 -0.951981 8.000000
11.679790 -3.740978 -1.060045 1.000000
16.657515 -14.804837 -1.757843 7.000000
23.541567 32.449802 -0.902765 3.000000
11.653786 -3.690084 -1.060867 2.000000
16.705593 -14.748702 -1.773401 7.000000
23.387966 32.487934 -0.859495 3.000000
6.138511 0.735233 -0.467026 5.000000
11.643107 -3.639804 -1.062964 3.000000
16.710833 -14.649848 -1.788035 6.000000
23.245865 32.529415 -0.816553 1.000000
6.155649 0.760181 -0.467450 8.000000
11.608598 -3.582363 -1.060744 3.000000
16.714832 -14.545354 -1.794424 7.000000
6.177632 0.785894 -0.468242 6.000000
11.635588 -3.544037 -1.066295 4.000000
16.759296 -14.476449 -1.812943 6.000000
27.194290 38.636196 -0.865945 29.000000
6.273585 0.821478 -0.475740 7.000000
11.572432 -3.476300 -1.063526 187.000000
16.735378 -14.349022 -1.824023 7.000000
27.011900 38.691864 -0.815430 7.000000
11.576384 -3.426883 -1.066864 191.000000
16.820789 -14.315615 -1.847009 7.000000
20.127722 2.703491 -1.516309 1.000000
11.572985 -3.384178 -1.069752 228.000000
16.872156 -14.253030 -1.862429 7.000000
19.841337 2.739096 -1.491965 1.000000
11.584951 -3.341634 -1.073961 180.000000
16.892492 -14.164438 -1.878307 8.000000
19.964222 2.834220 -1.498474 4.000000
11.573959 -3.288195 -1.075943 193.000000
16.901985 -14.057234 -1.892398 7.000000
19.786194 2.882967 -1.482385 1.000000
11.570619 -3.243640 -1.078802 189.000000
16.912926 -13.971712 -1.903855 7.000000
19.760958 2.953295 -1.477789 5.000000
11.572465 -3.198456 -1.082099 191.000000
16.912657 -13.867514 -1.917322 8.000000
19.779825 3.030272 -1.476509 6.000000
11.554918 -3.148066 -1.083586 14.000000
17.000694 -13.835808 -1.940817 8.000000
19.739538 3.098189 -1.467327 23.000000
11.600044 -3.114733 -1.086740 6.000000
17.062122 -13.782154 -1.953624 7.000000
19.856819 3.191212 -1.466318 7.000000
11.616900 -3.069317 -1.091385 9.000000
17.092655 -13.693798 -1.970076 7.000000
19.815718 3.259155 -1.460632 1.000000
11.623412 -3.023340 -1.095125 10.000000
17.087082 -13.586809 -1.979046 8.000000
19.956341 3.357452 -1.468343 2.000000
11.614936 -2.975727 -1.095402 15.000000
17.174490 -13.553863 -2.002654 7.000000
19.821878 3.406022 -1.455787 10.000000
11.619913 -2.935974 -1.094947 14.000000
17.152170 -13.444187 -2.002513 7.000000
21.284462 33.422783 -0.172896 8.000000
19.700243 3.466595 -1.444355 94.000000
11.605691 -2.887170 -1.101022 16.000000
8.617517 -6.703724 -1.014749 17.000000
21.237206 33.606922 -0.124894 8.000000
19.683485 3.538071 -1.430033 76.000000
11.616383 -2.844660 -1.098934 30.000000
8.649487 -6.677852 -1.021396 85.000000
21.079416 33.629543 -0.090054 8.000000
19.739304 3.622840 -1.431523 5.000000
11.631686 -2.801111 -1.103568 24.000000
8.653438 -6.630424 -1.028583 87.000000
20.964584 33.707230 -0.041568 8.000000
11.603117 -2.749276 -1.099894 26.000000
8.590084 -6.532052 -1.023901 28.000000
20.859934 33.801498 0.006932 4.000000
13.100706 2.499094 -0.939627 1.000000
11.646683 -2.714554 -1.107283 10.000000
8.545854 -6.449121 -1.023347 9.000000
13.228704 2.573796 -0.947114 4.000000
11.675776 -2.676255 -1.111218 9.000000
8.556765 -6.408268 -1.031249 9.000000
19.319788 31.812981 0.090946 85.000000
13.008971 2.580565 -0.929727 1.000000
11.695301 -2.633505 -1.116327 2.000000
8.571626 -6.370494 -1.037745 13.000000
19.198242 31.862999 0.129852 99.000000
12.936186 2.615442 -0.920575 1.000000
11.719647 -2.593892 -1.115622 1.000000
5.719129 -4.191904 -0.696516 7.000000
19.089386 31.933973 0.168830 69.000000
11.796801 -2.565649 -1.126315 1.000000
5.770175 -4.196896 -0.707142 6.000000
21.871050 36.893692 0.254513 8.000000
12.292567 2.579249 -0.865081 1.000000
11.810801 -2.523393 -1.128887 1.000000
21.739450 36.965252 0.299391 1.000000
12.185616 2.603473 -0.856035 1.000000
11.883354 -2.491221 -1.139175 1.000000
5.710995 -4.090178 -0.706102 1.000000
11.962093 2.601598 -0.832411 1.000000
11.970420 -2.463707 -1.146648 1.000000
5.827743 -4.140030 -0.722347 1.000000
11.743180 2.599100 -0.815726 1.000000
12.106041 -2.445404 -1.160947 1.000000
11.626327 2.620106 -0.804123 1.000000
12.163553 -2.410655 -1.167791 1.000000
11.505211 2.637159 -0.790201 1.000000
12.319320 -2.392402 -1.181855 1.000000
23.669128 41.920357 0.630199 27.000000
11.330802 2.640930 -0.770723 1.000000
12.382002 -2.357514 -1.184812 1.000000
23.480797 41.945152 0.679622 247.000000
5.133647 3.892415 -0.181079 1.000000
11.282339 2.673270 -0.766055 1.000000
12.566314 -2.344912 -1.206120 1.000000
23.338610 42.034729 0.746895 255.000000
5.159211 3.941662 -0.175685 1.000000
11.166990 2.687142 -0.746776 1.000000
12.898644 -2.358037 -1.230253 2.000000
23.333498 42.025524 0.780298 255.000000
5.118478 3.896413 -0.168449 1.000000
11.138638 2.680319 -0.732833 1.000000
23.485189 41.935825 0.746662 247.000000
5.104737 3.856482 -0.170882 1.000000
11.333151 2.683221 -0.740896 1.000000
12.564279 -2.344532 -1.174423 1.000000
23.671070 41.923794 0.705891 42.000000
5.106792 3.828716 -0.172710 1.000000
11.391633 2.653012 -0.742029 1.000000
12.399681 -2.360880 -1.153174 1.000000
11.678530 2.674741 -0.760073 1.000000
12.298659 -2.388390 -1.137971 1.000000
6.021102 -4.212890 -0.732194 1.000000
11.678260 2.629668 -0.763619 1.000000
12.221208 -2.422081 -1.129465 1.000000
5.851515 -4.126261 -0.708358 1.000000
11.911797 2.636420 -0.780390 1.000000
12.090986 -2.442363 -1.109568 1.000000
5.950529 -4.228821 -0.714496 1.000000
12.063236 2.621390 -0.789647 1.000000
12.028488 -2.475658 -1.102497 1.000000
12.331532 2.632398 -0.804362 1.000000
11.932345 -2.501492 -1.085938 1.000000
5.730270 -4.154124 -0.677758 1.000000
21.871971 36.880573 0.366710 29.000000
12.511747 2.622958 -0.819965 1.000000
11.859523 -2.533803 -1.078055 1.000000
5.771657 -4.216484 -0.679440 10.000000
19.104414 31.959112 0.285941 9.000000
12.697079 2.613265 -0.833750 1.000000
11.767607 -2.559299 -1.068427 1.000000
8.954507 -6.551308 -1.052710 8.000000
19.180267 31.820601 0.246419 109.000000
4.992841 3.507725 -0.196023 1.000000
12.965499 2.619013 -0.855376 1.000000
11.792914 -2.610108 -1.063088 1.000000
8.819124 -6.502019 -1.028013 12.000000
19.319885 31.800631 0.214313 149.000000
4.935858 3.440741 -0.197494 1.000000
13.224772 2.620974 -0.869478 1.000000
11.754292 -2.646789 -1.058354 1.000000
8.763838 -6.510973 -1.016655 8.000000
19.488321 31.826982 0.175866 40.000000
5.107990 3.534303 -0.208228 1.000000
11.744403 -2.691985 -1.054149 1.000000
8.828307 -6.609225 -1.017230 1.000000
20.926107 33.895485 0.146003 5.000000
11.730144 -2.734006 -1.047407 1.000000
20.975697 33.711983 0.097018 9.000000
11.715551 -2.775917 -1.042771 1.000000
9.351889 -7.108766 -1.062861 28.000000
21.027411 33.520561 0.069063 9.000000
19.784014 3.620339 -1.307669 13.000000
11.686629 -2.814342 -1.032653 5.000000
9.278914 -7.107105 -1.049294 26.000000
21.195084 33.527306 0.027691 9.000000
19.758028 3.537232 -1.312081 23.000000
11.671572 -2.856015 -1.030128 4.000000
9.241840 -7.132605 -1.035729 19.000000
21.336166 33.491070 -0.020792 9.000000
19.731318 3.457863 -1.312968 95.000000
11.670537 -2.903302 -1.026784 6.000000
9.247659 -7.191332 -1.031085 1.000000
19.753920 3.387246 -1.310124 30.000000
11.602202 -2.931499 -1.017503 27.000000
17.126469 -13.419214 -1.895887 8.000000
19.716770 3.306531 -1.310352 1.000000
11.609985 -2.983098 -1.015013 6.000000
17.097206 -13.507404 -1.879477 7.000000
19.905550 3.263226 -1.329165 3.000000
11.585736 -3.017858 -1.011658 3.000000
17.076735 -13.583449 -1.866822 7.000000
19.794445 3.170556 -1.317448 10.000000
11.599363 -3.066850 -1.005387 6.000000
17.071117 -13.681437 -1.848602 8.000000
19.845139 3.104117 -1.323576 9.000000
11.583028 -3.110164 -1.000783 3.000000
17.039764 -13.754269 -1.834999 7.000000
19.895149 3.037279 -1.336745 9.000000
11.586310 -3.156618 -0.997839 6.000000
