VERSION .7
FIELDS x y z intensity
SIZE 4 4 4 4
TYPE F F F F
COUNT 1 1 1 1
WIDTH 1219
HEIGHT 1
VIEWPOINT 0 0 0 1 0 0 0
POINTS 1219
DATA ascii
33.048550 -15.983409 6.044508 7.000000
6.473986 -7.623068 1.217361 1.000000
34.255878 -16.420019 6.227569 8.000000
14.563514 -17.021584 2.710888 24.000000
24.804398 26.833244 4.137538 9.000000
14.605121 -16.819046 2.671945 23.000000
23.354156 25.450893 3.929481 10.000000
37.400349 -17.448015 6.728653 17.000000
14.655540 -16.770395 2.659688 21.000000
24.418592 26.798075 4.137113 20.000000
37.609535 -17.378044 6.739938 22.000000
14.688166 -16.672182 2.633777 31.000000
24.268284 26.829988 4.153868 17.000000
37.752880 -17.284618 6.739896 19.000000
14.720725 -16.586182 2.612999 22.000000
24.018511 26.750277 4.153301 22.000000
37.921505 -17.193979 6.743789 21.000000
14.736549 -16.493517 2.598257 26.000000
23.855974 26.747149 4.153187 32.000000
38.160549 -17.150030 6.761161 9.000000
14.761564 -16.400133 2.576437 23.000000
23.986788 27.093071 4.212424 14.000000
38.349678 -17.074377 6.761518 20.000000
14.823262 -16.353514 2.561608 29.000000
23.919632 27.207987 4.242919 21.000000
38.540638 -16.990414 6.769078 20.000000
14.830417 -16.241379 2.540870 22.000000
23.880322 27.364885 4.272988 22.000000
38.771629 -16.930851 6.799226 10.000000
14.863841 -16.158644 2.524784 25.000000
23.723614 27.387291 4.275704 26.000000
38.969196 -16.847330 6.792596 22.000000
14.927535 -16.108988 2.510023 30.000000
23.700386 27.554241 4.314556 30.000000
39.163406 -16.761190 6.808069 15.000000
14.913087 -15.975549 2.482276 17.000000
23.842770 27.926167 4.378579 17.000000
39.396610 -16.698530 6.823117 13.000000
14.952338 -15.905926 2.471835 29.000000
23.712597 27.980726 4.399449 9.000000
39.664646 -16.640907 6.843534 8.000000
14.997760 -15.837524 2.458164 32.000000
23.780952 28.270819 4.450949 9.000000
39.823921 -16.544489 6.853292 19.000000
15.022882 -15.748038 2.433573 29.000000
21.576853 25.833103 4.079114 8.000000
40.055489 -16.468803 6.867210 10.000000
15.078349 -15.696115 2.425975 31.000000
20.745737 25.023888 3.956574 8.000000
40.268757 -16.384205 6.877876 24.000000
15.099227 -15.602976 2.400936 27.000000
40.482571 -16.306728 6.896823 23.000000
15.112087 -15.502162 2.382456 34.000000
40.727821 -16.232277 6.912737 16.000000
15.158939 -15.436624 2.373264 30.000000
20.113480 24.802652 3.937867 8.000000
40.993237 -16.172464 6.932397 10.000000
15.202595 -15.368000 2.355992 30.000000
20.642569 25.628345 4.081395 12.000000
41.140785 -16.056669 6.939452 21.000000
15.194713 -15.258494 2.335508 21.000000
20.320522 25.436863 4.066729 10.000000
41.413593 -15.988481 6.959659 17.000000
15.236734 -15.183641 2.317796 26.000000
20.140877 25.393250 4.065728 21.000000
41.627174 -15.904199 6.978212 20.000000
15.285789 -15.121269 2.309219 32.000000
20.034191 25.431505 4.072672 21.000000
41.775272 -15.785560 6.977321 12.000000
15.317424 -15.041883 2.290494 25.000000
19.997374 25.595470 4.109079 9.000000
46.029518 -17.209732 7.660216 9.000000
15.334145 -14.948298 2.273447 27.000000
19.521845 25.158340 4.045429 10.000000
46.360188 -17.139956 7.678233 9.000000
15.354931 -14.864381 2.257507 29.000000
19.395855 25.176941 4.060056 23.000000
46.348450 -16.942781 7.665952 9.000000
15.385343 -14.784973 2.238934 20.000000
19.286886 25.244457 4.080969 19.000000
45.395641 -16.415073 7.490209 9.000000
15.411489 -14.701829 2.223608 25.000000
19.165802 25.259165 4.089927 8.000000
45.727829 -16.345926 7.517724 9.000000
15.451109 -14.631834 2.217817 31.000000
15.464723 -14.547758 2.194107 25.000000
43.832066 -15.315426 7.162964 9.000000
15.499490 -14.468688 2.179921 18.000000
18.780733 25.315960 4.121922 14.000000
15.553252 -14.412557 2.168819 16.000000
18.688620 25.385712 4.150080 20.000000
15.558937 -14.312189 2.154826 27.000000
18.648331 25.517071 4.177724 26.000000
37.350605 -12.613425 6.053680 6.000000
15.596399 -14.251457 2.138556 27.000000
18.427841 25.410347 4.171463 11.000000
37.350365 -12.446537 6.038461 8.000000
15.654310 -14.189485 2.127493 14.000000
18.274981 25.394897 4.180133 28.000000
43.055614 -14.197614 6.945490 12.000000
15.652529 -14.088654 2.113129 19.000000
18.161905 25.424490 4.191197 8.000000
43.105167 -14.022355 6.928154 9.000000
15.675204 -14.005407 2.098130 23.000000
18.373508 25.921047 4.284506 8.000000
43.159706 -13.873686 6.920997 8.000000
15.708640 -13.932081 2.084653 27.000000
18.330812 26.062763 4.319448 12.000000
15.730536 -13.848826 2.069728 18.000000
18.309986 26.236992 4.359921 15.000000
44.216393 -13.873529 7.049912 9.000000
15.764609 -13.781445 2.056799 26.000000
18.112617 26.148188 4.351596 8.000000
44.261005 -13.718002 7.041073 10.000000
15.811036 -13.729796 2.045835 33.000000
17.717535 25.779173 4.301598 10.000000
44.118347 -13.496753 7.002224 20.000000
15.809287 -13.626961 2.028100 34.000000
17.992353 26.385695 4.414490 15.000000
44.565014 -13.446485 7.048248 9.000000
15.860885 -13.560845 2.016690 25.000000
17.932154 26.495642 4.439458 21.000000
44.541752 -13.261545 7.045131 9.000000
15.899899 -13.493640 2.004329 22.000000
17.855276 26.591499 4.467319 9.000000
44.686260 -13.143407 7.052740 9.000000
15.911108 -13.412642 1.989128 10.000000
18.657919 27.986948 4.715274 9.000000
45.195957 -13.122087 7.100707 9.000000
15.958362 -13.357465 1.981863 10.000000
18.611301 28.150623 4.754799 9.000000
45.075012 -12.908026 7.057487 9.000000
16.000351 -13.293185 1.970024 10.000000
17.241959 26.268353 4.449565 8.000000
45.235031 -12.774646 7.083552 9.000000
16.003408 -13.196884 1.957126 18.000000
17.145473 26.351341 4.474319 8.000000
45.399609 -12.650178 7.093954 9.000000
16.030073 -13.111120 1.942996 12.000000
17.736776 27.469412 4.671089 8.000000
44.645866 -12.263993 6.960843 9.000000
16.063349 -13.040369 1.930294 10.000000
44.433025 -12.038883 6.904633 21.000000
16.124136 -13.005892 1.925386 22.000000
17.699480 27.836195 4.771094 9.000000
44.241604 -11.813132 6.876285 7.000000
16.094486 -12.884894 1.908935 11.000000
17.585888 27.882730 4.779739 8.000000
44.410095 -11.683913 6.887575 9.000000
16.150181 -12.832632 1.899056 25.000000
17.172613 27.460590 4.719125 8.000000
44.485275 -11.537814 6.884745 19.000000
16.190065 -12.767800 1.887344 23.000000
16.920555 27.258183 4.697549 8.000000
44.605087 -11.394570 6.888564 34.000000
16.194139 -12.675022 1.875152 18.000000
44.753712 -11.266271 6.913635 11.000000
16.231405 -12.603987 1.866617 21.000000
17.085033 27.978796 4.852635 8.000000
44.743084 -11.089370 6.897442 26.000000
16.250481 -12.532638 1.849576 13.000000
44.779793 -10.924417 6.888658 8.000000
16.288652 -12.467134 1.845099 22.000000
8.776248 -6.666365 0.985539 9.000000
19.896347 33.389683 5.843570 9.000000
8.765240 -6.607481 0.975784 9.000000
19.929075 33.711655 5.908677 10.000000
83.963654 -19.538954 12.852977 3.000000
8.812313 -6.594851 0.976519 7.000000
19.798290 33.772373 5.934517 10.000000
8.880817 -6.595478 0.975587 4.000000
19.287239 33.178741 5.845154 9.000000
16.434883 -12.112414 1.796947 16.000000
19.207376 33.321854 5.892272 9.000000
84.032333 -18.598747 12.816573 1.000000
16.471884 -12.046768 1.785385 10.000000
19.454388 34.024334 6.032453 10.000000
82.657166 -17.976845 12.581609 1.000000
16.488209 -11.966201 1.775224 18.000000
19.480471 34.361614 6.114844 10.000000
16.538465 -11.914758 1.768977 11.000000
19.449137 34.601330 6.173153 6.000000
84.187752 -17.679766 12.825696 11.000000
16.566063 -11.842652 1.763693 19.000000
18.747232 33.640667 6.023889 1.000000
84.396446 -17.416225 12.832775 2.000000
16.606047 -11.779506 1.752602 10.000000
18.541126 33.545666 6.029522 4.000000
84.467209 -17.108299 12.849290 7.000000
16.592327 -11.678597 1.743057 19.000000
18.443991 33.660740 6.072345 9.000000
84.757446 -16.859304 12.930670 1.000000
16.591906 -11.591903 1.742310 11.000000
18.214760 33.533455 6.064610 9.000000
84.733528 -16.531929 12.902284 5.000000
16.610462 -11.514502 1.729155 30.000000
18.402359 34.176891 6.210419 7.000000
84.871490 -16.251518 12.960834 5.000000
16.615860 -11.428307 1.721799 25.000000
84.462761 -16.188536 13.052363 8.000000
16.628534 -11.441299 1.748162 30.000000
84.495682 -16.500832 13.081645 2.000000
16.618227 -11.524179 1.765732 18.000000
18.368362 33.550499 6.112902 6.000000
84.459236 -16.815311 13.116213 20.000000
16.583029 -11.590008 1.780727 10.000000
84.311653 -17.138077 13.149969 15.000000
16.567921 -11.670068 1.797944 24.000000
84.141129 -17.394161 13.178339 14.000000
16.592785 -11.778808 1.823214 17.000000
19.409729 34.559460 6.270797 7.000000
84.096992 -17.691359 13.196370 10.000000
16.520632 -11.818891 1.827181 10.000000
19.475891 34.395500 6.232132 11.000000
16.500399 -11.896086 1.844070 15.000000
19.485863 34.120831 6.174180 10.000000
16.463699 -11.961576 1.859180 15.000000
19.441326 33.768578 6.101777 10.000000
83.965858 -18.630157 13.299347 11.000000
16.431009 -12.030087 1.871208 10.000000
19.214329 33.093189 5.971898 9.000000
83.703476 -18.909451 13.284525 1.000000
16.414061 -12.110335 1.885091 10.000000
19.836349 33.877937 6.105536 10.000000
8.869436 -6.594233 1.029171 8.000000
8.788853 -6.584477 1.030348 9.000000
19.871759 33.388161 6.001075 10.000000
83.616402 -19.827726 13.441710 12.000000
8.776148 -6.625318 1.037507 9.000000
20.020308 33.372139 5.989859 10.000000
83.422119 -20.120296 13.438144 8.000000
8.774997 -6.675080 1.048023 1.000000
16.236229 -12.444995 1.951779 16.000000
17.074636 27.994713 5.000153 8.000000
44.544827 -11.073246 7.220664 12.000000
16.223394 -12.525301 1.966310 10.000000
17.189741 27.985285 4.990494 8.000000
44.471157 -11.219904 7.223231 26.000000
16.215847 -12.614604 1.981842 21.000000
44.476357 -11.394768 7.239023 9.000000
16.152742 -12.660816 1.994250 26.000000
17.038420 27.277763 4.846797 8.000000
44.439869 -11.550875 7.247815 11.000000
16.152273 -12.756296 2.010830 26.000000
17.133913 27.208195 4.834084 8.000000
44.188232 -11.658535 7.238223 8.000000
16.147137 -12.848615 2.030585 27.000000
17.587826 27.703291 4.910044 8.000000
44.149391 -11.838053 7.247765 25.000000
16.071312 -12.893980 2.038435 25.000000
17.760889 27.761251 4.907754 10.000000
44.175385 -12.002186 7.266717 17.000000
16.062468 -12.974669 2.053677 27.000000
44.386612 -12.226110 7.333155 12.000000
16.048418 -13.060810 2.072577 28.000000
17.853468 27.460442 4.842526 8.000000
44.116760 -12.325921 7.304184 9.000000
15.991903 -13.112542 2.082409 26.000000
17.234962 26.307709 4.633001 15.000000
15.966187 -13.189614 2.092643 34.000000
45.238586 -12.989047 7.530389 14.000000
15.945973 -13.266834 2.107024 20.000000
18.654829 28.045904 4.913886 8.000000
45.070908 -13.119904 7.518834 19.000000
15.926889 -13.350042 2.121948 27.000000
18.042871 26.921616 4.716353 8.000000
45.179718 -13.331395 7.570387 9.000000
15.899801 -13.426863 2.135892 24.000000
18.020926 26.676929 4.667815 26.000000
15.868282 -13.500192 2.152990 27.000000
18.075394 26.547272 4.639520 28.000000
15.821614 -13.560763 2.164415 23.000000
18.161377 26.474432 4.614963 10.000000
44.155880 -13.541953 7.463920 9.000000
15.808586 -13.650421 2.180517 26.000000
17.846331 25.811859 4.488478 19.000000
44.075172 -13.694140 7.475245 9.000000
15.782489 -13.724345 2.194583 28.000000
18.434578 26.454855 4.594780 11.000000
15.745887 -13.794193 2.211285 30.000000
18.472403 26.293325 4.556125 24.000000
42.967140 -13.704301 7.320714 13.000000
15.719622 -13.883110 2.222808 29.000000
18.488926 26.132183 4.527403 9.000000
43.017658 -13.877744 7.353316 14.000000
15.694626 -13.953947 2.240632 29.000000
18.425442 25.841055 4.466037 8.000000
43.084801 -14.073960 7.397924 8.000000
15.646204 -14.013909 2.252161 26.000000
18.317570 25.500986 4.401524 16.000000
42.928864 -14.189053 7.371508 21.000000
15.634458 -14.107003 2.269051 25.000000
18.406454 25.427519 4.383700 16.000000
37.295029 -12.478743 6.433048 8.000000
15.625908 -14.203532 2.286535 22.000000
18.598091 25.495001 4.378983 12.000000
43.595955 -14.756416 7.545235 9.000000
15.582681 -14.263894 2.298673 16.000000
18.781727 25.558872 4.389903 18.000000
43.465645 -14.890091 7.540312 10.000000
15.558343 -14.346774 2.317776 21.000000
18.823584 25.420053 4.361002 11.000000
43.538815 -15.093689 7.579071 10.000000
15.530551 -14.426827 2.328985 24.000000
18.998426 25.479061 4.359303 8.000000
43.470642 -15.240240 7.584676 9.000000
15.487266 -14.492728 2.345432 29.000000
18.931252 25.186584 4.299258 8.000000
43.431843 -15.405619 7.595968 9.000000
15.451226 -14.565593 2.359298 23.000000
18.893177 24.945042 4.253131 8.000000
45.692432 -16.387257 8.018693 9.000000
15.442638 -14.659639 2.377073 27.000000
19.395100 25.413668 4.322394 17.000000
45.496265 -16.505352 8.003509 9.000000
15.398374 -14.725293 2.393612 21.000000
19.463469 25.319506 4.306557 31.000000
45.930302 -16.853567 8.125769 9.000000
15.364864 -14.801442 2.408133 22.000000
19.521107 25.202768 4.281848 16.000000
45.976227 -17.052750 8.153170 9.000000
15.348824 -14.894837 2.425501 26.000000
19.999372 25.625673 4.343022 9.000000
46.007729 -17.256519 8.187544 9.000000
15.314534 -14.970942 2.440095 21.000000
20.091766 25.568792 4.327320 16.000000
41.774174 -15.843496 7.452439 12.000000
15.282508 -15.044317 2.454720 30.000000
20.173201 25.470503 4.300680 28.000000
41.531982 -15.917689 7.435059 10.000000
15.250733 -15.123501 2.473696 21.000000
20.450249 25.626755 4.322224 16.000000
41.393986 -16.039047 7.428792 11.000000
15.222701 -15.206769 2.485783 28.000000
20.067675 24.977001 4.206770 8.000000
41.087372 -16.085423 7.399632 14.000000
15.190451 -15.286196 2.501084 23.000000
20.046253 24.755062 4.165358 16.000000
40.852707 -16.166483 7.375876 9.000000
15.160683 -15.368492 2.524535 22.000000
40.685490 -16.273035 7.372132 16.000000
15.106637 -15.421004 2.528303 15.000000
20.683996 25.181108 4.226536 8.000000
40.398666 -16.322121 7.338260 9.000000
15.093474 -15.520960 2.554758 18.000000
40.206020 -16.415960 7.345329 10.000000
15.090732 -15.632369 2.575511 21.000000
40.031178 -16.491488 7.322815 20.000000
15.005229 -15.658246 2.578372 27.000000
23.751429 28.265753 4.716457 9.000000
39.854259 -16.606052 7.310339 9.000000
15.008087 -15.776577 2.604200 26.000000
21.712460 25.647793 4.274990 9.000000
39.788418 -16.750031 7.340479 8.000000
14.965307 -15.841976 2.621790 22.000000
21.763447 25.535822 4.250482 8.000000
14.919785 -15.910201 2.635600 22.000000
23.762842 27.685442 4.609129 9.000000
39.447994 -16.923733 7.321887 9.000000
14.901012 -16.007362 2.654248 17.000000
39.240196 -17.013283 7.310754 9.000000
14.915402 -16.141043 2.679009 20.000000
23.786083 27.285719 4.527936 27.000000
14.834428 -16.171930 2.694531 42.000000
23.856884 27.193985 4.505891 23.000000
14.817354 -16.266941 2.709524 21.000000
24.017622 27.175640 4.491697 17.000000
38.323521 -17.110840 7.211749 16.000000
14.796618 -16.364254 2.728409 26.000000
23.894234 26.837154 4.431095 10.000000
38.110012 -17.183313 7.198399 17.000000
14.762097 -16.446852 2.744890 24.000000
23.978020 26.752106 4.411061 23.000000
37.893219 -17.229015 7.175119 20.000000
14.710240 -16.504612 2.757699 27.000000
24.150625 26.746790 4.405599 25.000000
37.711121 -17.313292 7.167522 22.000000
14.716957 -16.622799 2.781083 27.000000
24.363297 26.793695 4.395233 10.000000
37.511868 -17.380610 7.141139 13.000000
14.674294 -16.697521 2.800332 20.000000
23.379398 25.523077 4.188571 10.000000
37.291676 -17.444893 7.140948 20.000000
14.618551 -16.757561 2.813226 19.000000
24.608768 26.668268 4.372002 9.000000
14.626902 -16.879803 2.837471 26.000000
14.567151 -16.941856 2.854331 30.000000
34.053413 -16.366846 6.573699 7.000000
14.536506 -17.032097 2.868484 23.000000
25.105486 26.622671 4.344027 13.000000
32.902580 -15.969539 6.376484 7.000000
14.511152 -17.129137 2.891781 21.000000
26.405384 27.815746 4.532600 9.000000
31.856489 -15.592547 6.196498 6.000000
6.439649 -7.652749 1.293667 9.000000
26.573402 27.768639 4.521866 9.000000
30.690620 -15.168250 5.993322 5.000000
29.606861 -14.754986 5.803109 6.000000
14.426182 -17.394943 2.947084 10.000000
28.666496 -14.417746 5.640657 5.000000
14.373949 -17.461819 2.961513 28.000000
76.694374 -3.482671 14.603654 1.000000
27.806223 -14.106902 5.492260 7.000000
14.362121 -17.572098 2.983783 35.000000
25.703001 -13.158551 5.086325 8.000000
14.305759 -17.647240 3.002903 19.000000
25.979658 26.179935 4.234857 9.000000
99.107300 38.680183 17.879612 1.000000
25.251268 -13.038733 5.026367 27.000000
6.332192 -7.870031 1.342404 9.000000
24.949778 24.967203 4.021544 23.000000
99.329514 38.347988 17.875116 1.000000
25.162457 -13.109912 5.028434 31.000000
6.397043 -8.007702 1.367531 25.000000
25.070808 24.905083 4.007570 9.000000
24.554180 -12.913109 4.916749 29.000000
6.345652 -8.003349 1.368250 27.000000
25.754202 25.397091 4.082722 23.000000
100.048363 37.805126 17.897760 1.000000
23.770283 -12.601657 4.777810 7.000000
6.303426 -8.010226 1.372711 24.000000
99.995468 37.406670 17.789396 1.000000
23.186369 -12.395974 4.678579 10.000000
6.270430 -8.022899 1.374931 16.000000
32.246674 31.336624 5.027716 12.000000
100.659401 37.215073 17.862707 1.000000
22.771088 -12.281481 4.613153 35.000000
6.217884 -8.018937 1.375561 1.000000
29.897577 28.851591 4.623703 6.000000
100.907516 36.886971 17.844088 11.000000
77.437790 -5.741032 14.756413 1.000000
21.939703 -11.932127 4.462131 131.000000
29.900795 28.643793 4.585985 10.000000
101.341858 36.625237 17.877710 13.000000
76.537254 -5.956412 14.574987 1.000000
21.462954 -11.774980 4.382735 10.000000
6.169939 -8.078708 1.390668 25.000000
101.372765 36.236832 17.822128 1.000000
76.687347 -6.237478 14.607629 1.000000
20.969513 -11.599681 4.290217 10.000000
6.135127 -8.091525 1.396402 40.000000
102.075272 36.066570 17.902863 1.000000
20.391356 -11.377667 4.197260 10.000000
102.386490 35.795067 17.897635 1.000000
19.894922 -11.196492 4.103496 20.000000
5.778440 -7.738269 1.338399 30.000000
102.457802 35.419128 17.868944 1.000000
19.794552 -11.231165 4.099057 14.000000
5.839452 -7.877180 1.364124 107.000000
32.186298 29.752708 4.722903 9.000000
18.995499 -10.870021 3.953645 8.000000
5.751289 -7.817986 1.357121 32.000000
32.256653 29.599232 4.694089 9.000000
18.640871 -10.753637 3.895381 15.000000
5.704659 -7.814442 1.358033 43.000000
28.577263 26.030672 4.124269 9.000000
18.180315 -10.576948 3.807214 13.000000
5.643472 -7.790425 1.357104 37.000000
28.733084 25.980556 4.112474 14.000000
17.814238 -10.447372 3.753059 10.000000
5.641841 -7.845672 1.368450 38.000000
28.881519 25.923004 4.099544 20.000000
17.420141 -10.302243 3.677962 10.000000
5.586747 -7.823662 1.364795 24.000000
29.025400 25.869776 4.086540 15.000000
17.099327 -10.193245 3.628486 10.000000
5.663366 -7.992742 1.397637 29.000000
29.189192 25.824415 4.068740 9.000000
17.056551 -10.252662 3.634537 12.000000
5.632071 -8.013628 1.404476 35.000000
17.036400 -10.321675 3.645083 21.000000
5.511654 -7.903710 1.386811 33.000000
17.002651 -10.386611 3.645983 15.000000
5.620366 -8.116838 1.424447 28.000000
24.658134 21.336956 3.352466 9.000000
16.977228 -10.452631 3.659123 18.000000
5.521362 -8.039641 1.414120 11.000000
24.726622 21.238234 3.328177 27.000000
79.350220 -10.446653 15.224052 6.000000
16.962782 -10.529672 3.671508 14.000000
5.455082 -8.005854 1.411556 27.000000
24.839687 21.177635 3.315657 8.000000
78.866196 -10.677145 15.124202 1.000000
16.946770 -10.601858 3.676029 12.000000
5.501661 -8.135091 1.434449 40.000000
16.926964 -10.675988 3.691030 16.000000
5.286576 -7.879132 1.392657 16.000000
30.725460 25.818296 4.034081 10.000000
16.897892 -10.740284 3.692844 20.000000
5.457211 -8.198232 1.452538 27.000000
31.221218 26.058731 4.066296 10.000000
16.855867 -10.792216 3.705911 14.000000
5.424120 -8.207396 1.456230 32.000000
31.389074 25.985764 4.045808 27.000000
16.838543 -10.872509 3.714871 27.000000
5.332772 -8.130733 1.442785 25.000000
31.531870 25.909788 4.030367 17.000000
16.839237 -10.960616 3.727489 10.000000
5.391190 -8.292195 1.474642 39.000000
85.443336 -13.441190 16.452702 1.000000
16.783344 -11.007832 3.730848 16.000000
5.383239 -8.343555 1.485740 39.000000
32.850323 26.592175 4.121728 11.000000
16.762299 -11.082106 3.742431 10.000000
5.413793 -8.452305 1.507273 29.000000
33.038475 26.544634 4.110701 11.000000
16.731150 -11.145638 3.747771 13.000000
5.413005 -8.516384 1.520725 26.000000
33.188366 26.465485 4.087342 11.000000
16.701344 -11.214376 3.757543 16.000000
5.315414 -8.430942 1.507316 28.000000
33.289326 26.365879 4.066545 11.000000
16.681227 -11.277063 3.768243 14.000000
5.338959 -8.537488 1.530048 22.000000
58.464146 45.957199 7.068829 15.000000
84.774826 -14.856570 16.371416 10.000000
16.667669 -11.357129 3.778202 15.000000
5.324339 -8.580590 1.539842 18.000000
58.397820 45.526974 6.973459 13.000000
84.658501 -15.156209 16.297359 1.000000
16.623327 -11.412086 3.780801 13.000000
58.656673 45.416847 6.960222 8.000000
84.998543 -15.523490 16.388777 5.000000
16.578808 -11.466872 3.783397 27.000000
16.551708 -11.546632 3.795054 27.000000
60.649685 46.236141 7.061353 3.000000
16.655487 -11.705671 3.831872 19.000000
84.365402 -16.353134 16.284328 1.000000
16.748381 -11.854127 3.865976 13.000000
5.308932 -8.909351 1.607396 2.000000
58.876919 44.238186 6.715133 20.000000
84.486893 -16.682888 16.287781 3.000000
16.674894 -11.889697 3.858570 11.000000
5.235739 -8.860209 1.598736 1.000000
58.999424 43.992836 6.645916 17.000000
84.495399 -17.006569 16.285748 6.000000
16.722429 -12.016285 3.883456 15.000000
12.812258 -21.855440 3.949089 18.000000
58.695179 43.416294 6.541436 20.000000
84.159134 -17.244776 16.216909 16.000000
16.667894 -12.065544 3.884267 18.000000
5.696908 -9.796131 1.772550 3.000000
27.947750 20.514648 3.075814 7.000000
16.590494 -12.097997 3.872337 21.000000
4.945189 -8.575686 1.550198 1.000000
27.992273 20.389874 3.048103 8.000000
16.581129 -12.184506 3.884267 9.000000
12.647571 -22.110741 4.002545 10.000000
27.996483 20.385462 2.981181 7.000000
16.597698 -12.192221 3.842998 9.000000
12.659101 -22.121937 3.968513 10.000000
27.957706 20.506943 2.978560 8.000000
16.594946 -12.096806 3.802405 24.000000
12.702991 -22.011095 3.925160 9.000000
58.874321 43.517021 6.276435 8.000000
16.658325 -12.049756 3.784518 21.000000
12.741233 -21.891630 3.880480 8.000000
59.032276 43.969257 6.336296 19.000000
84.325584 -16.972391 15.740460 10.000000
16.708515 -11.993025 3.771066 13.000000
5.166631 -8.802789 1.556424 1.000000
58.850891 44.122284 6.318742 14.000000
84.494270 -16.699669 15.683306 7.000000
16.677366 -11.882680 3.732491 19.000000
5.335800 -9.015162 1.584327 5.000000
58.905987 44.534088 6.369768 16.000000
84.664383 -16.411089 15.656962 8.000000
16.726950 -11.825818 3.719087 20.000000
5.245072 -8.788226 1.542332 10.000000
58.717461 44.698338 6.378352 1.000000
16.664074 -11.689996 3.677209 19.000000
5.321564 -8.842580 1.542391 6.000000
58.491295 44.865730 6.410491 1.000000
84.712982 -15.792400 15.582516 14.000000
16.560457 -11.531263 3.638167 27.000000
5.193796 -8.562480 1.491327 27.000000
58.672424 45.330845 6.460685 18.000000
84.719696 -15.487844 15.542667 14.000000
16.592548 -11.463537 3.621427 26.000000
5.181950 -8.472761 1.470141 25.000000
58.696693 45.694130 6.507919 6.000000
16.643183 -11.412899 3.605585 13.000000
5.182484 -8.404274 1.452739 14.000000
58.378105 45.790737 6.517259 16.000000
84.722687 -14.862675 15.461308 1.000000
16.653381 -11.330377 3.591519 19.000000
5.273864 -8.482715 1.462506 29.000000
85.085312 -14.605042 15.470951 6.000000
16.684631 -11.262402 3.574833 10.000000
5.302968 -8.460215 1.453069 16.000000
32.900421 26.188931 3.715978 9.000000
16.730001 -11.208219 3.561650 10.000000
5.296143 -8.384148 1.434334 19.000000
32.931408 26.411354 3.745237 10.000000
85.142166 -14.018867 15.416953 1.000000
16.744028 -11.137347 3.545896 14.000000
5.407125 -8.490756 1.448779 27.000000
32.721539 26.440695 3.739766 10.000000
85.349197 -13.747129 15.398952 8.000000
16.784620 -11.071622 3.530991 10.000000
5.425519 -8.451115 1.436455 33.000000
32.785889 26.682396 3.780052 10.000000
85.880730 -13.479279 15.453661 2.000000
16.806026 -10.997555 3.516151 10.000000
5.545755 -8.569153 1.452692 27.000000
30.075436 24.660318 3.498475 9.000000
16.823488 -10.921126 3.496976 10.000000
5.373498 -8.239787 1.391270 33.000000
30.018456 24.798149 3.516098 12.000000
16.847342 -10.861532 3.480406 10.000000
5.420515 -8.245671 1.388582 16.000000
30.229263 25.159267 3.558488 10.000000
16.891829 -10.794469 3.473409 13.000000
5.486925 -8.280416 1.388972 29.000000
30.841995 25.852001 3.662462 24.000000
16.916676 -10.723229 3.456012 10.000000
5.490135 -8.219673 1.376872 31.000000
30.852575 26.053993 3.689247 10.000000
16.922167 -10.644087 3.438744 19.000000
5.381199 -7.996005 1.333971 35.000000
16.954206 -10.585937 3.430919 13.000000
5.533337 -8.157362 1.357252 30.000000
24.775747 21.235384 3.015594 7.000000
79.297516 -10.453796 14.060091 2.000000
16.967428 -10.503859 3.411067 17.000000
5.443510 -7.961964 1.321191 26.000000
24.708611 21.327900 3.022211 8.000000
17.003132 -10.439953 3.399779 22.000000
5.467685 -7.934746 1.311425 53.000000
17.032648 -10.384536 3.391975 10.000000
5.515520 -7.944666 1.311081 114.000000
31.170067 27.306555 3.873395 10.000000
17.047306 -10.307956 3.373040 20.000000
5.732613 -8.193106 1.348430 28.000000
31.378036 27.692675 3.933931 6.000000
17.089558 -10.240046 3.366085 15.000000
5.734721 -8.132497 1.333065 26.000000
17.156881 -10.199164 3.357983 10.000000
5.696122 -8.015223 1.310267 20.000000
17.522753 -10.329930 3.411207 10.000000
5.705923 -7.967010 1.297093 33.000000
17.904537 -10.470953 3.470951 10.000000
5.809370 -8.051928 1.310686 14.000000
18.289412 -10.606265 3.530416 10.000000
5.868667 -8.071601 1.308521 31.000000
104.742607 35.229431 16.476171 22.000000
18.710838 -10.759209 3.588641 19.000000
5.740512 -7.834805 1.266639 15.000000
104.287048 35.502205 16.444523 14.000000
19.751963 -11.266319 3.772601 14.000000
5.909554 -8.006742 1.292464 41.000000
32.696548 30.362246 4.335705 12.000000
102.970161 35.455471 16.256287 1.000000
19.859043 -11.240283 3.777730 15.000000
5.776763 -7.767085 1.248598 35.000000
32.549847 30.427656 4.361010 12.000000
103.021431 35.855698 16.341455 28.000000
19.955805 -11.203256 3.776363 32.000000
5.841404 -7.794177 1.249474 49.000000
32.480461 30.586639 4.382428 12.000000
102.380936 36.054020 16.260712 20.000000
20.541636 -11.433328 3.866624 10.000000
6.214333 -8.228756 1.313638 36.000000
32.489208 30.820333 4.422495 9.000000
102.340286 36.441738 16.293747 19.000000
21.073341 -11.628312 3.945718 9.000000
6.165218 -8.104736 1.293655 17.000000
29.879827 28.543806 4.095405 9.000000
21.630117 -11.837237 4.033368 9.000000
6.177459 -8.059356 1.281013 25.000000
29.759874 28.658581 4.116545 19.000000
101.185234 36.888428 16.191914 23.000000
77.170967 -5.707708 13.380058 1.000000
22.719900 -12.315370 4.218065 11.000000
6.177177 -7.998102 1.267700 20.000000
29.688129 28.779848 4.141666 7.000000
101.087547 37.233044 16.215178 18.000000
77.403122 -5.466858 13.403146 1.000000
22.830605 -12.282737 4.212854 29.000000
6.234281 -8.011170 1.267987 24.000000
31.666052 30.923193 4.464591 9.000000
23.312265 -12.431908 4.283831 10.000000
6.311727 -8.052538 1.270760 25.000000
25.817455 25.388464 3.671624 7.000000
100.153549 37.705105 16.165533 1.000000
24.493559 -12.946787 4.482230 32.000000
6.363139 -8.057131 1.269698 15.000000
25.818733 25.576536 3.697929 19.000000
100.056259 38.087761 16.172253 25.000000
24.641933 -12.915366 4.481175 25.000000
6.303702 -7.922001 1.243067 10.000000
25.093208 25.040707 3.625890 9.000000
100.101982 38.505756 16.239565 1.000000
25.254202 -13.118507 4.583743 24.000000
6.341034 -7.912075 1.239586 8.000000
25.274929 -13.017444 4.569048 13.000000
6.373652 -7.893313 1.233111 1.000000
99.591187 39.129654 16.220814 1.000000
76.584061 -3.758984 13.175391 1.000000
25.910175 -13.224687 4.654260 6.000000
99.179314 39.428146 16.255611 34.000000
76.864365 -3.463505 13.221116 1.000000
28.015570 -14.163959 5.011408 7.000000
14.375100 -17.537947 2.728095 15.000000
29.370750 30.170980 4.395818 10.000000
99.070969 39.766029 16.259377 1.000000
28.933495 -14.507769 5.155387 7.000000
29.294752 30.303835 4.422560 9.000000
98.951820 40.119823 16.281776 22.000000
6.409994 -7.707180 1.191789 19.000000
29.261070 30.491848 4.456689 17.000000
98.670784 40.427605 16.297894 32.000000
30.962486 -15.248859 5.472626 7.000000
6.470623 -7.722331 1.190658 21.000000
26.452383 27.768034 4.057915 9.000000
98.574738 40.790684 16.305449 31.000000
32.073555 -15.650248 5.633292 7.000000
25.076689 26.499321 3.886094 27.000000
98.509789 41.187336 16.395857 25.000000
26.065815 27.757271 4.076028 16.000000
98.422699 41.555130 16.386320 28.000000
25.951786 27.839624 4.101004 10.000000
98.369011 41.957939 16.441084 31.000000
98.204750 42.313969 16.477654 33.000000
37.151443 -17.474222 6.421824 8.000000
14.622317 -16.821053 2.563056 23.000000
24.688711 26.877001 3.964656 9.000000
98.124413 42.686077 16.489075 36.000000
37.378483 -17.413990 6.435248 9.000000
6.895786 -7.874220 1.196250 14.000000
23.299475 25.543026 3.786390 8.000000
98.033646 43.074581 16.576780 30.000000
37.614990 -17.364635 6.458085 23.000000
6.884211 -7.805858 1.183987 9.000000
24.355242 26.897802 3.993185 20.000000
98.035469 43.484287 16.640989 31.000000
37.797249 -17.280998 6.463600 22.000000
6.923223 -7.792333 1.178406 10.000000
24.102736 26.815823 3.980612 16.000000
37.990475 -17.201275 6.456003 10.000000
7.005746 -7.832748 1.182452 1.000000
23.962074 26.818956 3.989567 20.000000
38.182583 -17.159935 6.480480 18.000000
14.766026 -16.399334 2.467465 20.000000
24.018599 27.090868 4.041857 20.000000
38.420288 -17.081715 6.494105 10.000000
14.812564 -16.318804 2.452592 19.000000
23.944002 27.206966 4.065272 20.000000
38.628403 -17.004951 6.511162 22.000000
14.833131 -16.227280 2.438835 28.000000
23.898499 27.337519 4.085750 19.000000
38.827587 -16.931084 6.504462 12.000000
14.858010 -16.146648 2.414726 24.000000
23.864338 27.520617 4.130958 25.000000
39.045734 -16.856159 6.515419 21.000000
14.889763 -16.051361 2.397793 29.000000
23.759659 27.574442 4.153553 30.000000
39.238224 -16.777006 6.522481 10.000000
14.946239 -15.994267 2.381967 30.000000
23.718363 27.731409 4.183431 10.000000
39.414291 -16.681684 6.533897 25.000000
14.955138 -15.892221 2.362968 31.000000
23.882444 28.131338 4.243579 9.000000
39.650520 -16.610569 6.547566 15.000000
14.988092 -15.821783 2.348328 30.000000
21.661663 25.705835 3.889473 8.000000
39.915836 -16.558170 6.566360 20.000000
15.023084 -15.742748 2.329387 27.000000
21.709841 25.946268 3.944283 7.000000
30.510412 14.993146 5.390408 1.000000
40.101849 -16.463322 6.571509 21.000000
15.047070 -15.652614 2.312697 31.000000
20.712194 24.939102 3.796817 8.000000
30.555319 15.154500 5.420323 8.000000
40.357063 -16.403717 6.596130 15.000000
15.084426 -15.576797 2.298167 27.000000
30.391829 15.205828 5.400704 8.000000
40.515377 -16.295292 6.596607 21.000000
15.120932 -15.494995 2.279363 26.000000
21.159679 25.852076 3.948127 10.000000
30.395916 15.347424 5.423577 1.000000
40.783688 -16.229799 6.614892 12.000000
15.140109 -15.401309 2.262297 26.000000
20.687365 25.464874 3.900615 16.000000
40.979168 -16.142122 6.629557 23.000000
15.169294 -15.318285 2.246842 23.000000
20.539629 25.473228 3.907714 22.000000
41.192245 -16.051903 6.638685 13.000000
15.222928 -15.260170 2.231276 26.000000
20.230389 25.278767 3.889410 18.000000
41.430859 -15.986837 6.660634 9.000000
15.242830 -15.179114 2.211626 25.000000
20.078993 25.269901 3.894382 11.000000
41.687222 -15.918802 6.676949 9.000000
15.275322 -15.105640 2.197309 27.000000
19.996845 25.356773 3.919324 10.000000
41.900131 -15.824384 6.685732 8.000000
15.302733 -15.022213 2.185754 31.000000
19.963266 25.505905 3.953985 8.000000
45.960011 -17.156321 7.314223 12.000000
15.324799 -14.923547 2.165244 22.000000
19.588278 25.216686 3.914963 8.000000
46.024975 -16.988636 7.297098 9.000000
15.359731 -14.853456 2.151539 26.000000
19.325724 25.058754 3.902374 26.000000
46.055611 -16.808401 7.283392 9.000000
15.382578 -14.766830 2.135866 24.000000
19.289389 25.202114 3.936158 12.000000
45.423222 -16.398159 7.157060 9.000000
15.415793 -14.690526 2.121726 29.000000
19.276670 25.377676 3.969461 8.000000
45.428295 -16.212034 7.139846 9.000000
15.437807 -14.603913 2.106138 21.000000
19.371498 25.688185 4.030240 8.000000
46.031681 -16.264515 7.209197 9.000000
15.472447 -14.539762 2.093048 25.000000
19.177441 25.625687 4.032077 9.000000
46.059479 -16.084690 7.195570 9.000000
15.497325 -14.456547 2.078028 20.000000
18.753838 25.252064 3.979180 10.000000
15.539173 -14.384396 2.061294 23.000000
18.660980 25.311138 4.000507 16.000000
15.581590 -14.317971 2.048761 15.000000
18.578146 25.393116 4.024998 23.000000
37.306015 -12.562111 5.770694 8.000000
15.583272 -14.214527 2.030971 27.000000
18.509518 25.494873 4.052704 14.000000
37.376583 -12.448027 5.768170 8.000000
15.628675 -14.151348 2.018974 26.000000
18.243689 25.323437 4.031409 20.000000
43.322014 -14.260313 6.677980 8.000000
15.661498 -14.086834 2.006038 22.000000
18.197218 25.445742 4.057397 8.000000
43.222042 -14.052032 6.630280 8.000000
15.682830 -13.997461 1.990766 17.000000
18.401030 25.911917 4.144539 10.000000
43.399113 -13.942286 6.641812 8.000000
15.700139 -13.919648 1.976009 23.000000
18.312319 26.007521 4.170626 8.000000
43.992432 -13.938321 6.723997 9.000000
8.138141 -7.157085 1.014912 34.000000
18.259508 26.125772 4.201980 31.000000
43.963989 -13.769052 6.704422 9.000000
8.135850 -7.107363 1.007877 194.000000
18.238218 26.300083 4.241970 10.000000
46.078583 -14.254892 7.010667 1.000000
8.166004 -7.081102 1.002683 157.000000
17.781420 25.823820 4.172325 8.000000
46.246445 -14.121306 7.011050 9.000000
8.172204 -7.036653 0.994727 13.000000
17.992523 26.336536 4.267145 13.000000
46.092907 -13.898714 6.971796 9.000000
8.179410 -6.990815 0.986797 85.000000
17.902643 26.422222 4.303885 12.000000
44.477654 -13.234012 6.728369 9.000000
8.182327 -6.941574 0.982184 148.000000
17.841745 26.521311 4.321725 14.000000
44.492374 -13.061073 6.690259 20.000000
8.208367 -6.912087 0.972820 25.000000
17.866507 26.769451 4.374341 8.000000
44.660152 -12.941171 6.716938 9.000000
8.199648 -6.853538 0.963162 100.000000
18.583332 28.055069 4.603706 9.000000
44.960598 -12.849792 6.746665 25.000000
8.254308 -6.850425 0.964880 1.000000
18.503092 28.157553 4.633329 8.000000
44.891998 -12.660853 6.721389 14.000000
16.048262 -13.219759 1.859297 12.000000
17.365183 26.638136 4.389771 8.000000
44.995316 -12.512140 6.729946 9.000000
16.039522 -13.114177 1.841769 17.000000
17.647036 27.278166 4.508181 8.000000
44.688805 -12.250627 6.669086 9.000000
16.072508 -13.043151 1.832773 12.000000
17.600971 27.426859 4.551054 8.000000
16.136467 -12.997254 1.823689 18.000000
16.128021 -12.897889 1.806738 15.000000
17.567862 27.821852 4.641952 9.000000
44.234955 -11.621329 6.566224 8.000000
16.187136 -12.848176 1.804439 21.000000
17.413715 27.792158 4.650182 14.000000
44.721413 -11.574072 6.607408 9.000000
16.160757 -12.730968 1.781813 15.000000
17.299135 27.835518 4.675976 8.000000
44.873287 -11.446399 6.648648 9.000000
16.180328 -12.650557 1.771624 22.000000
44.846298 -11.264612 6.613780 9.000000
16.215509 -12.582573 1.759589 24.000000
44.816326 -11.082620 6.595102 22.000000
16.263763 -12.529306 1.752849 20.000000
47.359116 -11.536151 6.972008 9.000000
16.314020 -12.473010 1.746106 9.000000
47.464840 -11.377778 6.972693 9.000000
8.735841 -6.628461 0.926617 8.000000
8.776255 -6.608581 0.924466 9.000000
19.889591 33.604683 5.745451 10.000000
82.529305 -19.159624 12.073114 1.000000
8.784839 -6.564728 0.917047 9.000000
19.741213 33.634632 5.772937 10.000000
82.566902 -18.880014 12.114643 1.000000
8.859722 -6.572616 0.922463 1.000000
19.411776 33.352772 5.739844 9.000000
84.282852 -18.932142 12.340273 1.000000
16.580519 -12.206354 1.710817 8.000000
19.214106 33.279808 5.743135 9.000000
82.718513 -18.292818 12.087195 1.000000
16.637697 -12.154671 1.704867 8.000000
19.473738 34.016827 5.878950 10.000000
82.672401 -17.934828 12.054774 1.000000
16.682856 -12.094132 1.694079 8.000000
19.494751 34.344875 5.965549 10.000000
84.202675 -17.990013 12.284941 13.000000
16.707085 -12.018527 1.688438 8.000000
19.022417 33.800720 5.886580 1.000000
84.157936 -17.627501 12.267991 9.000000
16.692636 -11.919933 1.675555 8.000000
18.883347 33.843231 5.923417 10.000000
84.241104 -17.338186 12.286533 8.000000
16.561605 -11.734951 1.654508 10.000000
18.619513 33.645866 5.904937 9.000000
84.258308 -17.020065 12.295174 12.000000
16.555820 -11.639942 1.646101 22.000000
18.341473 33.432091 5.889647 9.000000
84.417053 -16.745651 12.325060 16.000000
16.567976 -11.562280 1.639737 20.000000
18.093603 33.268864 5.883012 18.000000
84.598434 -16.490244 12.343490 4.000000
16.585894 -11.484618 1.633790 26.000000
17.869995 33.118912 5.886350 9.000000
84.503288 -16.165724 12.367275 14.000000
16.628344 -11.424071 1.626747 28.000000
17.948521 33.278339 5.947937 9.000000
84.413254 -16.163773 12.492335 12.000000
16.628569 -11.428499 1.655324 27.000000
18.121107 33.333298 5.954896 9.000000
84.233330 -16.434338 12.520013 19.000000
16.610193 -11.505733 1.671883 33.000000
18.312241 33.378807 5.955120 9.000000
84.539711 -16.815994 12.620724 5.000000
16.554695 -11.557307 1.684742 14.000000
18.589283 33.618931 5.988321 9.000000
83.968964 -17.022638 12.575297 9.000000
16.568306 -11.657365 1.704706 19.000000
18.869240 33.845707 6.019630 7.000000
84.127228 -17.375978 12.654404 15.000000
16.605774 -11.774957 1.727304 10.000000
83.986450 -17.652798 12.657724 20.000000
16.654993 -11.901834 1.747745 9.000000
19.475058 34.324135 6.081175 10.000000
84.050117 -17.988098 12.723159 6.000000
16.565798 -11.930058 1.757319 9.000000
19.484869 34.077644 6.027878 10.000000
16.521214 -11.990152 1.768008 9.000000
19.112474 33.143845 5.854550 9.000000
83.815559 -18.581463 12.769186 4.000000
16.472134 -12.046952 1.781824 9.000000
19.317049 33.230022 5.854188 9.000000
82.481857 -18.588089 12.605975 1.000000
16.438894 -12.115370 1.797385 10.000000
82.382629 -18.883276 12.646544 1.000000
8.864551 -6.583396 0.977685 7.000000
19.848675 33.589031 5.907474 10.000000
82.505234 -19.199570 12.690185 1.000000
8.795953 -6.582608 0.980504 8.000000
19.950983 33.481373 5.873529 10.000000
8.767380 -6.611494 0.985809 12.000000
8.762363 -6.658230 0.995728 8.000000
47.215225 -11.544759 7.324961 8.000000
16.297050 -12.478074 1.864355 21.000000
44.825020 -11.134592 6.968674 33.000000
16.197420 -12.491716 1.868733 11.000000
44.736759 -11.278610 6.969267 10.000000
16.237247 -12.617610 1.889508 22.000000
44.585415 -11.397835 6.976186 20.000000
16.209450 -12.691567 1.906169 17.000000
17.355366 27.742060 4.808852 8.000000
44.408943 -11.542836 6.963962 18.000000
16.165947 -12.753357 1.917411 17.000000
17.508400 27.770609 4.812659 9.000000
44.388050 -11.686399 6.990997 28.000000
16.141689 -12.830482 1.930990 20.000000
17.704754 27.855227 4.815001 10.000000
44.473297 -11.899947 7.020112 7.000000
16.112925 -12.904270 1.947733 20.000000
44.312538 -12.031145 7.018052 8.000000
16.087967 -12.981354 1.961375 13.000000
17.764986 27.513102 4.731024 8.000000
44.602169 -12.260363 7.078250 10.000000
16.058790 -13.055279 1.974573 10.000000
17.181746 26.397009 4.527459 8.000000
45.393635 -12.657052 7.219585 9.000000
16.013882 -13.116549 1.985887 20.000000
17.380512 26.499599 4.544142 8.000000
45.196171 -12.797747 7.221465 9.000000
15.983821 -13.190107 2.002743 24.000000
18.625340 28.171858 4.824529 8.000000
45.126026 -12.931156 7.225101 9.000000
15.971316 -13.273775 2.017945 13.000000
18.718889 28.089029 4.804028 10.000000
45.233715 -13.141608 7.258422 9.000000
15.910302 -13.321961 2.027360 10.000000
17.885897 26.637104 4.543506 9.000000
44.669674 -13.155472 7.200565 9.000000
15.883373 -13.398749 2.041158 19.000000
17.938004 26.504284 4.509246 21.000000
44.602219 -13.321931 7.214522 9.000000
15.866275 -13.493711 2.060587 18.000000
18.008892 26.400049 4.479961 18.000000
44.173500 -13.353593 7.160548 7.000000
15.850854 -13.571434 2.075451 29.000000
17.714767 25.775145 4.373253 9.000000
44.009686 -13.480313 7.150181 16.000000
15.792645 -13.622230 2.085382 27.000000
17.816492 25.720688 4.352795 8.000000
44.116894 -13.681777 7.183571 9.000000
15.811776 -13.735280 2.105303 23.000000
18.306019 26.221552 4.431816 23.000000
44.252586 -13.901855 7.230498 9.000000
15.749265 -13.782584 2.114761 25.000000
18.375839 26.146177 4.406074 18.000000
43.590557 -13.861240 7.138368 8.000000
15.716468 -13.855931 2.128246 27.000000
18.378395 25.947134 4.366890 8.000000
43.234966 -13.922859 7.112810 8.000000
15.694495 -13.939124 2.143279 26.000000
18.152349 25.429874 4.274337 9.000000
43.079147 -14.047155 7.103700 15.000000
15.664422 -14.015451 2.161001 24.000000
18.268959 25.386530 4.256569 23.000000
43.045986 -14.219433 7.123397 17.000000
15.625656 -14.094114 2.174576 20.000000
18.377609 25.359707 4.245566 11.000000
37.380299 -12.485514 6.199686 8.000000
15.610199 -14.169364 2.186047 23.000000
18.632906 25.514656 4.260451 25.000000
37.355629 -12.629651 6.217336 8.000000
15.579051 -14.245585 2.203879 21.000000
18.717302 25.443272 4.242577 28.000000
15.540511 -14.315282 2.217020 26.000000
18.809237 25.354382 4.217876 9.000000
15.533079 -14.424127 2.235424 22.000000
19.224220 25.734983 4.268949 8.000000
15.495204 -14.484944 2.248103 27.000000
19.350624 25.697805 4.263649 9.000000
44.029690 -15.591732 7.423025 9.000000
15.454549 -14.548359 2.260798 26.000000
19.212461 25.339024 4.197728 9.000000
45.348267 -16.245960 7.655313 9.000000
15.447158 -14.648561 2.278829 27.000000
19.288919 25.247120 4.171621 23.000000
45.134308 -16.347301 7.654552 9.000000
15.432042 -14.742027 2.295858 22.000000
19.423794 25.222309 4.157208 27.000000
46.335922 -16.993231 7.887513 9.000000
15.357257 -14.788947 2.308604 32.000000
19.490429 25.135967 4.136670 19.000000
46.245617 -17.134306 7.890597 9.000000
15.356936 -14.887104 2.331072 27.000000
19.989998 25.567629 4.197843 8.000000
45.985321 -17.238962 7.857420 9.000000
15.323964 -14.969703 2.342342 30.000000
20.029568 25.443901 4.176919 22.000000
41.787323 -15.823461 7.173040 9.000000
15.290787 -15.036710 2.360032 31.000000
20.163204 25.430511 4.163218 21.000000
41.558907 -15.903057 7.159251 9.000000
15.270000 -15.126757 2.376756 30.000000
20.310713 25.424583 4.151317 12.000000
41.338039 -15.992481 7.139189 10.000000
15.224419 -15.192566 2.385912 25.000000
20.585960 25.576336 4.165094 8.000000
41.060764 -16.058479 7.117209 12.000000
15.174761 -15.254424 2.398281 24.000000
40.902309 -16.161348 7.107356 10.000000
15.166148 -15.357940 2.424872 28.000000
21.153587 25.899921 4.212684 11.000000
40.629642 -16.226025 7.085934 12.000000
15.130816 -15.440295 2.436326 23.000000
40.419418 -16.305893 7.074768 18.000000
15.074877 -15.485604 2.450855 16.000000
20.785652 25.072035 4.062284 8.000000
40.207428 -16.391977 7.055909 10.000000
15.066614 -15.601934 2.475012 25.000000
21.574501 25.839451 4.174937 8.000000
39.989658 -16.474382 7.043739 16.000000
15.041404 -15.679551 2.490924 28.000000
23.701815 28.196712 4.548897 9.000000
39.806618 -16.561745 7.037089 9.000000
15.013389 -15.760102 2.503078 29.000000
23.733438 28.005322 4.507338 9.000000
39.539814 -16.621006 7.008331 8.000000
14.978209 -15.839011 2.522296 26.000000
23.827782 27.908611 4.486296 15.000000
39.438423 -16.740618 7.016030 9.000000
14.912352 -15.885596 2.532555 20.000000
23.719990 27.586769 4.422065 16.000000
39.106998 -16.769361 6.983210 10.000000
14.900824 -15.990364 2.548267 20.000000
23.747704 27.415100 4.389200 23.000000
38.944553 -16.868956 6.972803 23.000000
14.901043 -16.102934 2.573427 31.000000
23.875647 27.359528 4.374992 20.000000
38.729511 -16.936611 6.959998 25.000000
14.850780 -16.167084 2.590501 24.000000
23.905497 27.211056 4.344664 23.000000
38.507008 -17.007704 6.946262 19.000000
14.807544 -16.239082 2.601102 18.000000
23.972313 27.076721 4.312273 17.000000
38.332554 -17.090807 6.940561 10.000000
14.810007 -16.361834 2.627676 28.000000
23.825520 26.713003 4.242883 33.000000
38.120117 -17.163858 6.920938 19.000000
14.758518 -16.419788 2.640419 32.000000
24.008339 26.738949 4.240547 17.000000
37.908802 -17.212152 6.892356 11.000000
14.710536 -16.487555 2.654364 20.000000
24.264236 26.825512 4.249148 18.000000
37.733471 -17.299637 6.901738 19.000000
14.704245 -16.590929 2.674917 21.000000
24.357895 26.750212 4.230789 9.000000
97.619202 42.973816 17.619122 1.000000
37.519928 -17.368437 6.889108 24.000000
14.648657 -16.650759 2.691598 18.000000
23.377813 25.476675 4.019067 10.000000
97.895233 42.688011 17.641939 1.000000
37.359676 -17.452868 6.878226 16.000000
14.661378 -16.788898 2.721016 26.000000
24.810947 26.840330 4.229112 18.000000
97.830200 42.233585 17.563999 18.000000
36.967674 -17.435087 6.832439 8.000000
14.618318 -16.858004 2.731834 35.000000
97.887352 41.833290 17.527531 19.000000
14.581081 -16.940107 2.752300 16.000000
26.081081 27.822144 4.371930 9.000000
98.039482 41.494179 17.452400 14.000000
14.543745 -17.022520 2.768912 20.000000
25.091314 26.561165 4.163048 16.000000
98.033356 41.028347 17.383759 31.000000
14.528235 -17.125046 2.789262 29.000000
26.279737 27.635050 4.324772 9.000000
98.413254 40.804359 17.407946 34.000000
31.933413 -15.623290 5.980992 4.000000
29.173256 30.453493 4.760184 10.000000
98.410057 40.401043 17.344204 34.000000
30.954531 -15.285240 5.820498 6.000000
98.435059 39.990345 17.284588 34.000000
98.643753 39.674534 17.258717 32.000000
28.691301 -14.423947 5.437263 7.000000
14.394113 -17.473879 2.868007 26.000000
98.795891 39.315659 17.240961 38.000000
27.769083 -14.069783 5.282023 7.000000
14.334979 -17.532646 2.885075 29.000000
99.096466 39.015156 17.230194 38.000000
76.206245 -3.740440 13.934487 1.000000
14.326469 -17.641294 2.899151 18.000000
99.300232 38.695580 17.184776 28.000000
76.325348 -4.013400 13.958742 1.000000
25.274023 -13.033726 4.835262 24.000000
6.344553 -7.874132 1.297189 8.000000
24.968832 24.951405 3.865863 22.000000
99.565758 38.379303 17.206266 32.000000
25.166042 -13.106196 4.845015 12.000000
6.339860 -7.927608 1.309365 9.000000
26.010315 25.811335 3.987252 9.000000
99.686272 38.026619 17.165840 22.000000
76.731659 -4.585580 14.038692 1.000000
24.572601 -12.900905 4.738974 26.000000
6.334698 -7.975229 1.319175 9.000000
25.734879 25.351473 3.905242 16.000000
100.092056 37.761753 17.154306 29.000000
76.957314 -4.882199 14.097065 1.000000
23.959738 -12.686028 4.639032 10.000000
6.524712 -8.279530 1.369097 24.000000
31.594154 30.896103 4.753758 5.000000
100.359299 37.442966 17.176474 31.000000
76.669891 -5.132731 14.047611 1.000000
23.207489 -12.407266 4.512446 12.000000
6.285886 -8.036891 1.334211 9.000000
100.774803 37.157806 17.165361 27.000000
76.572044 -5.408161 14.005530 1.000000
22.782310 -12.282402 4.438084 33.000000
6.237863 -8.036010 1.333872 12.000000
29.740295 28.659742 4.392053 31.000000
101.130371 36.908417 17.166449 31.000000
76.994179 -5.708144 14.086300 1.000000
21.943409 -11.924219 4.291317 28.000000
6.174520 -8.014883 1.333786 7.000000
29.831036 28.547029 4.368848 9.000000
101.465752 36.629974 17.182264 29.000000
76.700592 -5.969124 14.078122 1.000000
21.544695 -11.805152 4.239035 10.000000
6.176193 -8.075204 1.345644 17.000000
32.442696 30.819267 4.711068 8.000000
102.028183 36.410885 17.216019 19.000000
76.625359 -6.232436 14.068222 1.000000
20.987110 -11.609415 4.147085 10.000000
32.553608 30.698429 4.687117 7.000000
102.280205 36.078754 17.216711 31.000000
76.798027 -6.529907 14.076420 1.000000
20.472519 -11.418270 4.057467 22.000000
30.289682 28.354504 4.324199 8.000000
102.933449 35.905663 17.266453 16.000000
76.787010 -6.799027 14.092569 1.000000
19.905083 -11.188492 3.960547 12.000000
30.458088 28.303404 4.296728 10.000000
103.497780 35.677559 17.280312 1.000000
77.124008 -7.113851 14.159107 1.000000
19.827332 -11.236045 3.952857 13.000000
5.823442 -7.846993 1.315987 35.000000
30.497467 28.132401 4.265752 9.000000
103.806549 35.358849 17.270880 22.000000
77.345985 -7.406699 14.190505 1.000000
19.151840 -10.946179 3.834093 9.000000
5.896933 -8.007179 1.346287 37.000000
103.936867 34.998817 17.252516 1.000000
18.617258 -10.727029 3.742274 10.000000
5.716616 -7.819352 1.314787 30.000000
77.516068 -7.983160 14.231826 1.000000
18.214136 -10.583864 3.680381 13.000000
