VERSION .7
FIELDS x y z intensity
SIZE 4 4 4 4
TYPE F F F F
COUNT 1 1 1 1
WIDTH 1219
HEIGHT 1
VIEWPOINT 0 0 0 1 0 0 0
POINTS 1219
DATA ascii
27.127949 6.412776 -1.280450 8.000000
15.522591 -2.899366 -1.179020 17.000000
9.210152 -6.322864 -0.985251 10.000000
25.816359 19.673916 -0.322919 8.000000
15.528411 -2.841593 -1.175893 26.000000
9.249302 -6.299988 -0.992868 9.000000
15.529812 -2.841849 -1.156605 15.000000
9.287064 -6.325709 -0.987039 8.000000
22.157873 39.549534 1.218774 9.000000
25.721024 19.452658 -0.292688 14.000000
27.034805 6.385775 -1.207989 9.000000
15.549297 -2.904354 -1.150515 10.000000
9.301764 -6.385757 -0.977193 7.000000
25.887991 19.430189 -0.310725 7.000000
27.028835 6.279862 -1.206685 29.000000
15.539722 -2.961550 -1.133950 9.000000
14.842294 -10.269629 -1.547328 1.000000
40.060467 70.347549 2.035035 1.000000
25.894789 19.287323 -0.321228 6.000000
26.941809 6.145759 -1.201689 24.000000
15.538221 -3.023139 -1.131902 9.000000
14.961168 -10.433174 -1.544457 7.000000
40.406208 70.353767 1.954473 1.000000
56.956009 42.099098 -0.754078 20.000000
27.010576 6.067285 -1.208693 15.000000
15.591213 -3.092799 -1.128215 7.000000
14.854625 -10.440004 -1.521441 7.000000
23.030014 39.776844 1.059094 4.000000
57.069927 41.876041 -0.803070 13.000000
27.022461 5.966000 -1.217917 7.000000
15.550635 -3.144032 -1.123322 6.000000
14.723601 -10.428750 -1.499243 24.000000
23.040668 39.476818 1.013332 8.000000
56.964008 41.477982 -0.836335 9.000000
26.980894 5.853196 -1.210240 6.000000
15.588240 -3.211149 -1.121298 6.000000
14.637459 -10.448509 -1.481719 7.000000
23.107038 39.259300 0.970143 7.000000
57.305874 41.406368 -0.863803 1.000000
27.026178 5.759383 -1.220981 4.000000
15.679449 -3.289890 -1.120289 6.000000
14.559860 -10.473885 -1.458832 4.000000
23.078651 38.899803 0.915858 15.000000
18.628029 3.898385 -0.837593 1.000000
15.638591 -3.341205 -1.109823 6.000000
14.542370 -10.542400 -1.448320 7.000000
23.153196 38.716835 0.866189 9.000000
58.047714 41.313385 -0.970005 1.000000
18.558872 3.812965 -0.837162 1.000000
15.655267 -3.407676 -1.106308 3.000000
14.532618 -10.616805 -1.438568 9.000000
16.580830 27.497202 0.594109 5.000000
58.516861 41.325005 -1.012824 10.000000
18.655962 3.761702 -0.840914 1.000000
14.522912 -10.691572 -1.422473 8.000000
16.578360 27.277336 0.557168 7.000000
58.663250 41.106972 -1.062762 9.000000
18.595980 3.678730 -0.840912 1.000000
10.881220 -2.452189 -0.760411 1.000000
14.592714 -10.825656 -1.417232 7.000000
16.662848 27.191296 0.523249 8.000000
58.937252 40.992973 -1.102725 6.000000
10.789627 -2.473137 -0.752698 1.000000
14.629786 -10.936515 -1.408681 8.000000
16.742134 27.107826 0.494953 8.000000
59.156574 40.824627 -1.141665 15.000000
18.479996 3.515221 -0.837769 1.000000
10.824726 -2.522976 -0.747991 1.000000
14.510743 -10.930659 -1.388309 8.000000
16.916180 27.176977 0.463761 7.000000
59.470127 40.720043 -1.195160 6.000000
10.757280 -2.548861 -0.742033 1.000000
14.467381 -10.981339 -1.375248 8.000000
17.018579 27.119425 0.430305 5.000000
60.128052 40.862984 -1.256276 1.000000
18.450928 3.369738 -0.841870 1.000000
14.491161 -11.083338 -1.368552 8.000000
60.156841 40.561024 -1.279097 3.000000
18.777542 3.358317 -0.862877 1.000000
14.471315 -11.152463 -1.351290 7.000000
60.661694 40.578808 -1.337628 5.000000
18.892897 3.307533 -0.870969 1.000000
9.954123 -2.476306 -0.679505 1.000000
14.470469 -11.236588 -1.342188 8.000000
27.287313 42.471741 0.537479 16.000000
60.905228 40.419384 -1.378009 12.000000
18.722885 3.207088 -0.859262 1.000000
9.809770 -2.478610 -0.666720 1.000000
14.422249 -11.284120 -1.325478 7.000000
27.367764 42.271759 0.483414 16.000000
61.128628 40.260994 -1.430995 5.000000
18.818111 3.152448 -0.866433 1.000000
14.385616 -11.340705 -1.309853 7.000000
27.550097 42.213436 0.431107 16.000000
61.563683 40.224785 -1.489079 11.000000
14.399519 -11.437490 -1.298799 7.000000
27.705757 42.129898 0.378432 8.000000
61.898579 40.120651 -1.545132 20.000000
14.379685 -11.503827 -1.287704 7.000000
46.435833 70.103706 0.557702 1.000000
62.271568 40.039059 -1.589550 20.000000
24.096947 3.764864 -1.120308 5.000000
14.310937 -11.535104 -1.272431 7.000000
46.882698 70.191437 0.471432 1.000000
62.540649 39.904198 -1.644670 10.000000
24.297825 3.705070 -1.137606 5.000000
14.304269 -11.616476 -1.259459 7.000000
47.014946 69.886551 0.396923 1.000000
62.930470 39.829128 -1.703091 21.000000
24.123316 3.588038 -1.133078 5.000000
14.250691 -11.659904 -1.245581 7.000000
63.198299 39.674965 -1.732454 8.000000
24.201368 3.504719 -1.131826 8.000000
14.143250 -11.658796 -1.223850 9.000000
63.846302 39.787220 -1.786002 7.000000
24.252420 3.430040 -1.133676 17.000000
14.109168 -11.709497 -1.208183 7.000000
64.279755 39.730988 -1.846828 6.000000
24.343801 3.352002 -1.141663 30.000000
14.074614 -11.768204 -1.192831 7.000000
64.465370 39.504429 -1.874197 1.000000
24.362207 3.254940 -1.137606 24.000000
9.086845 -2.655458 -0.585655 1.000000
14.161578 -11.937835 -1.188022 7.000000
64.834686 39.404610 -1.946974 15.000000
14.065110 -11.944972 -1.170659 5.000000
65.213531 39.308277 -1.980608 1.000000
8.829453 -2.647284 -0.563783 1.000000
14.056132 -12.026300 -1.157365 6.000000
14.398327 20.290400 -0.047766 10.000000
8.838981 -2.685488 -0.561780 1.000000
13.993668 -12.061971 -1.142907 6.000000
14.496456 20.263376 -0.073924 1.000000
91.328026 54.161957 -2.891709 21.000000
8.713849 -2.685725 -0.551313 1.000000
13.967300 -12.124480 -1.128001 6.000000
90.942551 53.483776 -2.946989 32.000000
8.666017 -2.705802 -0.545730 1.000000
13.968443 -12.215534 -1.118699 7.000000
24.260681 33.428757 -0.201853 1.000000
90.682098 52.926662 -2.987866 30.000000
8.628145 -2.727068 -0.540771 1.000000
13.966045 -12.295407 -1.105471 5.000000
24.326618 33.238110 -0.244425 1.000000
8.574530 -2.748029 -0.534943 1.000000
13.928635 -12.362075 -1.086859 7.000000
32.461681 44.062149 -0.372532 5.000000
82.182503 47.161648 -2.812212 19.000000
8.660509 -2.807287 -0.537696 1.000000
13.861607 -12.393706 -1.068885 7.000000
82.230919 46.770634 -2.873806 13.000000
8.573565 -2.817186 -0.528254 1.000000
13.850022 -12.474994 -1.058454 6.000000
32.744373 43.770309 -0.477036 1.000000
81.943390 46.210423 -2.907123 25.000000
8.744351 -2.905469 -0.536141 1.000000
13.852945 -12.569898 -1.045816 5.000000
81.837532 45.793697 -2.947114 24.000000
8.625003 -2.900959 -0.526284 1.000000
13.828081 -12.635628 -1.030865 6.000000
81.627182 45.283943 -2.998777 32.000000
8.619212 -2.934219 -0.523395 1.000000
13.774856 -12.679947 -1.017245 5.000000
81.500351 44.786674 -3.036232 26.000000
8.668883 -2.990014 -0.523924 1.000000
13.747239 -12.747923 -1.002241 5.000000
81.556755 44.429260 -3.097154 20.000000
8.634559 -3.013632 -0.517710 1.000000
13.755790 -12.849943 -0.989818 6.000000
81.785728 44.202930 -3.148998 1.000000
13.537740 1.060688 -0.654633 7.000000
8.634103 -3.045630 -0.515079 1.000000
13.717239 -12.899378 -0.976935 6.000000
13.207743 0.986141 -0.640813 8.000000
8.618348 -3.075637 -0.511604 1.000000
13.650099 -12.935361 -0.959230 5.000000
81.029068 43.047646 -3.204123 13.000000
13.096742 0.927299 -0.637547 1.000000
8.550837 -3.086923 -0.505081 1.000000
13.650155 -13.030705 -0.946073 7.000000
21.619633 27.238102 -0.570578 8.000000
81.052162 42.679733 -3.246851 22.000000
13.219642 0.887318 -0.643367 1.000000
8.600677 -3.140594 -0.503893 1.000000
13.682084 -13.157369 -0.935016 6.000000
21.723560 27.173702 -0.607256 8.000000
81.765770 42.637146 -3.333015 6.000000
13.247726 0.840440 -0.644580 1.000000
8.537757 -3.153131 -0.497694 1.000000
13.602065 -13.176715 -0.916276 6.000000
21.822668 27.093473 -0.637616 8.000000
13.200754 0.788894 -0.644463 1.000000
8.643394 -3.228194 -0.498078 1.000000
13.575693 -13.247964 -0.901173 6.000000
22.019047 27.133112 -0.677049 8.000000
13.497746 0.757004 -0.658822 1.000000
8.622406 -3.256416 -0.492713 1.000000
13.551297 -13.316823 -0.886017 4.000000
13.096352 0.686351 -0.641397 1.000000
8.666546 -3.309432 -0.492678 1.000000
13.513590 -13.377481 -0.870122 6.000000
13.083815 0.637616 -0.640665 1.000000
8.538148 -3.296309 -0.481256 1.000000
13.519114 -13.472007 -0.859998 6.000000
13.165888 0.593254 -0.644573 1.000000
8.721368 -3.403827 -0.492284 1.000000
13.416114 -13.477133 -0.840252 6.000000
12.918408 0.539183 -0.630104 1.000000
8.658134 -3.415768 -0.481273 1.000000
13.343757 -13.493648 -0.821926 7.000000
13.109883 0.494465 -0.643931 1.000000
8.766150 -3.495566 -0.487986 1.000000
13.327335 -13.580947 -0.807485 7.000000
12.941912 0.440634 -0.635597 1.000000
8.744251 -3.524034 -0.482534 1.000000
13.291899 -13.644515 -0.791710 8.000000
13.203007 0.401082 -0.648344 1.000000
8.759180 -3.567424 -0.480766 1.000000
13.256166 -13.707997 -0.775900 11.000000
13.109650 0.350157 -0.641397 1.000000
8.819052 -3.633150 -0.476504 1.000000
13.229647 -13.776483 -0.753785 9.000000
13.055700 0.300835 -0.643269 1.000000
8.830087 -3.671994 -0.476082 1.000000
13.220702 -13.868558 -0.746119 22.000000
13.151493 0.259410 -0.647943 1.000000
8.908802 -3.743086 -0.477681 1.000000
13.188827 -13.927304 -0.730159 15.000000
13.102459 0.208117 -0.645483 1.000000
8.996387 -3.818739 -0.477995 1.000000
6.263862 -6.668003 -0.340263 8.000000
8.932069 -3.830135 -0.470220 1.000000
6.220299 -6.668120 -0.331191 8.000000
13.008789 0.106714 -0.640809 1.000000
8.890624 -3.851002 -0.465388 1.000000
6.189259 -6.683791 -0.321289 8.000000
13.108971 0.059487 -0.645729 1.000000
6.168289 -6.710315 -0.313511 6.000000
6.168593 -6.757840 -0.306730 2.000000
28.054480 -12.508265 -1.432440 6.000000
13.039557 -14.390721 -0.634037 29.000000
13.148840 -0.075733 -0.647697 1.000000
27.717649 -12.480072 -1.401618 6.000000
12.985442 -14.426857 -0.616772 29.000000
13.278311 -0.125149 -0.654093 8.000000
37.075359 -16.857157 -1.856557 8.000000
12.964391 -14.499883 -0.607859 27.000000
13.127956 -0.171854 -0.646713 6.000000
26.809652 -12.308393 -1.329272 6.000000
12.934091 -14.568018 -0.584995 29.000000
13.247076 -0.221978 -0.652617 1.000000
12.912176 -14.661457 -0.569597 28.000000
54.103104 -1.104958 -2.665570 47.000000
23.634443 -11.061124 -1.148447 6.000000
12.895998 -14.736168 -0.553820 26.000000
23.634754 -11.167051 -1.141301 25.000000
12.846942 -14.799571 -0.533722 25.000000
52.959446 -1.470041 -2.628224 231.000000
23.607729 -11.260309 -1.128261 9.000000
12.825478 -14.884699 -0.521366 24.000000
53.013603 -1.666020 -2.631196 88.000000
24.777576 -11.929969 -1.171826 6.000000
12.812729 -14.975296 -0.505759 34.000000
24.394829 -11.850755 -1.141448 6.000000
12.782700 -15.040883 -0.489304 23.000000
24.100401 -11.817098 -1.120305 6.000000
12.741818 -15.115326 -0.472795 27.000000
12.708542 -15.183083 -0.452778 26.000000
35.144413 -17.537678 -1.605002 7.000000
12.699914 -15.275410 -0.436929 30.000000
12.675396 -15.354631 -0.420543 18.000000
12.648719 -15.448213 -0.404281 33.000000
12.613452 -15.509786 -0.383853 20.000000
22.168846 -11.471610 -0.971997 6.000000
12.600230 -15.604487 -0.371099 29.000000
5.725103 -7.148653 -0.159864 15.000000
29.086788 -1.988039 -1.436102 3.000000
5.675308 -7.137396 -0.151208 18.000000
29.014555 -2.089969 -1.432904 8.000000
30.361231 -16.143354 -1.278915 29.000000
5.633718 -7.138647 -0.141271 24.000000
28.827431 -2.182725 -1.424048 9.000000
29.505478 -15.827330 -1.227748 27.000000
5.611923 -7.162299 -0.133408 8.000000
28.873749 -2.292697 -1.431809 10.000000
28.749102 -15.557552 -1.181500 9.000000
5.597966 -7.198678 -0.127335 6.000000
28.805679 -2.393567 -1.423802 30.000000
27.933840 -15.249003 -1.128038 10.000000
12.398694 -16.065203 -0.262112 30.000000
28.791737 -2.498698 -1.423556 34.000000
27.265469 -15.014116 -1.086945 23.000000
12.379164 -16.156181 -0.245125 25.000000
28.808409 -2.596424 -1.419738 82.000000
26.489645 -14.713685 -1.052864 28.000000
12.349867 -16.229139 -0.227810 26.000000
28.758924 -2.698263 -1.417777 98.000000
25.878698 -14.486835 -1.014938 17.000000
12.332457 -16.324190 -0.207111 24.000000
28.744114 -2.803191 -1.412491 111.000000
25.142855 -14.196194 -0.967932 13.000000
12.281646 -16.381422 -0.189396 17.000000
28.748308 -2.910008 -1.418267 3.000000
24.424259 -13.914408 -0.927583 34.000000
12.251569 -16.472713 -0.171990 23.000000
23.221048 -13.341911 -0.865022 122.000000
12.244672 -16.590075 -0.147552 25.000000
23.503014 -2.557395 -1.156274 1.000000
22.670801 -13.125950 -0.841565 28.000000
12.213245 -16.656765 -0.133383 21.000000
23.359289 -2.628421 -1.153782 5.000000
22.592831 -13.191607 -0.822177 27.000000
12.158061 -16.709591 -0.115415 30.000000
23.374304 -2.716902 -1.155008 5.000000
22.475794 -13.233972 -0.806007 37.000000
12.158276 -16.833082 -0.094228 24.000000
21.965296 -13.047224 -0.780564 24.000000
12.105206 -16.902138 -0.076199 26.000000
23.250074 -2.875348 -1.141683 1.000000
21.480778 -12.855981 -0.742991 16.000000
12.069472 -16.964579 -0.058140 18.000000
23.075699 -2.939692 -1.137711 1.000000
21.010107 -12.679109 -0.719740 28.000000
12.050493 -17.070011 -0.036469 24.000000
23.287792 -3.053492 -1.144603 1.000000
20.588190 -12.527662 -0.690016 28.000000
12.013803 -17.144749 -0.018269 23.000000
20.193110 -12.388902 -0.665878 23.000000
11.979430 -17.229725 0.000000 23.000000
9.395200 2.701130 -0.613327 1.000000
17.803671 -2.467297 -0.872778 1.000000
19.765402 -12.226432 -0.637009 19.000000
11.953288 -17.320810 0.022038 22.000000
9.452628 2.680171 -0.623317 1.000000
17.557331 -2.498778 -0.858042 1.000000
19.379230 -12.081288 -0.617941 24.000000
11.929256 -17.422239 0.040538 22.000000
9.626037 2.689449 -0.637569 1.000000
17.142689 -2.503904 -0.841252 1.000000
19.013477 -11.950266 -0.595904 10.000000
5.398789 -7.944077 0.026822 21.000000
9.716459 2.680008 -0.646499 1.000000
17.000185 -2.546762 -0.831704 1.000000
18.653238 -11.819445 -0.570541 10.000000
5.391979 -7.996949 0.037034 30.000000
9.909679 2.690543 -0.665830 1.000000
17.025434 -2.614382 -0.830389 1.000000
18.344584 -11.718321 -0.554806 9.000000
5.397381 -8.065557 0.045734 9.000000
16.630785 -2.616208 -0.814548 4.000000
18.005478 -11.590400 -0.530812 9.000000
5.387117 -8.114408 0.054398 10.000000
16.833382 -2.711340 -0.818987 3.000000
17.673710 -11.468673 -0.514908 13.000000
5.336719 -8.099710 0.064332 32.000000
16.764339 -2.763295 -0.813143 3.000000
17.364061 -11.358395 -0.496226 10.000000
5.063500 -7.746688 0.069457 20.000000
10.559924 2.705435 -0.724042 1.000000
16.768734 -2.827189 -0.816828 1.000000
17.072212 -11.257050 -0.474777 9.000000
16.960188 -2.923437 -0.823659 1.000000
16.777031 -11.150853 -0.460666 10.000000
16.791824 -2.957830 -0.818987 2.000000
16.484781 -11.039765 -0.446767 9.000000
16.854990 -3.029655 -0.825574 1.000000
16.179295 -10.921291 -0.425936 9.000000
16.833010 -3.095510 -0.822105 1.000000
15.957430 -10.856876 -0.414399 9.000000
11.601522 2.744622 -0.821106 1.000000
16.690113 -3.126485 -0.815628 3.000000
15.666280 -10.742997 -0.394591 8.000000
5.301919 -8.501344 0.131158 124.000000
11.688815 2.720073 -0.832887 1.000000
16.683584 -3.188600 -0.812904 1.000000
15.406702 -10.644255 -0.382447 7.000000
5.283813 -8.541879 0.140250 149.000000
11.625206 2.660392 -0.836020 1.000000
16.774588 -3.269765 -0.820906 1.000000
15.191290 -10.577895 -0.371595 8.000000
5.269603 -8.585750 0.147702 158.000000
11.634736 2.617734 -0.838102 1.000000
16.777048 -3.334118 -0.824611 1.000000
14.939843 -10.484323 -0.353635 9.000000
4.852079 -7.967732 0.146549 255.000000
11.853537 2.619185 -0.861649 1.000000
16.789188 -3.400544 -0.825815 1.000000
14.693311 -10.391897 -0.339272 9.000000
4.711639 -7.801335 0.151125 6.000000
16.718058 -3.449973 -0.819946 1.000000
14.530828 -10.353264 -0.330122 29.000000
3.959346 2.874522 -0.410858 1.000000
17.256367 3.680547 -1.267869 6.000000
16.788387 -3.528688 -0.824024 1.000000
14.488907 -10.403669 -0.317577 30.000000
4.506187 -7.580240 0.163165 9.000000
3.904827 2.813143 -0.409204 3.000000
17.298374 3.623272 -1.279274 9.000000
16.789852 -3.593303 -0.827741 1.000000
14.475066 -10.474352 -0.311874 25.000000
4.513842 -7.656870 0.172217 9.000000
17.222956 3.541631 -1.281983 84.000000
16.883921 -3.678203 -0.833037 1.000000
14.452868 -10.539212 -0.302858 24.000000
4.310356 -7.370383 0.172887 27.000000
17.391520 3.506746 -1.312197 4.000000
16.840647 -3.733481 -0.840625 1.000000
14.428078 -10.598476 -0.303112 20.000000
4.278252 -7.377403 0.177150 15.000000
14.413787 -10.591853 -0.327833 24.000000
4.275849 -7.373260 0.166633 24.000000
17.238689 3.544866 -1.335662 176.000000
17.056278 -3.718870 -0.896552 1.000000
14.444049 -10.532783 -0.352610 30.000000
4.326890 -7.401618 0.157136 14.000000
3.895053 2.816442 -0.420526 2.000000
17.239990 3.611043 -1.339871 109.000000
16.361511 -3.504617 -0.865207 1.000000
14.460175 -10.467421 -0.370811 24.000000
4.503874 -7.639961 0.151707 9.000000
17.216887 3.672127 -1.339112 89.000000
16.466339 -3.464000 -0.884798 1.000000
14.498174 -10.414158 -0.386389 10.000000
4.512742 -7.594283 0.138774 9.000000
17.222574 3.739388 -1.343705 68.000000
16.566484 -3.421709 -0.898381 1.000000
14.534101 -10.363246 -0.405082 12.000000
4.534157 -7.570027 0.129377 9.000000
17.233093 3.807864 -1.345606 9.000000
16.338528 -3.312234 -0.897027 1.000000
14.645082 -10.361623 -0.425911 8.000000
4.621397 -7.651917 0.120141 10.000000
11.625272 2.613473 -0.908474 1.000000
16.423857 -3.266908 -0.903979 1.000000
14.940320 -10.488550 -0.452504 8.000000
11.707334 2.679187 -0.917792 1.000000
16.381350 -3.196082 -0.909753 1.000000
15.156951 -10.561842 -0.474077 10.000000
11.634619 2.707461 -0.908670 1.000000
16.505424 -3.157536 -0.921879 1.000000
15.404959 -10.650995 -0.493694 9.000000
5.299857 -8.567815 0.098470 196.000000
11.387187 2.693916 -0.886002 1.000000
16.310320 -3.058287 -0.919065 1.000000
15.682656 -10.758253 -0.514613 7.000000
11.081535 2.664533 -0.862975 1.000000
16.193283 -2.974945 -0.920497 1.000000
15.942409 -10.846657 -0.541974 9.000000
10.877821 2.657762 -0.849829 1.000000
16.223576 -2.919082 -0.924490 1.000000
16.201448 -10.944480 -0.570035 9.000000
10.743411 2.662705 -0.836128 1.000000
16.450167 -2.897648 -0.942640 1.000000
16.465393 -11.035110 -0.588282 10.000000
5.326478 -8.344816 0.051836 42.000000
10.524566 2.655308 -0.816143 1.000000
16.322445 -2.813509 -0.943424 1.000000
16.746761 -11.134950 -0.610925 10.000000
5.358305 -8.330418 0.041490 26.000000
10.312963 2.638328 -0.798540 1.000000
16.301991 -2.754349 -0.944604 1.000000
17.006247 -11.222073 -0.633196 10.000000
10.210605 2.655858 -0.791434 1.000000
16.140041 -2.660391 -0.943187 1.000000
17.347742 -11.356370 -0.666092 10.000000
5.168942 -7.911021 0.016493 13.000000
10.095008 2.665331 -0.779561 1.000000
16.312147 -2.627385 -0.955568 1.000000
17.636129 -11.453036 -0.690245 10.000000
5.485229 -8.331437 0.006964 11.000000
9.965024 2.670120 -0.766652 1.000000
16.577003 -2.613678 -0.973509 1.000000
17.948517 -11.567031 -0.719541 10.000000
11.772417 -17.739058 -0.007432 22.000000
9.704969 2.638601 -0.747384 1.000000
16.562187 -2.543247 -0.980835 1.000000
18.331274 -11.709819 -0.748198 10.000000
11.828698 -17.689528 -0.029712 25.000000
9.642609 2.659638 -0.739817 1.000000
18.660734 -11.833327 -0.775484 10.000000
11.854311 -17.587978 -0.048124 26.000000
9.489200 2.653003 -0.728753 1.000000
16.820850 -2.462892 -1.007020 1.000000
19.007935 -11.956040 -0.807707 27.000000
11.879060 -17.492638 -0.081191 26.000000
9.479656 2.687834 -0.725313 1.000000
17.165586 -2.449138 -1.030152 1.000000
19.366978 -12.087736 -0.837126 25.000000
11.906114 -17.401466 -0.103040 26.000000
9.316623 2.678539 -0.710183 1.000000
17.431761 -2.418857 -1.048643 1.000000
19.742020 -12.221499 -0.867627 20.000000
11.955565 -17.337051 -0.121296 25.000000
20.211809 -12.410088 -0.906995 19.000000
11.987403 -17.254038 -0.143009 30.000000
20.627865 -12.561671 -0.940479 23.000000
12.027527 -17.177088 -0.164696 23.000000
8.986111 2.690835 -0.680620 1.000000
22.664593 -2.891340 -1.381450 6.000000
21.071072 -12.725936 -0.971462 21.000000
12.035428 -17.061308 -0.185854 26.000000
8.913905 2.706552 -0.672664 1.000000
22.694611 -2.810675 -1.386649 13.000000
21.530170 -12.900857 -1.016872 15.000000
12.077462 -16.988361 -0.211008 26.000000
22.749117 -2.732805 -1.393371 10.000000
22.040682 -13.097208 -1.052156 19.000000
12.098733 -16.893101 -0.228483 30.000000
22.778811 -2.651715 -1.394585 8.000000
22.492472 -13.254367 -1.089654 23.000000
12.128236 -16.803846 -0.249580 27.000000
8.689060 2.742985 -0.651539 1.000000
22.862034 -2.576510 -1.411184 9.000000
22.570263 -13.188996 -1.113927 26.000000
12.174869 -16.744974 -0.274633 24.000000
8.684022 2.776436 -0.647122 1.000000
22.955420 -2.501864 -1.420418 6.000000
22.669638 -13.135844 -1.134773 34.000000
12.212345 -16.667734 -0.295741 26.000000
8.786674 2.848183 -0.655618 1.000000
23.668434 -2.491829 -1.476472 1.000000
23.290825 -13.387410 -1.177614 133.000000
12.234635 -16.576477 -0.316458 40.000000
8.814303 2.892882 -0.655212 1.000000
23.856144 -2.423219 -1.487617 5.000000
24.723387 -14.090535 -1.267332 6.000000
12.247258 -16.460917 -0.336638 30.000000
8.648663 2.870323 -0.640406 1.000000
24.708931 -2.418378 -1.544582 5.000000
25.313519 -14.304208 -1.310140 8.000000
12.304594 -16.423973 -0.354629 31.000000
25.343784 -2.382305 -1.588144 2.000000
25.901150 -14.511280 -1.353370 11.000000
12.310384 -16.312725 -0.378128 27.000000
28.727026 -2.594144 -1.799544 34.000000
26.547146 -14.745624 -1.405536 14.000000
12.342655 -16.231417 -0.395091 25.000000
28.726086 -2.487949 -1.803953 34.000000
20.317446 -11.188088 -1.093812 6.000000
12.377700 -16.160112 -0.415729 28.000000
28.725065 -2.381821 -1.803329 36.000000
20.528772 -11.206599 -1.115244 6.000000
12.399924 -16.066797 -0.435758 30.000000
28.708416 -2.274527 -1.806794 110.000000
20.707617 -11.210583 -1.139304 6.000000
5.600184 -7.201530 -0.203837 27.000000
28.740807 -2.171122 -1.818421 143.000000
21.007664 -11.273653 -1.166044 6.000000
5.622071 -7.177829 -0.213274 20.000000
28.793049 -2.068963 -1.826293 19.000000
21.317247 -11.339354 -1.193586 6.000000
5.632741 -7.137408 -0.220624 22.000000
28.879404 -1.978928 -1.831344 6.000000
21.609522 -11.393409 -1.228976 6.000000
5.688550 -7.156614 -0.233006 16.000000
29.100920 -1.876772 -1.850008 5.000000
21.880505 -11.433990 -1.259275 6.000000
5.736458 -7.162831 -0.243508 1.000000
8.698071 3.246886 -0.619919 1.000000
22.187315 -11.490988 -1.296363 6.000000
12.573674 -15.588292 -0.555915 24.000000
8.532581 3.220790 -0.600968 1.000000
34.463078 -17.688810 -2.016590 8.000000
12.602107 -15.506889 -0.568616 30.000000
8.506736 3.246706 -0.599982 1.000000
34.721909 -17.661171 -2.062023 8.000000
12.630387 -15.431317 -0.591842 24.000000
8.476451 3.270790 -0.593910 1.000000
34.937031 -17.609715 -2.091495 8.000000
12.635653 -15.322824 -0.606800 29.000000
8.510018 3.323052 -0.592388 1.000000
35.158085 -17.567499 -2.121682 8.000000
12.700372 -15.281384 -0.627914 32.000000
8.484050 3.348800 -0.588233 1.000000
35.323807 -17.488808 -2.155400 8.000000
12.736689 -15.211316 -0.644280 29.000000
8.454643 3.369640 -0.582181 1.000000
15.281990 -0.595088 -0.980950 6.000000
24.087128 -11.815804 -1.481194 6.000000
12.748044 -15.122711 -0.659593 24.000000
8.414653 3.389494 -0.577099 1.000000
15.304031 -0.534429 -0.984903 6.000000
24.439386 -11.877672 -1.514440 6.000000
12.806767 -15.085203 -0.680649 21.000000
8.411695 3.424189 -0.572979 1.000000
15.350604 -0.485094 -0.987791 9.000000
12.803119 -14.969352 -0.694745 10.000000
23.749376 -11.327871 -1.494138 6.000000
12.825464 -14.889938 -0.713739 9.000000
23.645596 -11.172174 -1.498761 16.000000
12.869715 -14.831033 -0.730331 9.000000
26.032085 -12.183241 -1.662285 6.000000
12.959736 -14.824656 -0.749558 8.000000
12.981076 -14.744880 -0.771848 7.000000
12.582638 -0.164716 -0.813752 12.000000
26.713333 -12.264173 -1.730886 6.000000
13.054469 -14.719118 -0.790195 7.000000
12.533263 -0.118127 -0.810526 5.000000
13.117758 -14.681725 -0.811415 7.000000
12.508665 -0.072046 -0.808913 1.000000
8.549897 -3.853243 -0.563731 1.000000
13.138376 -14.601892 -0.826704 7.000000
12.453818 -0.026083 -0.807537 5.000000
8.568250 -3.823793 -0.568944 1.000000
6.150447 -6.790140 -0.393594 6.000000
12.399093 0.015148 -0.801814 1.000000
8.490637 -3.751900 -0.567751 1.000000
6.168324 -6.759915 -0.401151 7.000000
12.364026 0.060423 -0.799555 7.000000
8.494913 -3.716635 -0.571996 1.000000
6.171366 -6.716013 -0.407797 8.000000
12.368692 0.107940 -0.799878 1.000000
8.433750 -3.656602 -0.570279 1.000000
6.182124 -6.678424 -0.414845 10.000000
12.358288 0.148835 -0.799233 7.000000
8.364278 -3.590120 -0.569472 1.000000
6.223292 -6.673664 -0.425540 9.000000
12.307702 0.197642 -0.796006 14.000000
8.409254 -3.572981 -0.576442 1.000000
6.246293 -6.651626 -0.433503 8.000000
12.316872 0.242948 -0.796651 10.000000
8.371509 -3.520778 -0.576149 1.000000
6.301256 -6.661062 -0.443640 1.000000
12.320888 0.288206 -0.796974 9.000000
8.330009 -3.464037 -0.577074 1.000000
13.301856 -13.958566 -0.949775 6.000000
12.289822 0.332553 -0.795038 11.000000
8.373464 -3.449583 -0.584050 1.000000
13.328141 -13.883898 -0.964849 7.000000
12.298634 0.377906 -0.793536 10.000000
8.266815 -3.366894 -0.580357 1.000000
13.355109 -13.815137 -0.980116 7.000000
12.302153 0.423151 -0.793858 14.000000
8.320560 -3.353281 -0.586408 1.000000
13.425834 -13.786817 -1.001797 7.000000
12.295615 0.465903 -0.793536 4.000000
8.349884 -3.332955 -0.592421 1.000000
13.433698 -13.694114 -1.015418 7.000000
12.323557 0.516510 -0.795467 9.000000
8.302574 -3.275493 -0.592820 1.000000
13.445702 -13.610983 -1.029472 3.000000
12.336868 0.558056 -0.794277 10.000000
8.331785 -3.255130 -0.597268 1.000000
13.486475 -13.562009 -1.049232 7.000000
12.339725 0.603513 -0.794598 1.000000
8.264357 -3.193922 -0.594698 1.000000
13.504812 -13.471854 -1.063141 5.000000
54.481144 27.711636 -3.149883 6.000000
12.357360 0.649785 -0.795881 1.000000
8.336095 -3.186580 -0.606839 1.000000
13.549886 -13.418095 -1.079504 5.000000
54.931538 28.194628 -3.149462 6.000000
12.384924 0.696762 -0.795642 2.000000
8.310191 -3.141817 -0.607227 1.000000
13.581728 -13.356049 -1.094997 2.000000
55.051003 28.511354 -3.129736 4.000000
12.456721 0.746611 -0.804799 1.000000
8.293319 -3.100745 -0.609817 1.000000
13.576323 -13.253206 -1.107250 4.000000
12.509096 0.795774 -0.801775 2.000000
13.645756 -13.223657 -1.122264 5.000000
12.545923 0.844297 -0.804329 8.000000
13.653853 -13.134808 -1.135555 6.000000
12.547706 0.892827 -0.802452 9.000000
8.439522 -3.048402 -0.625893 1.000000
13.708400 -13.090880 -1.152695 6.000000
12.594110 0.942535 -0.805636 7.000000
8.455129 -3.019053 -0.629375 1.000000
13.709676 -13.000905 -1.168840 4.000000
8.338838 -2.943114 -0.624565 1.000000
13.709250 -12.905398 -1.181257 6.000000
8.377409 -2.922242 -0.632873 1.000000
13.762992 -12.861170 -1.198322 6.000000
8.303193 -2.862261 -0.626469 1.000000
13.751045 -12.755917 -1.203064 4.000000
15.307948 1.371584 -0.972339 7.000000
8.299154 -2.826879 -0.629993 1.000000
13.796929 -12.704714 -1.219432 7.000000
15.282946 1.425827 -0.971076 7.000000
8.280891 -2.786828 -0.630893 3.000000
13.836720 -12.652386 -1.235469 6.000000
15.208250 1.475104 -0.963990 1.000000
8.276644 -2.751669 -0.632857 1.000000
13.867420 -12.587445 -1.250499 5.000000
8.343316 -2.739916 -0.640264 3.000000
13.875586 -12.502406 -1.263467 6.000000
24.555786 33.355385 -0.679592 1.000000
8.339225 -2.703143 -0.643764 1.000000
13.857448 -12.394341 -1.270710 5.000000
24.312922 33.280296 -0.625875 1.000000
8.405851 -2.690734 -0.651239 1.000000
13.935518 -12.372532 -1.290041 6.000000
32.037292 44.144138 -0.780677 8.000000
8.453475 -2.671860 -0.657277 1.000000
13.964568 -12.315754 -1.302004 7.000000
31.971333 44.427334 -0.716524 19.000000
8.515350 -2.657128 -0.664457 1.000000
13.990338 -12.238992 -1.319378 6.000000
31.962795 44.711075 -0.671507 19.000000
8.605817 -2.650783 -0.673915 1.000000
13.968269 -12.133874 -1.326278 7.000000
14.385235 20.279448 -0.277739 10.000000
8.624789 -2.622056 -0.677808 1.000000
14.037932 -12.112944 -1.342082 6.000000
31.763668 45.111397 -0.558522 7.000000
8.753502 -2.626177 -0.690370 1.000000
14.016953 -12.005497 -1.352052 7.000000
31.723804 45.390541 -0.492941 9.000000
24.406258 3.187147 -1.514049 4.000000
8.911272 -2.637947 -0.702046 1.000000
14.026310 -11.916235 -1.361248 6.000000
73.750893 106.351097 -1.039079 210.000000
24.275963 3.260669 -1.502406 8.000000
8.997675 -2.625991 -0.711344 1.000000
14.145396 -11.928417 -1.381542 7.000000
73.404907 106.724968 -0.904318 191.000000
24.155346 3.334645 -1.491416 4.000000
14.088686 -11.792510 -1.387896 8.000000
31.640335 46.330868 -0.332932 9.000000
9.040183 -2.566637 -0.719797 1.000000
14.115537 -11.727270 -1.402405 9.000000
31.593613 46.610981 -0.275181 5.000000
24.131277 3.511770 -1.474392 8.000000
14.169206 -11.684345 -1.416370 7.000000
31.503599 46.846970 -0.226624 4.000000
24.084061 3.590793 -1.476529 35.000000
14.268640 -11.678746 -1.441447 7.000000
31.356667 46.981808 -0.157736 1.000000
14.283680 -11.603893 -1.448355 7.000000
62.036343 39.933735 -2.486146 1.000000
14.348443 -11.577735 -1.463973 7.000000
61.827763 40.120743 -2.445028 18.000000
14.335432 -11.472528 -1.474060 7.000000
27.664738 42.421440 0.008839 9.000000
61.460056 40.203014 -2.384971 9.000000
14.360884 -11.414981 -1.485667 7.000000
46.463085 71.820992 0.134366 1.000000
14.401860 -11.353511 -1.498067 7.000000
46.233612 72.016251 0.224048 1.000000
60.736450 40.353203 -2.266118 19.000000
18.058954 3.099851 -1.082173 1.000000
14.434699 -11.293861 -1.510048 7.000000
46.057014 72.295021 0.314180 1.000000
60.548553 40.549030 -2.188255 7.000000
18.116856 3.178192 -1.076669 1.000000
9.839355 -2.444108 -0.801468 1.000000
14.431869 -11.206614 -1.518288 7.000000
60.065239 40.545029 -2.125506 5.000000
18.567116 3.327371 -1.100841 1.000000
10.013018 -2.446465 -0.818463 1.000000
14.487577 -11.164995 -1.535907 7.000000
17.068787 27.220530 0.190662 6.000000
59.681904 40.605476 -2.066756 1.000000
18.314392 3.351408 -1.083318 1.000000
14.504016 -11.093170 -1.542957 7.000000
16.857328 27.092970 0.222772 8.000000
59.376366 40.701523 -1.998213 1.000000
14.535779 -11.033257 -1.554856 7.000000
16.721022 27.094791 0.255625 8.000000
59.075771 40.814545 -1.942951 10.000000
18.231413 3.474530 -1.063637 1.000000
14.583207 -10.985246 -1.568452 7.000000
16.657495 27.203873 0.295079 8.000000
58.976105 41.065834 -1.894404 6.000000
18.355942 3.568034 -1.068383 1.000000
14.546466 -10.874229 -1.576170 7.000000
16.549286 27.240210 0.328225 8.000000
58.587948 41.099964 -1.836536 10.000000
18.210894 3.609157 -1.054202 1.000000
10.838466 -2.438579 -0.889939 1.000000
14.577337 -10.814248 -1.587978 7.000000
16.531715 27.437408 0.363418 7.000000
58.279282 41.202980 -1.756792 7.000000
10.997460 -2.434051 -0.906248 1.000000
14.568560 -10.733021 -1.589501 7.000000
23.215576 38.836533 0.568613 8.000000
11.085224 -2.406838 -0.910684 1.000000
14.525949 -10.611934 -1.596012 7.000000
23.038748 38.847996 0.614906 23.000000
10.882951 -2.325157 -0.901248 1.000000
8.803815 -6.386960 -0.972624 7.000000
23.083416 39.250500 0.667627 8.000000
57.456650 41.561119 -1.572083 3.000000
10.833022 -2.273004 -0.894473 1.000000
8.798460 -6.333985 -0.975183 9.000000
56.989723 41.542385 -1.514205 17.000000
8.837267 -6.312874 -0.984557 10.000000
8.872252 -6.288881 -0.989708 17.000000
40.438831 70.467514 1.489084 9.000000
15.540422 -3.079905 -1.288588 38.000000
8.923039 -6.275872 -1.002400 15.000000
40.387188 70.950073 1.581816 1.000000
25.780609 19.216272 -0.600554 4.000000
18.335300 4.189241 -1.012009 1.000000
15.493123 -3.011558 -1.280969 13.000000
8.957943 -6.251472 -1.007586 15.000000
40.143433 71.040039 1.680733 1.000000
25.958162 19.497025 -0.583678 5.000000
18.281601 4.247535 -0.996757 1.000000
15.494046 -2.952845 -1.282913 23.000000
9.014050 -6.239297 -1.018914 13.000000
21.765797 38.881546 0.980066 1.000000
25.695658 19.447577 -0.545618 13.000000
15.499866 -2.895121 -1.282508 25.000000
9.097972 -6.248188 -1.031633 10.000000
21.616322 38.900749 1.025461 12.000000
15.511087 -2.835625 -1.279756 24.000000
9.145197 -6.231416 -1.038288 16.000000
21.567408 38.812725 1.054157 12.000000
25.847210 19.704559 -0.476531 7.000000
15.507711 -2.835008 -1.260092 25.000000
9.162399 -6.243137 -1.030481 17.000000
25.695850 19.440670 -0.483674 13.000000
15.483087 -2.891988 -1.245152 24.000000
9.115713 -6.260372 -1.016125 13.000000
25.862677 19.418247 -0.502409 7.000000
15.487924 -2.951678 -1.235327 23.000000
9.036399 -6.254766 -0.996294 12.000000
40.205235 70.630424 1.716594 1.000000
25.862017 19.276953 -0.512348 6.000000
18.241268 4.167758 -0.941327 1.000000
15.531037 -3.018928 -1.236862 21.000000
9.038487 -6.305336 -0.991309 9.000000
40.484188 70.461060 1.645468 1.000000
56.675613 41.922440 -1.156660 1.000000
18.309694 4.112838 -0.950641 1.000000
15.535172 -3.078865 -1.229739 6.000000
9.040606 -6.356202 -0.982424 9.000000
56.957188 41.808613 -1.208611 10.000000
10.920943 -2.208000 -0.859280 1.000000
9.025934 -6.395449 -0.975587 5.000000
57.223293 41.697353 -1.260607 5.000000
11.025374 -2.271207 -0.864193 1.000000
14.609077 -10.432098 -1.570547 6.000000
57.174908 41.311741 -1.292824 1.000000
10.968332 -2.301395 -0.858410 1.000000
14.624411 -10.524194 -1.560489 6.000000
23.022547 38.820675 0.732661 18.000000
14.526344 -10.534652 -1.538359 9.000000
23.218882 38.826675 0.694886 8.000000
14.541004 -10.626825 -1.528194 7.000000
16.512648 27.394945 0.457816 7.000000
58.378117 41.257576 -1.435001 8.000000
10.880096 -2.408075 -0.839832 1.000000
14.522873 -10.695453 -1.517717 9.000000
16.590242 27.307623 0.423855 8.000000
58.663162 41.137455 -1.488333 8.000000
10.871197 -2.449930 -0.833997 1.000000
14.580663 -10.820661 -1.511935 7.000000
16.692978 27.251141 0.401611 8.000000
58.911594 40.990387 -1.515878 7.000000
18.744812 3.640227 -0.977335 1.000000
10.906168 -2.499849 -0.833450 1.000000
14.553928 -10.883768 -1.497321 7.000000
16.746191 27.124981 0.367223 8.000000
59.254982 40.923080 -1.571326 2.000000
18.826534 3.584543 -0.984258 1.000000
14.578657 -10.985807 -1.487960 7.000000
16.885868 27.138840 0.334731 8.000000
59.477875 40.755856 -1.623626 1.000000
18.673531 3.477793 -0.982169 1.000000
14.515508 -11.021863 -1.469618 7.000000
16.977402 27.064297 0.306693 4.000000
59.849133 40.688702 -1.680229 1.000000
14.531445 -11.118168 -1.459278 7.000000
60.246006 40.636444 -1.712559 20.000000
10.060555 -2.461802 -0.756963 1.000000
14.451925 -11.141541 -1.442564 7.000000
60.493965 40.497181 -1.791857 9.000000
18.364710 3.218368 -0.973858 1.000000
10.002764 -2.488407 -0.751520 1.000000
14.423594 -11.204223 -1.430995 7.000000
27.229542 42.398090 0.325402 16.000000
60.857986 40.418636 -1.823757 12.000000
18.292719 3.136690 -0.969424 1.000000
9.810349 -2.478756 -0.730640 1.000000
14.426590 -11.291575 -1.419305 7.000000
27.339510 42.244282 0.272256 9.000000
14.440686 -11.388206 -1.411873 7.000000
27.584436 42.282169 0.229093 9.000000
61.544273 40.227436 -1.912482 19.000000
14.364866 -11.414055 -1.389215 7.000000
61.771244 40.068745 -1.966615 14.000000
72.746628 11.652121 -3.861085 86.000000
14.358720 -11.495276 -1.379772 7.000000
46.424076 70.059395 0.220029 1.000000
62.147694 39.990074 -2.025552 11.000000
24.078554 3.766295 -1.281513 8.000000
14.321304 -11.551709 -1.364090 7.000000
46.743408 70.009346 0.132230 1.000000
62.423550 39.844810 -2.068575 10.000000
24.096910 3.678737 -1.286030 57.000000
14.264126 -11.592140 -1.349780 7.000000
62.787518 39.753998 -2.127716 14.000000
24.090256 3.587418 -1.289227 38.000000
14.234023 -11.654562 -1.334825 7.000000
63.512863 39.903358 -2.199973 3.000000
24.118452 3.497009 -1.294273 24.000000
9.389343 -2.632154 -0.680168 1.000000
14.167393 -11.682851 -1.313063 9.000000
63.682819 39.685345 -2.253237 1.000000
24.180323 3.415539 -1.301187 26.000000
9.495009 -2.699350 -0.685072 1.000000
14.113495 -11.725574 -1.302386 7.000000
73.300743 106.454109 -0.293259 36.000000
64.129005 39.637814 -2.290209 10.000000
24.276541 3.338423 -1.309987 10.000000
9.063500 -2.612618 -0.651316 1.000000
14.086761 -11.790898 -1.284565 5.000000
64.392120 39.475002 -2.334007 1.000000
24.278490 3.248068 -1.313728 32.000000
14.089891 -11.881612 -1.275884 6.000000
31.913177 45.644531 -0.243014 15.000000
65.043106 39.546829 -2.405529 16.000000
24.606873 3.200242 -1.335197 3.000000
9.141142 -2.704259 -0.651550 1.000000
14.039488 -11.927431 -1.259118 6.000000
31.948370 45.356895 -0.290491 11.000000
64.888695 39.143364 -2.434469 4.000000
8.896317 -2.670715 -0.631601 1.000000
14.030452 -12.008572 -1.249293 6.000000
14.378458 20.254906 -0.156073 15.000000
9.034632 -2.748376 -0.638820 1.000000
13.998500 -12.070395 -1.234176 5.000000
32.091370 44.874371 -0.404414 19.000000
8.790634 -2.711071 -0.619073 1.000000
14.011472 -12.171403 -1.222977 6.000000
32.132633 44.585789 -0.450834 13.000000
8.576284 -2.679428 -0.598365 1.000000
13.952703 -12.210368 -1.202246 5.000000
24.262829 33.419441 -0.382030 1.000000
8.519039 -2.695854 -0.591923 1.000000
13.951800 -12.295839 -1.192822 7.000000
24.317003 33.237144 -0.424093 7.000000
82.365807 47.649807 -3.356171 3.000000
8.480791 -2.717987 -0.586832 4.000000
13.892487 -12.334327 -1.175331 5.000000
82.624931 47.415546 -3.426556 1.000000
8.461474 -2.746035 -0.583069 1.000000
13.918615 -12.449051 -1.165033 5.000000
32.369682 43.585812 -0.653846 8.000000
82.014877 46.666702 -3.443613 13.000000
8.480958 -2.783477 -0.581915 1.000000
13.866081 -12.493842 -1.151381 6.000000
32.503231 43.447968 -0.710307 12.000000
81.831825 46.166332 -3.461640 1.000000
8.418806 -2.797301 -0.575240 1.000000
13.898539 -12.615692 -1.141466 7.000000
82.081741 45.911545 -3.514382 1.000000
8.829694 -2.969805 -0.599157 1.000000
13.841887 -12.657111 -1.124188 6.000000
81.976395 45.458961 -3.568248 1.000000
8.521361 -2.900908 -0.575797 1.000000
13.810803 -12.721946 -1.108998 5.000000
8.685610 -2.992391 -0.581194 1.000000
13.737600 -12.743444 -1.093559 4.000000
8.513438 -2.971359 -0.568886 1.000000
13.789966 -12.886376 -1.084954 6.000000
13.030414 1.020939 -0.717017 7.000000
8.549917 -3.019290 -0.565704 1.000000
13.692439 -12.889572 -1.064527 6.000000
12.889564 0.962384 -0.711330 9.000000
8.464314 -3.022333 -0.557586 1.000000
13.765315 -13.053668 -1.057298 6.000000
12.897984 0.915489 -0.711605 1.000000
8.336021 -3.011017 -0.546752 1.000000
13.598910 -12.990860 -1.031704 4.000000
12.841355 0.864178 -0.710554 1.000000
8.423636 -3.077613 -0.548521 1.000000
13.647804 -13.128988 -1.018994 6.000000
8.415895 -3.113134 -0.548826 1.000000
13.596387 -13.175816 -1.008812 3.000000
12.917007 0.769674 -0.721188 1.000000
8.400022 -3.142310 -0.543825 1.000000
13.605795 -13.281977 -0.996477 5.000000
12.904785 0.726008 -0.715842 1.000000
8.427259 -3.184396 -0.539957 1.000000
13.572124 -13.346604 -0.974268 6.000000
13.146279 0.691268 -0.736006 1.000000
8.493746 -3.248543 -0.543455 1.000000
13.554199 -13.422366 -0.966325 5.000000
12.869604 0.627177 -0.720376 1.000000
8.515871 -3.289417 -0.539170 1.000000
13.519646 -13.486651 -0.950673 5.000000
13.021685 0.586756 -0.724200 1.000000
8.462086 -3.304335 -0.533346 1.000000
13.495361 -13.561474 -0.935717 7.000000
12.879155 0.528538 -0.718406 1.000000
8.569712 -3.386070 -0.536141 1.000000
13.442627 -13.607870 -0.918781 3.000000
12.696255 0.478864 -0.708111 1.000000
8.567882 -3.418238 -0.533502 1.000000
13.420083 -13.680235 -0.903737 6.000000
12.777754 0.435045 -0.712563 1.000000
8.490740 -3.423588 -0.524666 1.000000
13.388036 -13.748001 -0.881471 7.000000
12.794233 0.388664 -0.713398 1.000000
8.616989 -3.511266 -0.530001 1.000000
13.391417 -13.843021 -0.871237 7.000000
13.084891 0.349496 -0.731820 1.000000
8.576621 -3.531526 -0.523438 1.000000
13.343282 -13.904526 -0.851508 7.000000
8.631755 -3.594820 -0.522768 1.000000
13.370986 -14.031108 -0.839451 7.000000
8.684300 -3.650544 -0.525032 1.000000
6.326938 -6.688211 -0.392312 9.000000
12.982865 0.203951 -0.730491 1.000000
8.657413 -3.676637 -0.517631 1.000000
6.271837 -6.678828 -0.382401 8.000000
12.659061 0.152458 -0.712236 1.000000
8.703773 -3.734039 -0.516244 1.000000
6.218046 -6.668037 -0.372568 8.000000
8.823126 -3.823594 -0.519101 1.000000
6.183601 -6.680020 -0.364012 7.000000
12.699786 0.057630 -0.714483 1.000000
8.794234 -3.853079 -0.513265 1.000000
6.162670 -6.706550 -0.356264 6.000000
12.879628 0.011240 -0.724593 1.000000
8.676380 -3.835787 -0.507126 1.000000
6.168559 -6.762541 -0.350035 3.000000
12.894450 -0.029257 -0.727686 1.000000
13.068438 -14.427653 -0.727410 10.000000
12.809531 -0.073778 -0.720661 1.000000
13.022650 -14.463117 -0.710239 28.000000
12.889002 -0.125979 -0.725155 9.000000
12.991524 -14.545548 -0.694679 21.000000
12.873538 -0.168524 -0.724312 8.000000
26.740154 -12.282138 -1.516401 6.000000
12.937831 -14.587607 -0.674083 28.000000
12.967594 -0.221822 -0.729649 1.000000
26.473700 -12.277452 -1.488512 6.000000
12.924286 -14.680373 -0.659088 24.000000
26.017681 -12.182036 -1.450292 6.000000
12.883919 -14.743122 -0.642675 24.000000
53.828785 -1.315547 -3.029249 32.000000
23.634884 -11.172158 -1.306020 34.000000
12.839363 -14.796056 -0.622489 24.000000
52.995235 -1.489548 -2.982628 71.000000
23.666504 -11.293414 -1.296281 10.000000
12.824535 -14.888861 -0.607247 25.000000
52.789833 -1.677433 -2.971394 87.000000
12.815055 -14.983308 -0.592049 27.000000
52.603340 -1.846141 -2.979657 28.000000
12.763550 -15.034296 -0.578431 24.000000
52.536884 -2.036630 -2.967090 9.000000
24.033453 -11.789475 -1.281142 6.000000
12.734510 -15.112008 -0.558909 29.000000
52.324188 -2.229628 -2.955539 9.000000
12.736576 -15.221973 -0.540528 23.000000
52.305691 -2.420929 -2.954976 8.000000
23.357630 -11.671146 -1.226805 6.000000
12.683072 -15.260568 -0.526539 29.000000
52.262077 -2.610904 -2.943871 15.000000
23.074442 -11.635528 -1.200603 6.000000
12.672924 -15.373486 -0.507797 31.000000
52.267113 -2.803239 -2.944713 9.000000
12.653346 -15.448362 -0.491518 21.000000
22.327587 -11.464971 -1.139745 6.000000
12.601004 -15.511062 -0.470960 27.000000
22.099669 -11.450487 -1.117187 7.000000
12.590972 -15.609736 -0.455108 28.000000
29.222370 -1.889726 -1.652578 4.000000
21.774763 -11.383571 -1.089973 5.000000
5.732715 -7.160719 -0.201753 14.000000
28.936625 -1.977775 -1.631739 6.000000
21.486135 -11.333148 -1.060605 6.000000
5.673597 -7.137801 -0.190995 14.000000
28.854492 -2.078440 -1.627526 8.000000
21.248474 -11.302772 -1.038189 6.000000
5.638210 -7.146902 -0.182737 15.000000
28.752384 -2.177043 -1.617158 15.000000
5.602847 -7.155858 -0.172919 21.000000
28.779049 -2.285177 -1.619117 38.000000
28.695568 -15.535060 -1.379049 9.000000
5.599402 -7.203117 -0.165623 6.000000
28.750711 -2.383947 -1.623033 37.000000
28.017433 -15.288290 -1.332147 7.000000
12.406754 -16.069845 -0.354371 27.000000
28.701124 -2.495881 -1.620786 52.000000
27.125059 -14.942967 -1.276316 8.000000
12.387772 -16.173262 -0.330704 26.000000
28.716925 -2.603338 -1.617158 28.000000
26.524630 -14.739175 -1.239987 11.000000
12.352782 -16.250620 -0.313540 28.000000
28.737959 -2.701356 -1.618838 38.000000
25.827051 -14.463843 -1.183738 34.000000
12.313911 -16.305559 -0.292450 25.000000
8.685071 2.882406 -0.591761 1.000000
12.290463 -16.411079 -0.275559 24.000000
12.260090 -16.490179 -0.258232 29.000000
23.204729 -13.337923 -1.037560 146.000000
12.226412 -16.571388 -0.240826 33.000000
22.650711 -13.130158 -0.992052 23.000000
12.227654 -16.688629 -0.223883 32.000000
22.988117 -2.594783 -1.289347 6.000000
22.564058 -13.190654 -0.976663 28.000000
12.157739 -16.727551 -0.202120 29.000000
22.820927 -2.652581 -1.276433 7.000000
22.447586 -13.222639 -0.955302 30.000000
12.146201 -16.822550 -0.184697 32.000000
22.731741 -2.726693 -1.271995 8.000000
21.995167 -13.075356 -0.929330 25.000000
12.104890 -16.907930 -0.159693 28.000000
22.701065 -2.811474 -1.274878 10.000000
21.476074 -12.873537 -0.896258 24.000000
12.054546 -16.962395 -0.145280 26.000000
22.675972 -2.892792 -1.270054 17.000000
21.046518 -12.706093 -0.871400 19.000000
12.038659 -17.059565 -0.127548 32.000000
22.660486 -2.975263 -1.265788 6.000000
20.564823 -12.518361 -0.840729 25.000000
12.016398 -17.154821 -0.106012 30.000000
20.153032 -12.369155 -0.809214 19.000000
11.979181 -17.235783 -0.084259 25.000000
9.405464 2.704081 -0.679187 1.000000
17.500244 -2.428360 -0.978511 1.000000
19.772079 -12.244881 -0.787757 18.000000
11.952678 -17.339338 -0.066162 25.000000
9.414852 2.669460 -0.686019 1.000000
17.589907 -2.506546 -0.987142 1.000000
19.392534 -12.098984 -0.762248 18.000000
11.914910 -17.407804 -0.047863 25.000000
9.544428 2.668444 -0.698220 1.000000
17.185587 -2.513233 -0.961921 1.000000
19.005867 -11.954741 -0.733075 10.000000
11.868141 -17.469997 -0.025803 25.000000
9.674698 2.664856 -0.708756 1.000000
16.771576 -2.515507 -0.936289 1.000000
18.643547 -11.826990 -0.713131 10.000000
11.845409 -17.588015 -0.007402 26.000000
9.920009 2.693347 -0.729605 1.000000
16.851225 -2.590641 -0.938274 1.000000
18.305649 -11.697950 -0.686504 14.000000
11.834577 -17.691635 0.011145 29.000000
10.073851 2.695512 -0.747506 1.000000
16.802004 -2.646148 -0.939045 1.000000
17.952154 -11.564939 -0.659910 10.000000
11.788993 -17.764034 0.033489 20.000000
10.117167 2.667404 -0.753660 1.000000
16.457195 -2.653695 -0.917393 1.000000
17.679405 -11.481141 -0.640378 15.000000
5.442526 -8.269718 0.025918 13.000000
10.310037 2.677879 -0.771029 1.000000
16.723368 -2.759540 -0.929821 1.000000
17.338707 -11.354778 -0.615130 10.000000
5.096451 -7.803047 0.032533 48.000000
10.416014 2.664691 -0.783878 1.000000
16.456509 -2.780456 -0.918492 1.000000
17.038305 -11.238959 -0.598660 10.000000
5.070529 -7.819877 0.040666 18.000000
10.589854 2.667848 -0.800052 1.000000
16.239740 -2.805090 -0.904076 1.000000
16.739300 -11.129989 -0.575538 10.000000
10.686593 2.648623 -0.814315 1.000000
16.308168 -2.878505 -0.905568 1.000000
16.478514 -11.043902 -0.561029 10.000000
10.903465 2.664027 -0.832132 1.000000
16.440870 -2.958180 -0.916401 1.000000
16.202171 -10.944968 -0.539322 10.000000
11.345000 2.723694 -0.873178 1.000000
16.670843 -3.062680 -0.923904 1.000000
15.945033 -10.852513 -0.525283 10.000000
5.109591 -8.132767 0.078789 145.000000
11.417691 2.696924 -0.882125 1.000000
16.780924 -3.152592 -0.933688 1.000000
15.662270 -10.744267 -0.503992 7.000000
5.033338 -8.080108 0.088061 188.000000
11.582452 2.691059 -0.900348 1.000000
16.798836 -3.219745 -0.932341 1.000000
15.425588 -10.665258 -0.491080 8.000000
5.284067 -8.542288 0.099930 164.000000
11.708268 2.675100 -0.917792 1.000000
16.605627 -3.245857 -0.922272 1.000000
15.156951 -10.561842 -0.474077 8.000000
11.547138 2.595908 -0.906524 1.000000
16.291023 -3.240486 -0.908298 1.000000
14.948438 -10.494249 -0.455939 8.000000
4.687167 -7.699950 0.106990 58.000000
17.218431 3.798321 -1.362931 84.000000
16.313133 -3.307086 -0.913114 1.000000
14.681496 -10.387386 -0.442674 9.000000
4.602017 -7.622833 0.113455 11.000000
17.215620 3.737878 -1.370999 119.000000
16.315882 -3.369948 -0.908121 1.000000
14.533563 -10.362864 -0.433121 27.000000
4.534224 -7.570138 0.120136 9.000000
17.194841 3.667425 -1.371352 106.000000
16.381435 -3.446138 -0.915396 1.000000
14.507903 -10.424986 -0.421013 25.000000
4.517921 -7.602999 0.129670 9.000000
3.801666 2.739832 -0.421519 1.000000
17.208485 3.598174 -1.383626 115.000000
16.421780 -3.520525 -0.918400 1.000000
14.463504 -10.469831 -0.411428 19.000000
4.472198 -7.589257 0.136844 9.000000
17.230749 3.533831 -1.399761 125.000000
16.364710 -3.571076 -0.918866 1.000000
14.457340 -10.546339 -0.412350 20.000000
4.334616 -7.414835 0.139423 10.000000
16.590008 -3.683992 -0.938218 1.000000
14.414619 -10.596339 -0.409112 23.000000
4.262243 -7.352755 0.142412 34.000000
17.386492 3.499416 -1.458096 1.000000
16.251806 -3.608891 -0.954069 1.000000
14.416261 -10.601422 -0.437336 22.000000
3.923178 2.815976 -0.448840 1.000000
17.202690 3.528076 -1.443756 109.000000
16.605650 -3.623653 -0.985960 1.000000
14.450669 -10.545339 -0.452825 23.000000
3.876714 2.804211 -0.442171 1.000000
17.198528 3.596092 -1.447642 100.000000
16.593912 -3.557426 -0.993399 1.000000
14.488831 -10.492018 -0.471559 25.000000
4.462192 -7.572275 0.116592 10.000000
17.193203 3.667076 -1.454600 90.000000
16.484053 -3.470730 -0.997855 1.000000
14.496548 -10.420664 -0.489333 11.000000
4.511654 -7.595472 0.104853 10.000000
17.200678 3.728347 -1.453178 64.000000
