VERSION .7
FIELDS x y z intensity
SIZE 4 4 4 4
TYPE F F F F
COUNT 1 1 1 1
WIDTH 1220
HEIGHT 1
VIEWPOINT 0 0 0 1 0 0 0
POINTS 1220
DATA ascii
6.676846 0.027968 -0.328891 1.000000
27.693836 -11.995672 -1.449659 6.000000
7.183933 -7.757942 -0.376618 5.000000
49.973679 55.657482 -2.429113 29.000000
27.302628 -11.945253 -1.415824 6.000000
7.165197 -7.789364 -0.365891 9.000000
18.313238 20.246340 -0.905634 6.000000
6.871586 -0.017990 -0.339684 1.000000
26.797937 -11.841653 -1.376519 6.000000
7.152334 -7.835551 -0.355645 7.000000
18.410341 20.204348 -0.930648 10.000000
6.716723 -0.042203 -0.330859 1.000000
26.330156 -11.739464 -1.344398 6.000000
7.200949 -7.947114 -0.350140 9.000000
6.961107 -0.068039 -0.345343 1.000000
25.941042 -11.680141 -1.321731 6.000000
7.091095 -7.878224 -0.340511 25.000000
25.521706 -11.604025 -1.278005 6.000000
6.875657 -0.117614 -0.338731 1.000000
25.089224 -11.518539 -1.243970 6.000000
6.851949 -7.717536 -0.309906 61.000000
25.615942 27.316397 -1.418975 7.000000
6.860083 -0.142500 -0.340388 1.000000
24.648237 -11.425648 -1.219422 6.000000
6.857390 -7.786397 -0.304314 24.000000
25.615528 27.116089 -1.446038 9.000000
40.081760 16.824131 -2.095595 4.000000
6.769651 -0.165447 -0.335929 1.000000
24.249737 -11.349086 -1.178346 6.000000
7.136324 -8.160375 -0.308486 35.000000
25.708050 27.033878 -1.472276 9.000000
40.063732 16.644115 -2.114218 171.000000
23.950726 -11.316342 -1.161191 6.000000
25.816067 26.948977 -1.518463 9.000000
40.173897 16.517487 -2.147220 13.000000
25.838810 26.766218 -1.539761 7.000000
6.716690 -7.850351 -0.265129 216.000000
19.036798 19.589645 -1.149648 4.000000
6.755506 -7.948930 -0.258591 37.000000
19.181145 19.593981 -1.177992 7.000000
6.975093 -0.298441 -0.345115 1.000000
6.672138 -7.915004 -0.247575 88.000000
19.350094 19.629028 -1.217891 6.000000
7.258298 -0.337214 -0.359187 1.000000
30.639334 -15.162868 -1.408910 8.000000
6.782594 -8.103266 -0.241649 29.000000
19.498581 19.635185 -1.246895 7.000000
7.052459 -0.353560 -0.350298 1.000000
29.426207 -14.697024 -1.349843 31.000000
6.583197 -7.918244 -0.230085 10.000000
19.665016 19.658152 -1.277238 10.000000
26.990852 -13.604509 -1.213987 7.000000
6.520685 -7.898981 -0.216343 30.000000
19.775133 19.623852 -1.304074 9.000000
6.870126 -0.396129 -0.341379 7.000000
26.210693 -13.331973 -1.175946 33.000000
6.394032 -7.809199 -0.204368 30.000000
19.924347 19.634361 -1.338745 9.000000
6.993301 -0.428954 -0.346350 5.000000
26.157991 -13.414538 -1.160155 27.000000
6.349265 -7.807199 -0.196735 23.000000
20.116713 19.679117 -1.371431 10.000000
25.443426 -13.177354 -1.115773 26.000000
6.316227 -7.827786 -0.186104 34.000000
20.284918 19.698687 -1.392807 9.000000
24.594034 -12.841057 -1.065838 35.000000
6.468538 -8.071168 -0.182350 35.000000
20.474741 19.737726 -1.425743 9.000000
32.784172 -2.229252 -1.624363 1.000000
23.800222 -12.537818 -1.019315 45.000000
6.434216 -8.086020 -0.171353 23.000000
20.585541 19.699484 -1.458336 14.000000
32.680038 -2.354001 -1.625391 7.000000
23.086361 -12.275236 -0.972473 31.000000
6.444889 -8.160645 -0.165171 20.000000
20.765455 19.733252 -1.491258 8.000000
32.556656 -2.465091 -1.619693 15.000000
22.301929 -11.963202 -0.928002 17.000000
6.244020 -7.969021 -0.150202 26.000000
20.963806 19.776026 -1.525506 7.000000
12.086643 4.258750 -0.716469 3.000000
32.497902 -2.580470 -1.611526 40.000000
21.687069 -11.735939 -0.891272 9.000000
6.187226 -7.956433 -0.140739 22.000000
21.159075 19.814171 -1.559789 6.000000
12.087790 4.209414 -0.720100 5.000000
32.464283 -2.686164 -1.610292 46.000000
21.130541 -11.525530 -0.865760 18.000000
6.222000 -8.056138 -0.133252 179.000000
21.278088 19.779741 -1.588635 6.000000
11.984891 4.124389 -0.717503 1.000000
32.419670 -2.802147 -1.602884 22.000000
20.581259 -11.333362 -0.828689 21.000000
6.026898 -7.865770 -0.119341 64.000000
21.400572 19.747879 -1.622952 6.000000
11.919106 4.052953 -0.721488 1.000000
32.443718 -2.924065 -1.610292 87.000000
20.063810 -11.144452 -0.797461 10.000000
6.015980 -7.905686 -0.110973 41.000000
21.648666 19.837349 -1.662210 7.000000
11.919326 4.004350 -0.727214 1.000000
32.521214 -3.062707 -1.614735 13.000000
19.504524 -10.927531 -0.761192 9.000000
21.853302 19.878002 -1.693008 7.000000
11.905257 3.951123 -0.729860 1.000000
19.094072 -10.780921 -0.742733 9.000000
6.124317 -8.168696 -0.096226 42.000000
21.936291 19.820959 -1.725399 7.000000
11.890034 3.900048 -0.736854 1.000000
26.919401 -2.724880 -1.337507 5.000000
18.574598 -10.573292 -0.712754 9.000000
6.152542 -8.266305 -0.086330 10.000000
22.141150 19.845201 -1.756062 9.000000
11.881848 3.844604 -0.735384 1.000000
26.735861 -2.805335 -1.319483 6.000000
18.198994 -10.456434 -0.677943 13.000000
6.250000 -8.468007 -0.077152 25.000000
22.309299 19.848938 -1.794998 11.000000
11.876350 3.794795 -0.742913 1.000000
26.521566 -2.885848 -1.304777 7.000000
18.126158 -10.503140 -0.669339 17.000000
6.170205 -8.421260 -0.067418 31.000000
11.841029 3.740279 -0.744273 1.000000
26.416746 -2.972450 -1.295497 9.000000
18.108791 -10.573445 -0.658998 23.000000
6.227587 -8.558966 -0.059117 255.000000
11.873468 3.702721 -0.749811 1.000000
18.070211 -10.639921 -0.648018 17.000000
11.843528 3.645808 -0.755755 2.000000
18.061367 -10.724055 -0.641767 22.000000
6.777903 -9.456810 -0.044675 105.000000
11.853039 3.596710 -0.759774 1.000000
20.821480 -2.575002 -1.022428 1.000000
18.024725 -10.796123 -0.627252 14.000000
6.344665 -8.924512 -0.028667 26.000000
11.797722 3.537242 -0.759788 1.000000
20.703089 -2.637437 -1.013431 2.000000
18.006218 -10.866331 -0.616837 21.000000
6.329464 -8.965942 -0.019155 31.000000
11.819922 3.496733 -0.764706 5.000000
20.366295 -2.670426 -1.001010 1.000000
17.970905 -10.935076 -0.602297 19.000000
6.292397 -8.979802 -0.011483 19.000000
11.798612 3.443451 -0.771120 9.000000
20.420885 -2.753754 -1.000578 1.000000
17.930794 -11.000922 -0.598626 17.000000
6.290843 -9.047966 0.000000 14.000000
11.839666 3.408392 -0.777299 1.000000
20.088940 -2.783997 -0.988355 1.000000
17.911957 -11.079932 -0.584633 17.000000
6.068943 -8.794150 0.007460 25.000000
11.828402 3.356021 -0.780017 1.000000
20.202208 -2.875200 -0.994439 1.000000
17.886236 -11.150535 -0.570335 21.000000
11.836445 3.307022 -0.788281 5.000000
20.152172 -2.943476 -0.988938 1.000000
17.845333 -11.216068 -0.566656 14.000000
5.882179 -8.655364 0.029224 25.000000
11.861511 3.271659 -0.793536 1.000000
20.245852 -3.025763 -0.997603 1.000000
17.812878 -11.286959 -0.552203 18.000000
5.814058 -8.622942 0.039933 36.000000
11.864651 3.221331 -0.797184 1.000000
20.159670 -3.095667 -0.990393 1.000000
17.784348 -11.360448 -0.537863 23.000000
5.753314 -8.597444 0.048749 75.000000
11.827909 3.164854 -0.798222 1.000000
20.123693 -3.165681 -0.985625 1.000000
17.770166 -11.447701 -0.531376 18.000000
5.710438 -8.607931 0.057693 31.000000
11.837934 3.125507 -0.804633 11.000000
20.072510 -3.233064 -0.983692 1.000000
17.724028 -11.501324 -0.516374 19.000000
5.675078 -8.613248 0.068411 31.000000
11.849037 3.082027 -0.808907 1.000000
17.694527 -11.574563 -0.505670 21.000000
5.659849 -8.659048 0.077638 48.000000
11.855145 3.037268 -0.812849 7.000000
20.240673 -3.412553 -0.985951 1.000000
17.660622 -11.645034 -0.491140 17.000000
11.875458 2.996133 -0.819925 1.000000
20.016230 -3.450208 -0.979180 1.000000
10.003772 -6.649007 -0.274685 1.000000
5.980746 -9.290981 0.104142 21.000000
11.901122 2.954049 -0.825207 1.000000
14.249388 -2.507423 -0.694963 1.000000
9.980659 -6.683992 -0.266299 1.000000
5.900858 -9.241123 0.112909 31.000000
11.901616 2.907904 -0.833089 1.000000
14.259645 -2.563146 -0.698451 1.000000
9.860876 -6.656254 -0.259597 1.000000
5.905985 -9.320722 0.121334 30.000000
11.911768 2.864160 -0.839504 3.000000
14.284419 -2.621682 -0.702672 1.000000
9.886084 -6.726145 -0.256732 1.000000
11.917045 2.819266 -0.843437 1.000000
13.861703 -2.601660 -0.677451 1.000000
9.849142 -6.753953 -0.248073 1.000000
5.722593 -9.175872 0.139677 24.000000
11.931725 2.776599 -0.850195 1.000000
13.715531 -2.621340 -0.673171 1.000000
17.512476 -12.099101 -0.434719 10.000000
5.570491 -9.005325 0.147859 20.000000
12.101688 2.769434 -0.870286 9.000000
17.464035 -12.160437 -0.427189 14.000000
5.541582 -9.028885 0.155325 19.000000
12.131074 2.729406 -0.873855 1.000000
17.444138 -12.241760 -0.412913 12.000000
5.515159 -9.056594 0.164725 21.000000
12.097036 2.672989 -0.879349 1.000000
17.419737 -12.320172 -0.402226 14.000000
5.611080 -9.290591 0.178080 28.000000
12.184279 2.645467 -0.891542 1.000000
12.971194 -2.676763 -0.640813 1.000000
17.384880 -12.386786 -0.394963 12.000000
5.617060 -9.374281 0.190755 8.000000
12.256994 2.614250 -0.900553 1.000000
12.687818 -2.666805 -0.622756 1.000000
17.368010 -12.470991 -0.380683 22.000000
12.299035 -20.697474 0.441264 19.000000
12.383175 2.593748 -0.915778 1.000000
12.614365 -2.699680 -0.621889 6.000000
17.334440 -12.543432 -0.373481 11.000000
12.284902 -20.838987 0.464482 111.000000
12.592394 2.589428 -0.937309 1.000000
12.536068 -2.731013 -0.618518 4.000000
17.288506 -12.606996 -0.362278 11.000000
12.244684 -20.937485 0.486897 57.000000
12.728199 2.566455 -0.962626 1.000000
12.447645 -2.759577 -0.621342 1.000000
17.256479 -12.676145 -0.362532 23.000000
12.202842 -21.042542 0.501038 31.000000
12.731420 2.567105 -0.985665 1.000000
12.358117 -2.741992 -0.643475 1.000000
17.253733 -12.678763 -0.399902 10.000000
12.225669 -21.081905 0.476445 29.000000
12.569748 2.584772 -0.978415 1.000000
12.382389 -2.699797 -0.650872 1.000000
17.287621 -12.606350 -0.422028 22.000000
12.196065 -20.862703 0.438696 28.000000
12.374599 2.591951 -0.966177 1.000000
12.665173 -2.712866 -0.674276 1.000000
17.302807 -12.525144 -0.443707 12.000000
12.244784 -20.770935 0.408240 37.000000
12.262950 2.615520 -0.953800 1.000000
12.987397 -2.732140 -0.697861 1.000000
17.348276 -12.461411 -0.462347 20.000000
12.266348 -20.642466 0.381402 24.000000
12.097053 2.626528 -0.945985 1.000000
12.635123 -2.609710 -0.685188 1.000000
17.366707 -12.382979 -0.491480 10.000000
12.072901 2.667656 -0.942684 1.000000
17.391289 -12.304607 -0.505777 14.000000
5.523475 -9.145538 0.139862 26.000000
11.960896 2.688925 -0.934702 82.000000
17.444010 -12.246215 -0.528334 14.000000
5.524242 -9.075075 0.127951 11.000000
12.008642 2.748140 -0.941413 24.000000
17.465761 -12.170693 -0.546292 10.000000
5.563808 -9.068647 0.115134 20.000000
11.901691 2.769610 -0.929528 39.000000
17.497601 -12.097849 -0.560758 9.000000
5.544466 -8.963252 0.103015 18.000000
11.935125 2.823544 -0.932942 3.000000
9.850511 -6.757420 -0.327409 1.000000
5.604877 -8.990614 0.090609 13.000000
11.895926 2.860351 -0.926395 5.000000
13.777817 -2.531188 -0.778286 1.000000
9.851400 -6.702548 -0.334906 1.000000
11.885520 2.903971 -0.924260 1.000000
13.806252 -2.484137 -0.786740 1.000000
9.856810 -6.658519 -0.342648 1.000000
5.749426 -9.077146 0.067512 14.000000
11.855441 2.942710 -0.922753 15.000000
9.926565 -6.652785 -0.354660 1.000000
5.896787 -9.238301 0.057386 48.000000
11.805691 2.978531 -0.915490 225.000000
17.630974 -11.727302 -0.650654 10.000000
5.899279 -9.171456 0.043775 26.000000
11.818844 3.027968 -0.917365 27.000000
14.481667 -2.441592 -0.839077 1.000000
17.648426 -11.645834 -0.664495 13.000000
5.913834 -9.120440 0.032252 110.000000
11.857151 3.079719 -0.918976 1.000000
19.478237 -3.217616 -1.138329 4.000000
17.686419 -11.578077 -0.679096 24.000000
5.691305 -8.710492 0.019976 38.000000
11.831320 3.119343 -0.917853 1.000000
19.553766 -3.156513 -1.145527 5.000000
17.711468 -11.501962 -0.696883 22.000000
11.868283 3.175657 -0.917305 5.000000
19.692804 -3.104942 -1.163472 3.000000
17.742695 -11.434387 -0.711290 13.000000
5.819854 -8.769544 -0.005511 33.000000
11.874994 3.228590 -0.914499 3.000000
19.339821 -2.969773 -1.145330 6.000000
17.775642 -11.363626 -0.725682 18.000000
6.100561 -9.123239 -0.017239 32.000000
11.844161 3.266874 -0.908728 1.000000
19.261524 -2.885528 -1.143471 7.000000
17.799751 -11.287353 -0.743388 14.000000
6.002603 -8.905929 -0.028117 35.000000
11.850738 3.317705 -0.910203 17.000000
19.261499 -2.813382 -1.153077 5.000000
17.836327 -11.219096 -0.757922 20.000000
6.025211 -8.872489 -0.037437 7.000000
11.777306 3.339303 -0.905409 239.000000
19.374287 -2.764270 -1.162701 6.000000
17.870461 -11.153697 -0.779803 20.000000
5.962938 -8.715176 -0.051606 32.000000
11.773692 3.389399 -0.901870 238.000000
19.394913 -2.687817 -1.166712 1.000000
17.885382 -11.072127 -0.789707 10.000000
6.020360 -8.730268 -0.061080 33.000000
11.785426 3.439602 -0.899419 240.000000
19.744848 -2.666099 -1.197665 1.000000
17.899822 -10.990522 -0.803246 10.000000
6.378819 -9.181337 -0.078050 38.000000
11.782603 3.485693 -0.895861 230.000000
19.783972 -2.597584 -1.202948 1.000000
17.956568 -10.934942 -0.818688 21.000000
6.326344 -9.034956 -0.088554 12.000000
11.780834 3.527697 -0.892296 238.000000
20.327833 -2.593238 -1.239020 2.000000
17.995907 -10.868681 -0.837034 13.000000
6.484596 -9.192501 -0.102100 23.000000
11.776122 3.577859 -0.893019 231.000000
20.237499 -2.506367 -1.243663 1.000000
17.990377 -10.779817 -0.849687 16.000000
6.651440 -9.356027 -0.116209 11.000000
11.778157 3.623434 -0.889803 224.000000
20.385073 -2.448817 -1.255768 2.000000
18.037970 -10.718681 -0.861079 21.000000
6.701464 -9.357054 -0.126557 11.000000
11.797138 3.681177 -0.888010 1.000000
20.602949 -2.391131 -1.268589 1.000000
18.059134 -10.641889 -0.882210 23.000000
6.631872 -9.185176 -0.140396 16.000000
11.842084 3.738340 -0.890143 1.000000
18.080364 -10.565311 -0.892333 19.000000
6.424073 -8.835491 -0.144910 59.000000
11.842849 3.786369 -0.886876 1.000000
18.127066 -10.503666 -0.907386 14.000000
6.281986 -8.573822 -0.152128 28.000000
20.573645 18.459675 -1.879539 7.000000
11.865804 3.846277 -0.885368 1.000000
18.154264 -10.434950 -0.925226 16.000000
6.228632 -8.439056 -0.162939 38.000000
20.166803 18.228498 -1.819866 7.000000
11.820100 3.874825 -0.878547 1.000000
18.456831 -10.519053 -0.946105 10.000000
6.222189 -8.369026 -0.169288 35.000000
20.413666 18.581520 -1.833467 7.000000
11.899551 3.953841 -0.879027 1.000000
26.740280 -2.617196 -1.671564 6.000000
18.946787 -10.706485 -0.988233 14.000000
6.156774 -8.217962 -0.179236 64.000000
20.912903 19.176579 -1.859738 7.000000
11.823812 3.976856 -0.870127 1.000000
32.478397 -3.052956 -2.035228 8.000000
19.460411 -10.902816 -1.024635 15.000000
6.266612 -8.304008 -0.192487 29.000000
21.077753 19.470434 -1.865643 8.000000
11.885411 4.043809 -0.875694 1.000000
19.944967 -11.078441 -1.063965 24.000000
6.006415 -7.898838 -0.192267 38.000000
21.120668 19.654032 -1.850523 9.000000
11.861365 4.084196 -0.870619 1.000000
20.479321 -11.277227 -1.102526 23.000000
21.005974 19.691456 -1.821557 10.000000
11.884429 4.140922 -0.866799 1.000000
32.434341 -2.689386 -2.047599 8.000000
21.098652 -11.517694 -1.146203 28.000000
6.117476 -7.926521 -0.216729 29.000000
20.818707 19.659758 -1.786467 10.000000
11.972955 4.221041 -0.869926 1.000000
32.483421 -2.573615 -2.055798 20.000000
21.734943 -11.766752 -1.204474 16.000000
6.160305 -7.924667 -0.227781 21.000000
20.675131 19.661156 -1.755032 9.000000
12.056357 4.300190 -0.872636 4.000000
32.437901 -2.450405 -2.052335 111.000000
22.314209 -11.974805 -1.247426 30.000000
6.411107 -8.185210 -0.245022 25.000000
20.499512 19.637732 -1.721357 10.000000
32.485306 -2.345673 -2.060538 36.000000
23.098061 -12.286628 -1.302451 16.000000
6.465674 -8.192842 -0.256894 38.000000
20.320726 19.609793 -1.687635 9.000000
23.760756 -12.527625 -1.351321 34.000000
20.213768 19.650167 -1.664972 15.000000
33.318184 12.311550 -2.384149 9.000000
24.642122 -12.877114 -1.418213 9.000000
6.433207 -8.032827 -0.273084 18.000000
20.024950 19.609880 -1.630785 8.000000
33.170456 12.382133 -2.364089 8.000000
25.588593 -13.252536 -1.485007 9.000000
6.354303 -7.877787 -0.280940 30.000000
19.882744 19.607046 -1.600319 9.000000
33.200977 12.545604 -2.351168 8.000000
6.512554 -0.344728 -0.417166 8.000000
26.160484 -13.427352 -1.530768 24.000000
6.427106 -7.908552 -0.291776 238.000000
19.729834 19.585732 -1.573759 11.000000
33.220551 12.679050 -2.343052 8.000000
26.186352 -13.331100 -1.545114 29.000000
6.492462 -7.932238 -0.304227 27.000000
19.567513 19.581179 -1.537988 7.000000
26.938431 -13.578087 -1.612661 6.000000
6.591271 -7.993009 -0.316532 18.000000
19.376604 19.519165 -1.508802 7.000000
35.713078 13.931129 -2.492390 8.000000
6.666809 -8.027360 -0.329750 29.000000
19.229029 19.519840 -1.474358 7.000000
35.533012 14.011156 -2.463308 8.000000
6.561309 -7.841674 -0.332039 38.000000
19.119850 19.551836 -1.447539 7.000000
35.111015 13.993670 -2.430968 8.000000
22.424246 -11.000087 -1.378938 6.000000
6.651013 -7.889944 -0.344128 9.000000
18.968937 19.540276 -1.417695 5.000000
34.963467 14.083585 -2.404493 8.000000
22.800514 -11.081172 -1.412884 6.000000
6.548916 -7.714025 -0.348059 255.000000
18.790503 19.485340 -1.385495 6.000000
23.137167 -11.140140 -1.444693 6.000000
6.541138 -7.647870 -0.358464 23.000000
18.692207 19.532957 -1.360114 4.000000
6.551282 -7.605822 -0.366334 64.000000
18.590183 19.569435 -1.339009 7.000000
23.902378 -11.293500 -1.524295 6.000000
7.178176 -8.272116 -0.409261 6.000000
18.378595 19.475632 -1.304989 7.000000
24.232225 -11.340890 -1.556725 6.000000
7.142393 -8.170191 -0.416892 27.000000
18.273718 19.507238 -1.279230 4.000000
6.969240 -7.916185 -0.414387 57.000000
18.094011 19.451040 -1.248160 5.000000
25.116095 -11.530876 -1.637074 6.000000
6.915090 -7.796872 -0.418575 5.000000
17.897953 19.382248 -1.216455 5.000000
25.484800 -11.587245 -1.668133 6.000000
7.296150 -8.166035 -0.451312 16.000000
17.787144 19.404461 -1.186126 7.000000
25.899954 -11.672517 -1.707693 6.000000
7.070398 -7.857986 -0.444889 1.000000
17.649380 19.389616 -1.158519 7.000000
26.365599 -11.766300 -1.750712 6.000000
7.079331 -7.815635 -0.454881 35.000000
17.468428 19.346264 -1.124382 7.000000
26.827673 -11.854793 -1.793911 6.000000
7.164953 -7.852128 -0.465966 9.000000
17.374763 19.357693 -1.103852 5.000000
27.263273 -11.928036 -1.835744 6.000000
7.134585 -7.764241 -0.471445 8.000000
17.221298 19.321972 -1.075754 5.000000
27.663197 -11.993870 -1.881114 6.000000
7.128669 -7.700958 -0.482033 8.000000
17.167412 19.404228 -1.058705 1.000000
28.182962 -12.096705 -1.929553 6.000000
7.190619 -7.710995 -0.493528 24.000000
29.034830 -12.324553 -1.990000 7.000000
7.124945 -7.587295 -0.494482 19.000000
25.872171 29.689194 -1.526610 3.000000
27.325802 -11.481097 -1.890745 9.000000
7.114594 -7.520842 -0.502714 8.000000
25.784418 29.787350 -1.485935 73.000000
6.449102 0.176760 -0.417201 1.000000
27.326567 -11.374951 -1.893364 6.000000
7.041835 -7.389488 -0.506371 24.000000
25.672647 29.878838 -1.451370 7.000000
30.292097 -12.479316 -2.112878 8.000000
6.821790 -7.108728 -0.497380 4.000000
25.747543 30.178480 -1.419954 1.000000
6.652008 0.231131 -0.431592 1.000000
31.010809 -12.642652 -2.183239 7.000000
25.776413 30.437555 -1.392839 1.000000
31.000353 -12.506079 -2.196839 7.000000
25.658070 30.513147 -1.350393 10.000000
16.124819 -6.436413 -1.150136 6.000000
7.360144 -7.502822 -0.558174 56.000000
25.517984 30.573345 -1.314118 10.000000
6.519598 0.297193 -0.422041 1.000000
16.134007 -6.371624 -1.155199 6.000000
7.249102 -7.338212 -0.556834 107.000000
25.422276 30.686609 -1.287122 10.000000
6.423666 0.318665 -0.415911 1.000000
16.149593 -6.302958 -1.163612 6.000000
7.377729 -7.413872 -0.573778 84.000000
25.305378 30.785355 -1.231481 10.000000
16.228052 -6.265139 -1.173703 6.000000
7.602421 -7.583868 -0.598486 10.000000
25.260448 30.939280 -1.213348 19.000000
16.322718 -6.239569 -1.188238 8.000000
7.573038 -7.499380 -0.603335 9.000000
25.329329 31.245651 -1.179729 10.000000
16.494398 -6.236004 -1.205248 8.000000
25.274803 31.413054 -1.147330 7.000000
6.528142 0.417580 -0.420726 1.000000
16.605328 -6.208477 -1.221009 9.000000
28.946590 36.247791 -1.271415 4.000000
16.754971 -6.191204 -1.236520 8.000000
16.222761 -15.720948 -1.338160 6.000000
35.742672 45.079865 -1.506483 160.000000
16.987762 -6.206554 -1.261528 9.000000
16.347765 -15.726311 -1.363574 7.000000
35.649101 45.301926 -1.459188 20.000000
17.150715 -6.194933 -1.278331 8.000000
16.347563 -15.616612 -1.378804 7.000000
35.532005 45.446186 -1.409859 17.000000
17.318497 -6.183874 -1.295589 7.000000
20.978624 27.055229 -0.794854 8.000000
20.786896 27.002083 -0.761403 9.000000
16.457256 -15.378893 -1.432907 7.000000
20.682194 27.070763 -0.725505 8.000000
6.500704 0.584747 -0.412928 1.000000
16.465034 -15.273501 -1.448380 7.000000
20.624620 27.171932 -0.696694 8.000000
9.077478 -8.364730 -0.804728 18.000000
20.539860 27.287029 -0.661746 8.000000
9.068507 -8.292301 -0.811874 24.000000
35.124512 46.968998 -1.085177 10.000000
11.763987 -3.911077 -0.903860 1.000000
9.131556 -8.288706 -0.825603 20.000000
11.721090 -3.849165 -0.903803 1.000000
9.214027 -8.308002 -0.841439 1.000000
23.704529 32.175552 -0.655722 24.000000
11.726146 -3.801007 -0.905224 1.000000
16.686937 -14.925086 -1.530170 7.000000
23.560825 32.250801 -0.613487 10.000000
11.711203 -3.748785 -0.907319 1.000000
16.680845 -14.809946 -1.544182 7.000000
34.730972 47.890911 -0.846723 17.000000
6.488745 0.753069 -0.407544 1.000000
11.643735 -3.680195 -0.905327 1.000000
16.689093 -14.708238 -1.559452 7.000000
26.437260 36.737194 -0.608300 12.000000
6.466192 0.774481 -0.405162 7.000000
11.609245 -3.622547 -0.905876 3.000000
16.704321 -14.613231 -1.575324 8.000000
26.330797 36.832767 -0.561088 30.000000
6.552742 0.806897 -0.410750 5.000000
11.603081 -3.574008 -0.908628 1.000000
16.691414 -14.504511 -1.588958 7.000000
34.503670 48.641220 -0.676580 11.000000
6.594075 0.838872 -0.412384 7.000000
11.606257 -3.528463 -0.912116 4.000000
16.734596 -14.429631 -1.607166 7.000000
27.221478 38.660488 -0.478654 14.000000
11.575827 -3.472914 -0.912961 3.000000
16.809246 -14.386923 -1.624789 7.000000
34.338718 49.150238 -0.554637 15.000000
11.573829 -3.426127 -0.916044 5.000000
16.765993 -14.243769 -1.630994 7.000000
34.218449 49.380875 -0.482348 19.000000
20.922438 2.810235 -1.294861 1.000000
11.572235 -3.377382 -0.919117 8.000000
16.843674 -14.203799 -1.652810 7.000000
34.210785 49.702633 -0.431780 1.000000
21.021997 2.894608 -1.297892 7.000000
11.579436 -3.333477 -0.922943 7.000000
16.852674 -14.106023 -1.664038 7.000000
20.897297 2.959243 -1.287188 7.000000
11.572083 -3.285479 -0.925615 9.000000
16.906975 -14.046413 -1.683598 7.000000
20.945801 3.044462 -1.287146 6.000000
11.583735 -3.242956 -0.929814 10.000000
16.964897 -13.989755 -1.703552 7.000000
78.433998 116.634140 -0.539691 10.000000
20.801441 3.101374 -1.275281 6.000000
11.566710 -3.192520 -0.927502 10.000000
16.980646 -13.898499 -1.711566 7.000000
77.946167 116.787025 -0.392098 10.000000
20.765490 3.173857 -1.270101 9.000000
11.553969 -3.143475 -0.929755 9.000000
17.049887 -13.851127 -1.728846 8.000000
20.802103 3.264962 -1.269444 5.000000
11.584900 -3.104165 -0.935490 14.000000
17.025398 -13.727956 -1.744296 8.000000
20.663685 3.313485 -1.250663 1.000000
11.567124 -3.054006 -0.935245 28.000000
17.077894 -13.677081 -1.756548 8.000000
11.568591 -3.009080 -0.934466 24.000000
17.048918 -13.551608 -1.763750 7.000000
11.564739 -2.962867 -0.937464 43.000000
17.090223 -13.472846 -1.781531 7.000000
15.023713 2.578846 -0.900287 1.000000
11.583690 -2.926822 -0.944503 25.000000
17.165213 -13.439904 -1.800015 7.000000
21.400499 33.592052 0.145984 9.000000
15.132304 2.654620 -0.904681 3.000000
11.600182 -2.881500 -0.944897 14.000000
9.256546 -7.187880 -0.973824 26.000000
21.135595 33.446129 0.179540 8.000000
14.980453 2.684613 -0.888189 1.000000
11.653421 -2.851574 -0.952631 14.000000
9.264009 -7.144557 -0.980336 27.000000
21.029230 33.536469 0.221083 10.000000
11.693527 -2.811685 -0.959204 9.000000
9.287973 -7.103761 -0.990123 25.000000
20.948835 33.668808 0.276842 9.000000
11.708604 -2.769954 -0.959601 4.000000
9.361153 -7.105502 -1.001339 6.000000
20.885521 33.842960 0.319291 7.000000
14.063109 2.680138 -0.825468 1.000000
11.737933 -2.731503 -0.963295 1.000000
17.304874 -13.035425 -1.861172 7.000000
19.440739 31.749273 0.337884 113.000000
4.936654 3.459251 -0.154691 3.000000
11.713528 -2.680604 -0.964701 1.000000
17.295372 -12.929178 -1.874026 8.000000
19.293224 31.756744 0.382646 168.000000
13.216243 2.619284 -0.765069 1.000000
11.772062 -2.648631 -0.966596 1.000000
17.429865 -12.930406 -1.894900 7.000000
13.040316 2.634126 -0.753109 2.000000
11.766309 -2.604219 -0.969605 1.000000
17.375605 -12.801040 -1.895763 8.000000
21.981735 36.772484 0.530915 206.000000
12.884268 2.651792 -0.737744 1.000000
11.799958 -2.566335 -0.973718 1.000000
9.661393 -7.063306 -1.061799 13.000000
21.832544 36.814091 0.575241 206.000000
12.825852 2.688807 -0.730370 1.000000
11.818700 -2.525081 -0.978740 1.000000
9.642273 -6.995242 -1.065255 21.000000
21.752851 36.988037 0.629144 10.000000
11.945103 -2.506343 -0.986296 1.000000
5.864179 -4.195244 -0.654921 8.000000
61.469566 44.807945 -1.633233 3.000000
12.047479 -2.477375 -0.998242 1.000000
5.919933 -4.202414 -0.661979 7.000000
12.124269 -2.449086 -1.006063 1.000000
47.050224 81.988335 1.716032 1.000000
37.367924 27.650808 -0.925038 3.000000
12.323814 -2.442416 -1.021872 1.000000
6.052049 -4.247142 -0.681980 1.000000
46.906116 82.402176 1.837138 1.000000
59.970394 44.716839 -1.410240 14.000000
12.538323 -2.437203 -1.036667 1.000000
5.912024 -4.116620 -0.668301 1.000000
23.663677 41.910702 0.991368 35.000000
59.843243 44.947910 -1.319463 17.000000
12.581620 -2.397797 -1.037263 3.000000
6.270943 -4.332498 -0.709757 1.000000
23.489841 41.926964 1.040254 217.000000
59.830307 45.282146 -1.270428 18.000000
12.245643 2.892491 -0.661629 1.000000
12.790818 -2.389116 -1.058352 1.000000
59.740818 45.543270 -1.166980 12.000000
13.050468 -2.385793 -1.072079 1.000000
23.356802 42.032921 1.141617 232.000000
59.673706 45.492107 -1.126371 13.000000
13.114938 -2.397578 -1.068007 1.000000
23.484234 41.934116 1.107471 165.000000
59.768433 45.218914 -1.111939 18.000000
12.232384 2.889359 -0.634518 1.000000
12.886240 -2.406939 -1.036313 1.000000
23.677719 41.935570 1.059228 10.000000
59.977112 45.032089 -1.165116 17.000000
12.760171 -2.431825 -1.022322 1.000000
6.081280 -4.215590 -0.672109 1.000000
59.997318 44.720623 -1.188596 12.000000
12.575541 -2.444438 -1.001492 1.000000
5.874491 -4.104202 -0.643347 1.000000
37.157864 27.485336 -0.774471 7.000000
12.410534 -2.459603 -0.982397 1.000000
6.059309 -4.266458 -0.660080 1.000000
37.334480 27.404844 -0.808395 1.000000
12.274290 -2.481620 -0.967962 1.000000
61.198990 44.594357 -1.348190 13.000000
12.152975 -2.503491 -0.956934 1.000000
21.748259 36.965462 0.741136 20.000000
61.482971 44.457207 -1.390587 1.000000
12.080779 -2.534811 -0.945473 1.000000
21.844387 36.834061 0.695167 225.000000
61.506596 44.131897 -1.440322 1.000000
12.873776 2.694162 -0.675492 1.000000
12.018099 -2.567683 -0.936983 1.000000
9.690950 -7.027975 -1.026284 12.000000
21.992437 36.775810 0.650701 255.000000
61.427349 43.751030 -1.487551 4.000000
12.928165 2.653771 -0.675496 1.000000
11.936007 -2.595924 -0.924885 1.000000
17.388613 -12.707908 -1.831251 8.000000
22.136444 36.724983 0.613736 37.000000
13.388273 2.697118 -0.696626 1.000000
11.868311 -2.626795 -0.916112 1.000000
17.403374 -12.816814 -1.818745 7.000000
19.303631 31.748896 0.492894 145.000000
4.909288 3.420947 -0.127429 1.000000
11.814517 -2.662516 -0.910617 2.000000
17.377558 -12.896304 -1.801957 7.000000
19.454054 31.733698 0.461274 107.000000
14.015189 2.716662 -0.735685 6.000000
11.751835 -2.693688 -0.898076 1.000000
17.327435 -12.957861 -1.782661 8.000000
21.061434 34.114681 0.461851 2.000000
14.044421 2.668956 -0.741704 1.000000
11.722610 -2.732251 -0.894489 7.000000
17.340761 -13.067202 -1.769872 7.000000
20.990459 33.735706 0.416096 10.000000
11.693413 -2.770671 -0.888813 10.000000
9.371242 -7.115737 -0.950856 27.000000
21.034479 33.531830 0.373074 9.000000
14.839735 2.707541 -0.782636 1.000000
11.683629 -2.813620 -0.882520 8.000000
9.286247 -7.105010 -0.936652 32.000000
21.162283 33.475418 0.331790 9.000000
15.030356 2.690849 -0.794887 1.000000
11.649318 -2.850570 -0.876503 10.000000
9.268683 -7.145582 -0.927238 29.000000
21.384434 33.553913 0.291673 8.000000
15.192445 2.662437 -0.805637 1.000000
11.623917 -2.891704 -0.873319 2.000000
9.246877 -7.182958 -0.919458 1.000000
21.437473 3.675928 -1.136081 2.000000
11.628334 -2.938102 -0.866037 3.000000
17.210075 -13.470188 -1.689310 7.000000
21.401361 3.589040 -1.137260 1.000000
11.593626 -2.974581 -0.860058 6.000000
17.169571 -13.540257 -1.670999 8.000000
21.295919 3.491157 -1.134746 3.000000
11.582790 -3.017091 -0.857969 1.000000
17.120735 -13.603817 -1.655733 7.000000
21.278797 3.408311 -1.136932 1.000000
11.605696 -3.068524 -0.856281 7.000000
17.005487 -13.614223 -1.634108 7.000000
21.320547 3.334896 -1.142279 3.000000
11.589842 -3.109825 -0.851737 4.000000
17.049726 -13.752482 -1.623970 7.000000
11.554589 -3.145810 -0.845787 1.000000
16.942034 -13.768417 -1.603184 7.000000
21.146488 3.149045 -1.139171 1.000000
11.581169 -3.200861 -0.844411 1.000000
17.012146 -13.929239 -1.595349 7.000000
21.557917 3.129591 -1.164521 3.000000
11.574446 -3.244713 -0.840566 6.000000
16.946445 -13.979509 -1.578565 7.000000
11.572493 -3.289961 -0.834964 1.000000
16.925661 -14.061938 -1.558031 7.000000
11.579807 -3.337961 -0.832142 3.000000
16.867395 -14.118344 -1.538130 8.000000
34.379147 49.557331 -0.210539 12.000000
11.558198 -3.377664 -0.827250 1.000000
16.896429 -14.248287 -1.530025 8.000000
27.122885 38.793106 -0.214799 8.000000
11.579496 -3.430003 -0.825433 1.000000
16.788080 -14.262533 -1.505622 8.000000
27.218603 38.670734 -0.255862 26.000000
11.601783 -3.478495 -0.823592 1.000000
16.793337 -14.373306 -1.495305 8.000000
34.533730 48.647598 -0.385265 17.000000
6.802276 0.806306 -0.372176 4.000000
11.592772 -3.526574 -0.819701 1.000000
16.707520 -14.406285 -1.473017 7.000000
6.691167 0.768278 -0.364762 6.000000
11.652452 -3.589215 -0.816251 1.000000
16.712069 -14.517341 -1.458696 7.000000
34.696342 48.143078 -0.486804 10.000000
6.758318 0.750901 -0.370650 5.000000
11.680807 -3.649352 -0.819257 1.000000
16.742113 -14.651451 -1.450397 7.000000
34.828617 47.972679 -0.548393 11.000000
11.762754 -3.722329 -0.821630 1.000000
16.689243 -14.713547 -1.430982 7.000000
23.676384 32.361526 -0.412920 10.000000
11.764874 -3.765966 -0.818315 1.000000
16.661097 -14.792414 -1.413464 7.000000
23.717791 32.181786 -0.446572 10.000000
11.893917 -3.855390 -0.819501 1.000000
16.633900 -14.877647 -1.392311 7.000000
35.076275 47.230240 -0.718787 21.000000
9.235404 -8.321434 -0.766869 24.000000
35.123653 46.950756 -0.777808 19.000000
18.786461 -6.249424 -1.280321 10.000000
9.142511 -8.298650 -0.750861 22.000000
20.605850 27.334959 -0.483970 8.000000
18.603071 -6.264240 -1.262499 56.000000
9.064631 -8.288757 -0.736196 28.000000
20.634310 27.174850 -0.518147 8.000000
6.546437 0.556624 -0.361572 1.000000
18.424543 -6.279404 -1.245114 37.000000
9.078712 -8.362938 -0.729015 18.000000
20.724316 27.086681 -0.553634 8.000000
18.189539 -6.273816 -1.224034 10.000000
16.478365 -15.285867 -1.315669 7.000000
20.806232 26.997942 -0.583055 8.000000
6.515437 0.505911 -0.360790 1.000000
18.011551 -6.286388 -1.203570 6.000000
16.390402 -15.316419 -1.289548 8.000000
20.950649 26.980230 -0.620109 8.000000
17.979374 -6.349178 -1.196285 5.000000
16.371315 -15.411371 -1.272797 5.000000
35.614948 45.535896 -1.099906 20.000000
16.351746 -15.506384 -1.255958 7.000000
35.697460 45.298267 -1.147668 20.000000
6.774523 0.451151 -0.377216 1.000000
16.335299 -15.604896 -1.239305 8.000000
35.778484 45.092690 -1.195713 132.000000
6.806008 0.430583 -0.376500 1.000000
16.317480 -15.697178 -1.222285 7.000000
6.363942 0.379202 -0.353082 1.000000
7.712508 -7.473940 -0.572246 88.000000
6.604548 0.369252 -0.366354 1.000000
7.656833 -7.474601 -0.560780 50.000000
7.608370 -7.481947 -0.549898 69.000000
25.385830 31.070704 -0.994591 6.000000
7.578996 -7.505280 -0.540333 88.000000
25.375200 30.826401 -1.017633 10.000000
7.626014 -7.607403 -0.536245 132.000000
25.446749 30.694334 -1.064944 16.000000
6.529235 0.267948 -0.366492 1.000000
7.453977 -7.490494 -0.516831 125.000000
25.542452 30.580956 -1.099048 10.000000
7.240767 -7.329774 -0.494894 37.000000
25.915453 30.808315 -1.145623 9.000000
7.379822 -7.522882 -0.496973 74.000000
25.966015 30.639748 -1.184980 4.000000
6.327138 0.189996 -0.356118 1.000000
7.366437 -7.564500 -0.488701 20.000000
26.276525 30.787615 -1.229593 1.000000
6.517426 0.171803 -0.366790 1.000000
30.921925 -12.600121 -1.907746 7.000000
7.290354 -7.541476 -0.476311 38.000000
28.245678 32.850224 -1.353938 8.000000
6.483077 0.147122 -0.364824 1.000000
30.479179 -12.550166 -1.871712 7.000000
7.045061 -7.341390 -0.453143 20.000000
6.533484 0.124309 -0.367633 1.000000
7.036892 -7.384301 -0.445354 22.000000
6.488972 0.099671 -0.365105 1.000000
27.323105 -11.485576 -1.651888 8.000000
6.999798 -7.399491 -0.434033 29.000000
28.917221 -12.280590 -1.739974 7.000000
7.058381 -7.516412 -0.430357 184.000000
41.281742 46.594936 -2.184754 3.000000
28.262989 -12.136895 -1.687372 6.000000
7.178861 -7.698386 -0.430137 7.000000
41.247070 46.262177 -2.229373 4.000000
27.687418 -11.998631 -1.639528 5.000000
27.291597 -11.946102 -1.608242 6.000000
7.315423 -7.961038 -0.422904 6.000000
26.796312 -11.846526 -1.566219 6.000000
7.285861 -7.981833 -0.413278 5.000000
26.383713 -11.768863 -1.529206 6.000000
7.191666 -7.939653 -0.400299 7.000000
25.872211 -11.654582 -1.487126 6.000000
25.611860 -11.650411 -1.459833 6.000000
7.143174 -7.997629 -0.381958 201.000000
18.084724 19.434254 -1.103369 5.000000
6.588446 -0.115002 -0.373022 1.000000
6.836874 -7.708682 -0.359814 50.000000
18.199581 19.414509 -1.129292 4.000000
6.947505 -7.891497 -0.356133 31.000000
18.372824 19.455906 -1.159004 7.000000
24.226789 -11.343502 -1.350463 6.000000
6.849681 -7.838119 -0.343494 255.000000
18.529274 19.484877 -1.192788 7.000000
23.864721 -11.280802 -1.327957 6.000000
6.832299 -7.873527 -0.334892 20.000000
18.675856 19.495426 -1.221223 6.000000
6.790575 -7.883632 -0.323354 255.000000
18.881704 19.566240 -1.253764 6.000000
40.406811 16.448593 -2.446735 9.000000
6.598837 -7.712606 -0.308347 255.000000
18.983852 19.528341 -1.279604 7.000000
40.881969 16.467609 -2.502703 9.000000
22.772898 -11.067750 -1.233922 6.000000
6.779625 -7.985779 -0.307246 27.000000
19.166407 19.578924 -1.311258 7.000000
41.285072 16.437674 -2.546664 6.000000
6.647453 -7.888514 -0.291752 32.000000
19.342426 19.614401 -1.342469 6.000000
40.707794 16.051643 -2.507757 1.000000
30.672651 -15.186022 -1.632023 7.000000
6.639281 -7.934861 -0.283572 22.000000
19.441507 19.570879 -1.368490 7.000000
41.110195 16.019930 -2.551743 1.000000
6.725726 -0.340711 -0.378867 1.000000
29.415960 -14.698322 -1.545005 30.000000
6.674178 -8.036232 -0.277196 195.000000
19.572250 19.565418 -1.401930 9.000000
6.704488 -0.361929 -0.380087 1.000000
6.504909 -7.891085 -0.264220 31.000000
19.749529 19.612129 -1.434315 9.000000
6.683182 -0.385350 -0.378957 9.000000
26.179428 -13.321823 -1.349279 26.000000
6.455335 -7.886878 -0.252644 62.000000
19.923241 19.626419 -1.465668 9.000000
6.731473 -0.415252 -0.380606 8.000000
26.148825 -13.427134 -1.334806 28.000000
6.379245 -7.852458 -0.241956 25.000000
20.076225 19.632654 -1.496192 9.000000
6.879505 -0.447289 -0.389057 4.000000
25.456974 -13.190005 -1.286906 8.000000
6.323706 -7.839854 -0.230333 37.000000
20.233383 19.655502 -1.527727 18.000000
24.607637 -12.864562 -1.236633 29.000000
6.488746 -8.105076 -0.228360 26.000000
20.386810 19.652960 -1.558387 9.000000
23.805374 -12.556460 -1.184501 34.000000
6.494776 -8.170904 -0.218639 31.000000
20.551836 19.680979 -1.590913 19.000000
32.489311 -2.340262 -1.832547 51.000000
23.080635 -12.282528 -1.136956 22.000000
6.443226 -8.167328 -0.208828 25.000000
20.716682 19.693785 -1.628103 7.000000
12.015027 4.283085 -0.789106 1.000000
32.440376 -2.456286 -1.835978 202.000000
22.373497 -12.006620 -1.090860 11.000000
6.256204 -7.990314 -0.193083 35.000000
20.885704 19.709240 -1.660841 7.000000
12.002013 4.228931 -0.793916 1.000000
32.411251 -2.573590 -1.834851 105.000000
21.693007 -11.744048 -1.042521 10.000000
6.142156 -7.895631 -0.181595 31.000000
21.109541 19.767784 -1.697916 7.000000
11.922918 4.151999 -0.792097 1.000000
32.417007 -2.699342 -1.818665 48.000000
21.102240 -11.524434 -1.003541 28.000000
6.104416 -7.912452 -0.170948 19.000000
21.250847 19.768251 -1.724333 7.000000
11.895327 4.093567 -0.793670 1.000000
32.451019 -2.821976 -1.832547 18.000000
20.495554 -11.290829 -0.972560 21.000000
6.098110 -7.961588 -0.164546 49.000000
21.424263 19.783590 -1.768264 9.000000
11.900142 4.046504 -0.804009 1.000000
19.987362 -11.106553 -0.934380 27.000000
6.011506 -7.908396 -0.152585 62.000000
21.594822 19.781076 -1.791164 10.000000
11.864255 3.981240 -0.800499 1.000000
19.476543 -10.916322 -0.892848 22.000000
6.239923 -8.268641 -0.150072 35.000000
21.762011 19.788025 -1.824769 7.000000
11.830873 3.921852 -0.806009 1.000000
19.001749 -10.741919 -0.865250 10.000000
6.164712 -8.231551 -0.138216 28.000000
21.926306 19.804987 -1.858913 8.000000
11.872259 3.891923 -0.807944 1.000000
26.979568 -2.735727 -1.511379 2.000000
18.567032 -10.577568 -0.835842 10.000000
6.291095 -8.455541 -0.132446 25.000000
22.034704 19.763668 -1.893364 7.000000
11.847660 3.835826 -0.818405 1.000000
26.808975 -2.827199 -1.511886 2.000000
18.162672 -10.439782 -0.812113 10.000000
6.411520 -8.690022 -0.126289 31.000000
22.266243 19.824560 -1.927903 6.000000
11.818732 3.778659 -0.817619 1.000000
18.128319 -10.500166 -0.801144 16.000000
6.270441 -8.558065 -0.114809 36.000000
11.846503 3.739735 -0.822942 1.000000
18.060617 -10.558002 -0.785393 16.000000
6.428668 -8.845057 -0.106875 34.000000
11.807829 3.677729 -0.827941 1.000000
18.052282 -10.642097 -0.775734 22.000000
6.748862 -9.354087 -0.100661 35.000000
11.792343 3.625545 -0.830243 1.000000
18.021976 -10.713433 -0.768785 24.000000
6.691288 -9.346292 -0.092287 20.000000
11.838690 3.592355 -0.836912 1.000000
20.436905 -2.531063 -1.147724 1.000000
17.978647 -10.777054 -0.757627 20.000000
6.424072 -9.039547 -0.077422 57.000000
11.817762 3.538755 -0.843162 1.000000
20.640230 -2.633090 -1.163320 1.000000
17.970816 -10.849247 -0.744055 16.000000
6.420042 -9.097617 -0.068019 28.000000
11.792099 3.484026 -0.844727 7.000000
17.923292 -10.918967 -0.729226 25.000000
6.342092 -9.060812 -0.055979 24.000000
11.823661 3.446283 -0.850396 27.000000
19.962769 -2.695524 -1.119167 1.000000
17.933941 -11.007162 -0.727464 24.000000
11.778401 3.386303 -0.850541 17.000000
20.071629 -2.785169 -1.122287 1.000000
17.907242 -11.089983 -0.706098 24.000000
6.115389 -8.871386 -0.033851 26.000000
11.766167 3.336145 -0.857349 24.000000
19.946424 -2.849453 -1.119445 1.000000
17.870922 -11.158319 -0.698911 21.000000
5.953008 -8.703921 -0.022085 29.000000
11.854881 3.314404 -0.867240 3.000000
19.823441 -2.898995 -1.109569 1.000000
17.838358 -11.220374 -0.688043 21.000000
5.877664 -8.658469 -0.014612 19.000000
11.838523 3.260873 -0.867275 6.000000
19.827686 -2.973882 -1.106899 1.000000
17.803984 -11.294393 -0.673650 12.000000
5.971583 -8.866582 -0.003732 30.000000
11.854622 3.218608 -0.876203 1.000000
17.775051 -11.358880 -0.666606 22.000000
6.121621 -9.151276 0.005765 26.000000
11.851589 3.171190 -0.879419 1.000000
19.859985 -3.127749 -1.102913 1.000000
17.733898 -11.433099 -0.652033 27.000000
5.776855 -8.708049 0.018239 25.000000
11.872180 3.130116 -0.888705 1.000000
19.862984 -3.202872 -1.107246 1.000000
17.742182 -11.521908 -0.646348 22.000000
5.750688 -8.731320 0.025546 44.000000
11.839831 3.075220 -0.889727 4.000000
19.713379 -3.252925 -1.096066 2.000000
17.689823 -11.584716 -0.631280 19.000000
5.676090 -8.690517 0.036233 43.000000
11.836380 3.028058 -0.890771 32.000000
19.808851 -3.346860 -1.105598 1.000000
17.660120 -11.657976 -0.616955 12.000000
11.812945 2.975976 -0.896731 21.000000
14.512945 -2.506821 -0.807945 1.000000
17.696367 -11.766345 -0.615868 9.000000
5.938200 -9.235509 0.059407 22.000000
11.872378 2.942515 -0.904671 9.000000
9.951877 -6.669749 -0.338823 1.000000
5.939227 -9.311955 0.071325 23.000000
11.945598 2.914232 -0.915904 1.000000
9.898471 -6.686662 -0.333664 1.000000
5.776146 -9.119331 0.077247 209.000000
11.926796 2.863370 -0.917957 1.000000
13.590884 -2.501750 -0.758099 1.000000
9.866996 -6.715678 -0.325052 1.000000
5.646883 -8.987957 0.087074 27.000000
11.922027 2.816051 -0.925390 4.000000
13.871247 -2.605958 -0.771794 1.000000
9.854773 -6.760343 -0.321289 1.000000
5.623367 -9.020273 0.096474 27.000000
11.927255 2.771171 -0.927150 41.000000
17.534681 -12.123487 -0.558223 10.000000
5.541826 -8.958984 0.104804 14.000000
12.004740 2.742838 -0.941032 21.000000
17.465761 -12.170693 -0.546292 16.000000
5.579496 -9.094217 0.115458 13.000000
11.956651 2.683586 -0.938599 173.000000
17.435751 -12.240417 -0.531804 22.000000
5.529453 -9.083635 0.126216 32.000000
12.057931 2.659934 -0.958786 1.000000
12.936072 -2.627172 -0.724137 1.000000
17.398933 -12.310015 -0.532054 10.000000
5.506412 -9.120884 0.133891 10.000000
12.208718 2.646310 -0.972191 1.000000
13.034855 -2.692272 -0.730163 1.000000
17.390625 -12.400033 -0.518266 17.000000
5.471897 -9.135634 0.144980 9.000000
12.232294 2.604517 -0.982087 1.000000
12.492493 -2.628027 -0.698082 1.000000
17.365644 -12.478481 -0.503943 18.000000
12.317688 -20.728863 0.349323 23.000000
12.446169 2.602407 -1.005184 1.000000
12.555534 -2.691673 -0.702177 1.000000
17.318144 -12.536246 -0.492631 19.000000
12.249084 -20.786522 0.370596 26.000000
12.553204 2.574519 -1.019775 1.000000
12.379384 -2.701406 -0.699529 1.000000
17.296309 -12.617311 -0.493323 16.000000
12.196468 -20.863394 0.392300 28.000000
12.762001 2.568635 -1.047398 2.000000
12.208568 -2.711046 -0.690434 1.000000
17.282238 -12.704356 -0.490500 14.000000
12.164943 -20.985628 0.406461 31.000000
12.657236 2.547549 -1.066020 1.000000
12.216876 -2.712891 -0.717197 1.000000
17.275351 -12.703938 -0.524070 17.000000
12.125033 -20.916780 0.379803 68.000000
12.584354 2.580908 -1.060672 3.000000
12.289645 -2.681823 -0.729698 1.000000
17.301081 -12.625418 -0.549627 21.000000
12.220930 -20.913616 0.346689 24.000000
12.364440 2.585318 -1.045185 1.000000
12.591850 -2.699459 -0.753814 1.000000
17.314377 -12.538124 -0.570987 19.000000
12.252019 -20.791500 0.315917 30.000000
12.262280 2.610902 -1.037351 1.000000
12.713477 -2.676832 -0.769605 1.000000
17.357542 -12.477254 -0.593373 20.000000
12.271086 -20.658651 0.285187 30.000000
12.130880 2.629439 -1.027043 1.000000
12.859393 -2.658371 -0.789343 1.000000
17.382298 -12.398672 -0.615039 10.000000
12.209743 -20.392916 0.253063 19.000000
12.077542 2.664260 -1.021174 1.000000
12.864025 -2.610202 -0.791334 1.000000
17.416960 -12.331894 -0.629650 10.000000
5.509177 -9.125463 0.102327 16.000000
12.023936 2.698688 -1.017471 11.000000
17.432957 -12.247541 -0.647210 19.000000
5.559259 -9.136189 0.087731 9.000000
11.930902 2.725967 -1.010477 38.000000
17.477163 -12.183170 -0.669520 18.000000
5.538890 -9.031569 0.073966 21.000000
11.984102 2.784379 -1.013678 7.000000
17.494539 -12.104760 -0.683430 17.000000
5.540439 -8.960238 0.062516 20.000000
11.959611 2.824928 -1.008157 1.000000
9.895986 -6.793696 -0.394004 1.000000
5.547915 -8.902703 0.051264 24.000000
11.920104 2.861764 -1.005704 2.000000
13.707893 -2.520816 -0.872004 1.000000
9.891563 -6.737452 -0.405389 1.000000
5.653443 -9.001886 0.038961 33.000000
11.880317 2.898306 -1.005385 8.000000
13.789689 -2.488611 -0.879133 1.000000
9.885685 -6.683051 -0.416700 1.000000
6.058204 -9.568335 0.027672 17.000000
11.883951 2.947585 -1.002341 4.000000
9.976329 -6.691185 -0.425782 1.000000
5.838771 -9.150931 0.015156 13.000000
11.844074 2.983818 -0.999893 18.000000
17.637993 -11.736412 -0.773149 17.000000
6.005891 -9.340786 0.000000 10.000000
11.823739 3.024824 -0.994817 8.000000
14.582820 -2.466499 -0.943463 1.000000
17.651247 -11.652119 -0.786638 21.000000
6.056401 -9.343882 -0.009717 15.000000
11.841849 3.075744 -0.992984 1.000000
19.248703 -3.183151 -1.247986 10.000000
17.691351 -11.590130 -0.801404 22.000000
5.736266 -8.782651 -0.020139 155.000000
11.810468 3.118255 -0.987102 1.000000
19.250826 -3.104163 -1.257558 9.000000
17.724619 -11.519300 -0.823162 24.000000
5.904304 -8.971373 -0.035615 34.000000
11.833596 3.166376 -0.992059 4.000000
17.745359 -11.440488 -0.833245 19.000000
5.890133 -8.878805 -0.046491 20.000000
11.855016 3.220937 -0.994884 1.000000
17.778009 -11.369512 -0.854950 25.000000
6.109994 -9.140800 -0.061407 32.000000
11.809832 3.255188 -0.987783 1.000000
19.271822 -2.897389 -1.273922 19.000000
17.821299 -11.309740 -0.869888 17.000000
6.188117 -9.184630 -0.073452 8.000000
11.826953 3.306595 -0.985907 31.000000
19.277651 -2.822614 -1.276996 23.000000
17.819965 -11.217487 -0.878854 14.000000
6.307154 -9.291157 -0.084279 15.000000
11.781519 3.340498 -0.978832 247.000000
19.302017 -2.753958 -1.288186 10.000000
17.860435 -11.151772 -0.893554 16.000000
6.012058 -8.790258 -0.094796 35.000000
11.774314 3.385128 -0.974954 236.000000
19.371059 -2.691403 -1.295555 8.000000
17.900381 -11.085735 -0.915604 16.000000
11.766613 3.429655 -0.975351 236.000000
19.394949 -2.622300 -1.306794 9.000000
17.919201 -11.006729 -0.925529 16.000000
6.040467 -8.697570 -0.114593 60.000000
11.777582 3.481972 -0.973047 234.000000
19.517967 -2.566123 -1.317892 7.000000
17.956675 -10.943603 -0.947550 15.000000
6.467860 -9.240494 -0.135839 17.000000
11.769679 3.526595 -0.971297 228.000000
19.630932 -2.507816 -1.328359 4.000000
17.991821 -10.874785 -0.962003 15.000000
6.468297 -9.172794 -0.146931 43.000000
11.766537 3.572704 -0.967793 238.000000
19.907104 -2.468977 -1.349942 1.000000
18.009703 -10.795670 -0.971854 19.000000
6.563883 -9.239696 -0.160239 9.000000
11.777507 3.623234 -0.965453 223.000000
20.143858 -2.423407 -1.365386 1.000000
18.039976 -10.724134 -0.986044 14.000000
6.617975 -9.243890 -0.172640 28.000000
11.764148 3.666377 -0.965453 7.000000
18.067947 -10.655582 -1.003880 16.000000
6.603283 -9.155679 -0.185217 45.000000
11.822577 3.732182 -0.962657 1.000000
84.348358 -9.520816 -5.771926 11.000000
18.101959 -10.586410 -1.018281 20.000000
11.856621 3.790772 -0.962182 1.000000
84.193245 -9.190919 -5.773818 20.000000
18.127218 -10.512207 -1.028525 19.000000
6.237236 -8.518981 -0.193511 40.000000
11.846881 3.837858 -0.960394 1.000000
18.152012 -10.437870 -1.042409 24.000000
6.191127 -8.391306 -0.202049 36.000000
19.849752 17.948217 -1.922947 9.000000
11.818841 3.876696 -0.954899 1.000000
18.545395 -10.573816 -1.073972 10.000000
6.157630 -8.285213 -0.210825 40.000000
19.740822 17.981668 -1.895345 11.000000
11.837988 3.931092 -0.953224 1.000000
26.733624 -2.616544 -1.850065 6.000000
18.987637 -10.733940 -1.112564 18.000000
6.118877 -8.170350 -0.220948 19.000000
19.631895 18.014547 -1.867846 10.000000
11.842403 3.980808 -0.954748 1.000000
19.522554 -10.942109 -1.161131 12.000000
6.348914 -8.416121 -0.239238 75.000000
19.499722 18.012739 -1.842320 9.000000
11.832925 4.025952 -0.948585 1.000000
20.000690 -11.118529 -1.203272 18.000000
6.007521 -7.903154 -0.233948 28.000000
19.432077 18.095358 -1.819496 7.000000
11.879685 4.090504 -0.949118 1.000000
20.513021 -11.305119 -1.243892 24.000000
6.150392 -8.032749 -0.249019 39.000000
19.736654 18.495096 -1.829732 7.000000
11.874342 4.137407 -0.945482 1.000000
21.136486 -11.547926 -1.291770 35.000000
6.142991 -7.962453 -0.258074 134.000000
20.307905 19.170687 -1.874504 7.000000
11.897183 4.194328 -0.941876 20.000000
21.757160 -11.783689 -1.348710 22.000000
6.336191 -8.153866 -0.275815 26.000000
20.564701 19.569817 -1.875583 9.000000
12.022184 4.290367 -0.948589 7.000000
22.419567 -12.036385 -1.404846 28.000000
6.270333 -8.008361 -0.282328 34.000000
20.461000 19.600840 -1.852176 9.000000
12.044365 4.348115 -0.944848 1.000000
23.168015 -12.329027 -1.462688 29.000000
6.378529 -8.088223 -0.296722 14.000000
20.304008 19.593660 -1.819726 9.000000
23.865879 -12.599025 -1.518276 9.000000
6.246292 -7.861111 -0.297997 64.000000
20.132780 19.571438 -1.791115 9.000000
24.719965 -12.923285 -1.598602 6.000000
6.370265 -7.959929 -0.315052 31.000000
