VERSION .7
FIELDS x y z intensity
SIZE 4 4 4 4
TYPE F F F F
COUNT 1 1 1 1
WIDTH 1229
HEIGHT 1
VIEWPOINT 0 0 0 1 0 0 0
POINTS 1229
DATA ascii
6.357349 -8.035373 0.533390 24.000000
56.668121 54.020931 1.708324 20.000000
91.476379 32.879433 4.278098 26.000000
22.027790 -11.761744 1.479191 9.000000
6.571291 -8.368639 0.559497 63.000000
56.677788 53.635006 1.648175 9.000000
91.943008 32.721352 4.260960 24.000000
21.417227 -11.536812 1.449542 9.000000
6.600062 -8.465954 0.573853 124.000000
56.746895 53.344822 1.590635 1.000000
92.473679 32.528847 4.245716 20.000000
20.804035 -11.305075 1.423277 9.000000
6.464864 -8.355511 0.572154 12.000000
56.851456 53.051952 1.533796 1.000000
20.229813 -11.084680 1.398754 14.000000
93.932030 32.270058 4.214863 21.000000
19.690887 -10.883410 1.368181 18.000000
57.106232 52.530270 1.408564 7.000000
94.363274 32.032017 4.194070 19.000000
19.162033 -10.682980 1.345676 10.000000
6.457542 -8.535305 0.605879 27.000000
57.166199 52.199913 1.351252 8.000000
94.925819 31.853874 4.179093 27.000000
18.723982 -10.524604 1.325011 9.000000
6.361501 -8.469645 0.607057 18.000000
57.265541 51.907013 1.268134 1.000000
95.476212 31.649700 4.127846 6.000000
18.263573 -10.354083 1.306142 10.000000
6.345077 -8.512573 0.615900 16.000000
57.433754 51.677292 1.213704 1.000000
95.887291 31.396376 4.105338 29.000000
18.159925 -10.383457 1.312438 29.000000
57.612206 51.457005 1.159541 1.000000
18.110003 -10.438964 1.322444 16.000000
6.162236 -8.391937 0.622200 36.000000
57.994049 51.435249 1.109477 1.000000
18.101217 -10.522475 1.335617 16.000000
6.204659 -8.514954 0.637012 30.000000
58.328957 51.351562 1.071577 1.000000
18.080990 -10.595332 1.347863 14.000000
6.231715 -8.611940 0.650167 34.000000
93.407913 29.093327 3.861004 1.000000
18.054720 -10.669026 1.352486 13.000000
6.049924 -8.428670 0.641843 34.000000
27.996727 24.285757 0.446355 23.000000
93.377350 28.708782 3.804135 18.000000
18.023865 -10.740115 1.356792 10.000000
6.038994 -8.478872 0.651271 37.000000
93.548874 28.386658 3.806859 13.000000
17.998074 -10.810059 1.376082 11.000000
6.000322 -8.487116 0.661220 40.000000
90.801895 77.606979 1.292602 10.000000
17.992268 -10.896504 1.382369 33.000000
5.954647 -8.488342 0.665062 34.000000
90.972328 77.177444 1.166050 10.000000
17.926039 -10.946396 1.391400 17.000000
5.950308 -8.545448 0.677029 26.000000
91.314278 76.921005 1.104463 10.000000
17.899843 -11.016364 1.403396 10.000000
5.887414 -8.521558 0.682500 38.000000
17.888393 -11.099920 1.416752 17.000000
5.957347 -8.690722 0.703530 50.000000
17.843149 -11.162632 1.420089 12.000000
5.982892 -8.793650 0.715762 57.000000
17.820747 -11.235359 1.425112 16.000000
5.902824 -8.744711 0.719262 176.000000
17.795443 -11.310766 1.441183 12.000000
6.063551 -9.050788 0.750333 141.000000
25.934242 21.046141 0.186540 7.000000
17.746813 -11.367025 1.451537 10.000000
6.005196 -9.035126 0.754815 24.000000
26.112520 21.032551 0.169710 7.000000
17.737913 -11.453226 1.465340 18.000000
5.904598 -8.951393 0.755497 25.000000
17.712324 -11.528906 1.470414 15.000000
5.792263 -8.851506 0.752692 80.000000
86.813660 22.597086 3.101265 9.000000
17.658815 -11.582034 1.480430 12.000000
5.731093 -8.825109 0.757971 8.000000
85.436119 21.904482 2.987520 4.000000
10.006024 -6.615311 0.847196 6.000000
59.143658 46.241348 0.144134 12.000000
85.453346 21.575418 2.969937 17.000000
86.133949 -14.800519 5.100458 1.000000
9.928665 -6.614089 0.846781 7.000000
15.022161 -23.498533 2.048106 10.000000
59.320705 46.030445 0.091734 10.000000
85.802933 -15.067616 5.099350 1.000000
9.883285 -6.636285 0.851244 9.000000
14.950994 -23.577183 2.074667 21.000000
59.564327 45.870708 0.026243 6.000000
85.072884 20.817202 2.874816 17.000000
85.497437 -15.337205 5.069288 1.000000
9.912465 -6.708720 0.857969 1.000000
14.898215 -23.685459 2.099020 26.000000
59.640678 45.582249 -0.039304 1.000000
17.746166 -12.101075 1.547195 10.000000
14.822586 -23.748756 2.119686 16.000000
59.711697 45.290806 -0.091563 1.000000
17.701023 -12.165576 1.558442 10.000000
59.845253 45.047527 -0.156881 1.000000
33.271366 7.754733 1.073620 4.000000
48.287762 -9.202649 2.860191 83.000000
17.694901 -12.252530 1.569211 10.000000
13.896642 -22.624043 2.047662 9.000000
59.953812 44.785934 -0.195917 3.000000
33.405941 7.663255 1.059129 6.000000
48.028801 -9.335854 2.838292 96.000000
17.653286 -12.319683 1.580846 10.000000
13.677832 -22.451920 2.050613 10.000000
37.108372 27.528975 -0.161286 9.000000
33.394981 7.532009 1.051919 7.000000
47.794682 -9.463602 2.834924 29.000000
17.620270 -12.383733 1.585338 10.000000
13.585847 -22.459431 2.065828 9.000000
33.642464 7.458354 1.040787 8.000000
47.403927 -9.566918 2.788401 7.000000
17.588411 -12.462508 1.594331 10.000000
13.551212 -22.606596 2.092860 26.000000
61.116970 44.649006 -0.396310 27.000000
47.118706 -9.689223 2.782118 211.000000
17.579002 -12.543612 1.604819 10.000000
13.517799 -22.712357 2.112636 18.000000
92.016006 66.657440 -0.694091 211.000000
46.839069 -9.810789 2.759331 126.000000
17.514294 -12.599206 1.607103 10.000000
13.477665 -22.844049 2.143352 11.000000
92.158897 66.296074 -0.792582 21.000000
46.486244 -9.889437 2.732040 203.000000
17.371014 -12.583759 1.605305 10.000000
13.451631 -22.973658 2.165346 27.000000
17.340881 -12.659101 1.606798 9.000000
13.384089 -23.051661 2.186793 10.000000
17.292963 -12.619495 1.564585 10.000000
13.379620 -23.034702 2.147965 14.000000
92.185608 66.315292 -1.050489 85.000000
33.738182 7.085154 0.866611 5.000000
17.370537 -12.583414 1.545040 10.000000
13.430853 -22.938173 2.115309 10.000000
91.957100 66.614769 -1.050397 230.000000
33.751087 7.217124 0.867616 32.000000
47.025455 -9.849830 2.576845 39.000000
17.515039 -12.590468 1.531073 10.000000
13.465633 -22.805466 2.070399 23.000000
61.155857 44.677414 -0.660948 17.000000
33.680599 7.331244 0.860470 37.000000
47.162502 -9.689650 2.548589 101.000000
17.580477 -12.544662 1.510228 10.000000
13.509425 -22.689276 2.036512 14.000000
33.648914 7.453623 0.848315 33.000000
17.623549 -12.478167 1.487267 10.000000
13.543453 -22.566847 2.002032 10.000000
37.005318 27.422493 -0.369789 8.000000
33.642052 7.575394 0.854825 33.000000
17.629190 -12.385406 1.468790 10.000000
13.593596 -22.463387 1.969607 11.000000
60.104279 44.881996 -0.576068 9.000000
33.565483 7.687522 0.847576 23.000000
17.665176 -12.318814 1.449317 10.000000
13.693763 -22.451603 1.945061 9.000000
59.811764 45.005962 -0.535647 17.000000
33.585762 7.821831 0.848807 17.000000
85.692146 -16.346651 4.434519 4.000000
17.690729 -12.240508 1.428865 10.000000
13.878720 -22.568361 1.936324 9.000000
59.941513 45.481594 -0.499040 2.000000
33.590771 7.952904 0.855693 7.000000
85.787285 -16.008167 4.420811 8.000000
17.705173 -12.159332 1.415300 10.000000
14.678519 -23.683258 2.002144 19.000000
59.786587 45.677238 -0.459612 1.000000
85.930588 -15.740210 4.379623 2.000000
17.750635 -12.095048 1.396556 15.000000
14.871863 -23.799955 1.991988 24.000000
59.607014 45.887009 -0.433262 1.000000
85.120102 20.813013 2.187485 19.000000
86.088974 -15.458830 4.369615 1.000000
9.904274 -6.695618 0.771010 7.000000
14.925536 -23.692177 1.958064 20.000000
59.426743 46.096107 -0.393797 11.000000
86.638138 21.504972 2.228412 19.000000
86.196487 -15.152234 4.326286 1.000000
9.886703 -6.633575 0.757403 6.000000
14.971627 -23.582411 1.928805 9.000000
59.214218 46.279861 -0.354158 18.000000
86.059143 21.696419 2.231050 14.000000
9.925589 -6.612039 0.752428 7.000000
10.022341 -6.621072 0.745202 1.000000
17.685322 -11.590591 1.300694 21.000000
5.806050 -8.930293 0.703756 7.000000
17.724445 -11.523588 1.281939 18.000000
5.785572 -8.831185 0.688280 10.000000
26.011299 20.943537 -0.081599 107.000000
17.760929 -11.459303 1.270569 21.000000
5.837542 -8.839664 0.679464 9.000000
25.949917 21.051350 -0.069984 7.000000
100.034813 27.160109 2.641923 1.000000
17.778744 -11.387478 1.250645 19.000000
5.892349 -8.851930 0.672745 87.000000
99.899971 27.517038 2.677201 1.000000
17.820650 -11.313692 1.239297 14.000000
5.995809 -8.939548 0.671560 69.000000
17.852428 -11.255333 1.227954 16.000000
5.799730 -8.579061 0.635186 63.000000
79.951576 -11.378795 3.766037 1.000000
17.847569 -11.152399 1.206104 14.000000
5.813093 -8.534470 0.624338 29.000000
58.539402 48.929176 0.026632 15.000000
94.853348 27.252516 2.601544 12.000000
80.031029 -11.105223 3.753798 1.000000
17.884989 -11.093485 1.195084 10.000000
5.954873 -8.674119 0.625089 108.000000
58.329987 49.101013 0.053229 1.000000
94.503281 27.527300 2.594692 1.000000
17.924080 -11.022655 1.176438 15.000000
5.903080 -8.534675 0.607434 36.000000
94.200050 27.796059 2.606169 10.000000
17.948275 -10.955673 1.164591 19.000000
6.000278 -8.607598 0.604998 36.000000
94.048775 28.126549 2.639109 1.000000
17.971397 -10.879579 1.159818 13.000000
6.103829 -8.688094 0.602928 38.000000
93.528023 28.344679 2.661532 1.000000
17.997286 -10.809586 1.140671 10.000000
5.970087 -8.434977 0.575949 34.000000
27.983942 24.266108 0.129294 9.000000
93.413948 28.684349 2.661260 26.000000
18.053915 -10.745217 1.130484 14.000000
6.047638 -8.478477 0.571313 36.000000
90.849998 79.365265 0.484259 10.000000
93.832726 29.189713 2.693384 21.000000
18.066360 -10.667397 1.110564 18.000000
6.150380 -8.559159 0.567123 24.000000
90.796371 79.850838 0.548693 10.000000
18.102135 -10.607722 1.099578 14.000000
6.102858 -8.433866 0.552870 30.000000
18.124117 -10.531555 1.087556 10.000000
6.178153 -8.466153 0.547437 37.000000
58.342697 52.091145 0.477785 20.000000
96.058830 31.026157 2.837285 27.000000
18.154432 -10.460354 1.076068 20.000000
6.178373 -8.404685 0.535726 20.000000
58.303535 52.441486 0.533784 1.000000
95.744003 31.312462 2.866548 32.000000
18.160812 -10.379760 1.066971 17.000000
6.378840 -8.611074 0.540992 20.000000
95.461571 31.607868 2.896672 29.000000
18.399389 -10.426837 1.060232 10.000000
6.356923 -8.516052 0.525326 25.000000
94.585907 31.703081 2.908458 22.000000
18.842859 -10.587096 1.072198 9.000000
6.431905 -8.554049 0.519690 28.000000
86.355751 79.408180 1.003322 10.000000
94.138618 31.919113 2.898113 16.000000
6.544865 -8.638184 0.518671 24.000000
86.055634 79.688393 1.064476 10.000000
93.372398 32.041363 2.912609 16.000000
19.872227 -10.979111 1.098468 10.000000
6.463191 -8.468809 0.498672 116.000000
85.793999 79.976204 1.146405 10.000000
92.852066 32.243683 2.934385 11.000000
20.399048 -11.172780 1.113111 9.000000
56.917950 53.486916 0.817951 11.000000
92.388092 32.462502 2.957676 15.000000
21.022137 -11.418840 1.132375 10.000000
6.418490 -8.283621 0.474029 78.000000
56.536442 53.482552 0.869351 16.000000
91.828293 32.608315 2.926177 16.000000
21.517319 -11.585883 1.143929 9.000000
91.006378 32.692562 2.937571 12.000000
22.247730 -11.874192 1.162794 9.000000
6.567819 -8.358210 0.462255 86.000000
90.850540 33.030987 2.987276 9.000000
77.412796 -5.372500 3.320201 1.000000
22.856764 -12.091821 1.178734 9.000000
6.427841 -8.112824 0.441058 39.000000
89.944572 33.075336 2.994937 27.000000
77.327286 -5.081853 3.315713 1.000000
23.611153 -12.385621 1.210738 9.000000
6.322370 -7.922731 0.423059 56.000000
89.929482 33.444477 3.032022 31.000000
24.335398 -12.652015 1.221506 12.000000
6.335897 -7.880267 0.414958 34.000000
30.567848 29.986551 0.627825 13.000000
90.093109 33.845833 3.074934 29.000000
6.349601 -7.843904 0.407092 31.000000
30.393492 30.034899 0.648879 21.000000
90.214745 34.287384 3.083556 30.000000
6.370508 -7.808231 0.394176 16.000000
30.663769 30.514282 0.687127 9.000000
90.416794 34.707756 3.128221 31.000000
26.304520 -13.316195 1.261480 24.000000
6.440937 -7.841325 0.389828 17.000000
55.760761 55.897175 1.309229 1.000000
81.895569 -3.905074 3.422006 15.000000
26.509821 -13.298285 1.258608 9.000000
6.399321 -7.727208 0.374907 43.000000
55.646320 56.192875 1.366596 1.000000
90.606544 35.581306 3.195170 28.000000
81.989182 -3.608400 3.425343 15.000000
28.974642 -14.402052 1.356143 10.000000
6.522474 -7.820187 0.371622 8.000000
55.751034 56.712860 1.443685 11.000000
90.697426 36.001240 3.237106 20.000000
82.411163 -3.324381 3.442440 21.000000
30.342657 -14.950177 1.405893 12.000000
6.580189 -7.830854 0.366122 255.000000
55.601093 56.956661 1.486632 16.000000
90.884361 36.406364 3.282057 22.000000
31.444389 -15.350042 1.423737 15.000000
6.645053 -7.855012 0.359290 34.000000
26.081308 26.913822 0.732698 7.000000
90.990059 36.873253 3.359812 26.000000
32.553082 -15.743785 1.464992 7.000000
6.542442 -7.673766 0.343336 53.000000
25.867851 26.890068 0.749010 9.000000
91.060982 37.254032 3.384166 14.000000
34.003712 -16.291849 1.501212 7.000000
6.607064 -7.697711 0.338296 38.000000
25.734135 26.948059 0.780524 8.000000
91.103539 37.699066 3.425802 10.000000
35.577023 -16.893211 1.561173 8.000000
6.860462 -7.928318 0.340478 36.000000
25.704884 27.106239 0.808593 8.000000
91.292999 38.151253 3.472493 27.000000
37.212502 -17.502941 1.615738 8.000000
6.858700 -7.870591 0.331730 47.000000
25.690628 27.290848 0.837465 8.000000
91.500961 38.595074 3.519961 24.000000
38.264721 -17.826874 1.629061 21.000000
6.831675 -7.781809 0.318186 36.000000
91.587181 39.065243 3.581483 14.000000
76.970070 -1.141958 3.199439 34.000000
38.580090 -17.801998 1.617418 26.000000
91.465179 39.410053 3.617147 29.000000
76.878670 -0.872198 3.195494 254.000000
38.687946 -17.688227 1.604471 12.000000
18.351715 19.922419 0.671445 6.000000
91.547607 39.806034 3.677946 22.000000
76.886139 -0.617295 3.195702 255.000000
38.967205 -17.643518 1.590931 27.000000
18.443527 20.169943 0.696597 7.000000
92.202988 40.474281 3.745128 32.000000
76.918419 -0.335622 3.183523 255.000000
39.182571 -17.568264 1.582075 15.000000
7.028040 -7.775357 0.292758 4.000000
18.379225 20.248144 0.716070 11.000000
92.459351 40.991650 3.796972 30.000000
76.924126 -0.053703 3.183729 255.000000
39.382668 -17.501358 1.572738 20.000000
18.499393 20.509636 0.737731 3.000000
92.600517 41.422215 3.826119 34.000000
76.974358 0.214954 3.172363 151.000000
39.508293 -17.392296 1.552689 18.000000
6.719819 -7.333395 0.260461 28.000000
92.446854 41.760780 3.861529 25.000000
76.948242 0.470056 3.171333 255.000000
39.709686 -17.307484 1.542960 22.000000
6.700164 -7.263442 0.251860 38.000000
92.400406 42.148251 3.919270 29.000000
76.950996 0.752131 3.171539 255.000000
39.964607 -17.261114 1.535418 17.000000
6.709875 -7.220685 0.242622 38.000000
92.841469 42.741577 3.980013 33.000000
76.952721 1.034233 3.171745 255.000000
40.204334 -17.173491 1.519048 16.000000
93.053795 43.253372 4.049696 28.000000
76.988602 1.303518 3.173392 255.000000
40.442394 -17.100174 1.510319 23.000000
49.876213 57.355797 2.348833 12.000000
93.218987 43.746353 4.099838 33.000000
77.003281 1.586098 3.174216 255.000000
27.430216 -11.485560 1.012484 6.000000
49.625664 57.491886 2.386746 11.000000
76.996948 1.868319 3.174216 255.000000
27.625282 -11.448416 0.992003 6.000000
77.014565 2.151212 3.175245 36.000000
27.519419 -11.286536 0.976316 10.000000
7.514728 -7.795331 0.224917 23.000000
77.121002 2.437099 3.179981 21.000000
27.505348 -11.163172 0.963985 9.000000
7.551088 -7.781241 0.217658 31.000000
93.745644 45.662060 4.333954 24.000000
29.853741 -11.995075 1.033574 62.000000
7.578872 -7.747400 0.209992 21.000000
93.933350 46.159863 4.404951 25.000000
29.865166 -11.872719 1.026841 103.000000
7.316102 -7.424155 0.192857 28.000000
94.092621 46.667053 4.475503 30.000000
29.922762 -11.768794 1.016096 9.000000
7.289245 -7.345438 0.184245 4.000000
28.220284 34.136715 1.600859 12.000000
93.911316 47.006783 4.493407 35.000000
29.915709 -11.651619 0.992104 35.000000
16.001753 -16.018518 0.383355 31.000000
28.065184 34.191437 1.637475 12.000000
94.074425 47.520412 4.583232 22.000000
29.892282 -11.504511 0.989787 38.000000
16.025036 -15.924662 0.370679 23.000000
28.030283 34.405289 1.681566 12.000000
30.044989 -11.443033 0.971049 32.000000
7.153748 -7.057016 0.157859 8.000000
27.617817 34.178284 1.703443 12.000000
29.899963 -11.262486 0.953858 21.000000
27.565857 34.334064 1.737669 12.000000
94.960381 49.264847 4.764341 16.000000
30.259825 -11.271567 0.952732 55.000000
27.389061 34.371159 1.772868 12.000000
94.785805 49.616032 4.820804 38.000000
30.263725 -11.146878 0.940295 11.000000
7.358303 -7.098388 0.137410 33.000000
27.376787 34.615314 1.811135 12.000000
94.605370 49.943073 4.876594 30.000000
30.173189 -10.988108 0.925006 22.000000
7.337396 -7.026483 0.129444 87.000000
27.575668 35.118034 1.871423 12.000000
29.990660 -10.803215 0.907112 21.000000
7.498371 -7.133119 0.124640 10.000000
21.117077 27.096798 1.469874 5.000000
30.746031 -10.948169 0.917338 70.000000
7.468841 -7.048131 0.114715 19.000000
20.909866 27.034698 1.492219 8.000000
95.751183 51.880512 5.154788 21.000000
30.790968 -10.837171 0.906084 64.000000
7.427786 -6.960533 0.106603 255.000000
20.881660 27.193848 1.520954 8.000000
95.645660 52.277714 5.216589 34.000000
93.567543 7.676212 3.951231 21.000000
30.906973 -10.762947 0.908442 15.000000
7.615561 -7.089211 0.101695 72.000000
20.675074 27.130091 1.542966 8.000000
95.376663 52.585609 5.269553 26.000000
30.861736 -10.620523 0.883160 38.000000
7.626855 -7.047724 0.094250 17.000000
20.648735 27.292618 1.578029 8.000000
68.367683 38.006088 3.825669 10.000000
30.965942 -10.517549 0.873502 9.000000
7.717788 -7.074528 0.087712 15.000000
20.658686 27.514784 1.616577 7.000000
68.557213 38.441055 3.885387 4.000000
83.893471 7.841639 3.575702 25.000000
31.092775 -10.439715 0.864590 7.000000
7.776991 -7.076518 0.080749 10.000000
26.984632 36.215855 2.153566 13.000000
68.288025 38.619774 3.919306 1.000000
83.969376 8.144501 3.594877 27.000000
68.242104 38.908829 3.965677 1.000000
83.931976 8.421912 3.594452 24.000000
36.655266 -12.023288 1.010168 10.000000
67.833168 39.005802 3.991271 17.000000
83.872017 8.756108 3.608106 4.000000
36.413475 -11.782290 0.988825 7.000000
9.036981 -8.046000 0.069691 19.000000
67.566986 39.182968 4.025036 19.000000
83.993332 9.080100 3.614732 29.000000
36.547203 -11.677758 0.977886 8.000000
9.047712 -7.996298 0.061117 18.000000
29.323257 40.523376 2.551408 3.000000
67.560486 39.479160 4.059813 6.000000
84.056458 9.369026 3.633554 35.000000
37.353424 -11.798995 0.984723 9.000000
9.070458 -7.962984 0.050559 26.000000
28.954748 40.354214 2.594260 15.000000
67.010216 39.503548 4.090286 1.000000
83.982910 9.657743 3.646592 15.000000
37.714405 -11.768395 0.979351 8.000000
9.088287 -7.919842 0.046288 18.000000
28.795269 40.429150 2.627348 9.000000
66.555656 39.533569 4.097616 20.000000
39.897541 -12.289332 1.027574 4.000000
9.079472 -7.853796 0.033524 14.000000
27.371014 38.700420 2.550575 5.000000
39.794407 -12.098051 1.009241 8.000000
9.091667 -7.809031 0.029285 22.000000
27.203463 38.778503 2.598569 14.000000
39.752632 -11.926361 0.992571 1.000000
8.978330 -7.649267 0.018528 35.000000
22.282948 32.013248 2.167052 5.000000
65.422653 39.824528 4.188219 10.000000
81.619919 -24.161427 2.020853 19.000000
9.106703 -7.706666 0.012493 25.000000
65.143997 39.998528 4.220327 14.000000
101.942001 13.601967 4.526298 15.000000
81.770981 -23.880529 1.992660 15.000000
9.154036 -7.689319 0.004173 23.000000
101.841194 13.968616 4.542040 12.000000
81.988319 -23.618214 1.966034 27.000000
9.128392 -7.610889 -0.004149 25.000000
9.129260 -7.555066 -0.008273 48.000000
63.798912 40.114143 4.305762 17.000000
9.176202 -7.537417 -0.016581 24.000000
63.770424 40.407516 4.352992 8.000000
102.047348 15.123643 4.612390 4.000000
9.167573 -7.476890 -0.024777 24.000000
21.260654 31.975636 2.341835 8.000000
63.698601 40.689976 4.424423 3.000000
101.885132 15.481441 4.661659 21.000000
44.829079 -12.213405 1.054394 6.000000
9.171582 -7.424351 -0.032952 25.000000
23.635519 35.817932 2.647252 10.000000
63.077065 40.603664 4.404207 14.000000
45.096317 -12.108833 1.027014 1.000000
9.198712 -7.390670 -0.041190 27.000000
24.765278 37.830894 2.836833 9.000000
61.978336 40.218452 4.402457 1.000000
82.674126 -21.874323 1.895897 1.000000
9.194447 -7.331952 -0.047208 28.000000
24.555592 37.797852 2.867402 7.000000
61.677567 40.345295 4.443204 6.000000
82.794144 -21.597122 1.867027 1.000000
9.209468 -7.288872 -0.055347 26.000000
20.371721 31.634970 2.426623 9.000000
84.044716 -21.594652 1.878278 21.000000
9.236089 -7.255043 -0.063546 23.000000
21.531570 33.667976 2.619395 9.000000
60.967697 40.506844 4.489770 11.000000
82.941475 -20.987419 1.822012 27.000000
9.219224 -7.187313 -0.067329 23.000000
21.350672 33.656258 2.647311 10.000000
60.800270 40.717602 4.526860 15.000000
9.213830 -7.128966 -0.075232 23.000000
21.227764 33.748291 2.690058 10.000000
86.387558 15.372412 4.091888 20.000000
44.190254 -10.837812 0.961031 8.000000
9.255738 -7.107313 -0.079435 27.000000
21.093599 33.783051 2.715170 10.000000
86.684326 15.721955 4.123801 8.000000
44.132969 -10.652431 0.935148 8.000000
9.264528 -7.062791 -0.089465 28.000000
21.050472 33.977413 2.759914 10.000000
60.598240 41.523556 4.698939 5.000000
86.861130 16.083078 4.150441 15.000000
43.879898 -10.421299 0.928970 5.000000
9.250453 -6.998601 -0.093130 29.000000
29.129696 20.117750 2.283105 4.000000
44.000713 -10.279772 0.922834 4.000000
9.303976 -6.985623 -0.101533 26.000000
19.803709 32.494675 2.707703 12.000000
29.188919 20.317062 2.330967 8.000000
83.444130 -19.187910 1.763621 38.000000
9.277338 -6.912596 -0.109043 22.000000
60.798923 42.635155 4.906183 18.000000
83.524246 -18.884283 1.733936 27.000000
9.274441 -6.857717 -0.112739 61.000000
19.809292 33.033463 2.808292 9.000000
60.615700 42.838943 4.943070 23.000000
36.399391 -8.089549 0.748508 177.000000
17.300955 -12.694873 -0.220979 29.000000
60.591587 43.139832 5.031595 17.000000
85.728668 17.472860 4.263726 12.000000
36.438442 -7.958190 0.755219 255.000000
17.282570 -12.584194 -0.235081 31.000000
21.102467 35.767754 3.107993 10.000000
60.491714 43.403702 5.075641 13.000000
36.413853 -7.813101 0.741105 255.000000
17.324455 -12.517789 -0.242486 37.000000
20.991217 35.864658 3.146497 10.000000
60.390697 43.667404 5.119763 9.000000
36.388565 -7.668273 0.733520 255.000000
17.361988 -12.448305 -0.253559 33.000000
19.328701 33.303558 2.962889 9.000000
60.326260 43.942299 5.205804 17.000000
36.382030 -7.527734 0.739315 248.000000
17.378870 -12.364220 -0.264311 25.000000
21.101007 36.651356 3.298710 10.000000
60.347546 44.297260 5.261006 5.000000
36.339378 -7.386725 0.744394 118.000000
17.403534 -12.285942 -0.275156 33.000000
19.778955 34.648094 3.146896 10.000000
60.224934 44.531578 5.329526 11.000000
33.280609 7.414706 1.721292 35.000000
84.170357 -16.788345 1.692944 39.000000
17.448326 -12.221988 -0.286310 26.000000
19.324722 34.128529 3.134891 19.000000
59.980820 44.692039 5.401117 16.000000
33.263378 7.532837 1.739654 40.000000
84.231041 -16.479677 1.707924 38.000000
17.455973 -12.132217 -0.293126 29.000000
19.915436 35.474380 3.287520 10.000000
59.878017 44.941345 5.445359 9.000000
33.278751 7.664653 1.753867 25.000000
84.330437 -16.178434 1.693733 27.000000
17.483772 -12.056745 -0.300263 32.000000
19.646484 35.283276 3.313100 13.000000
59.880108 45.286972 5.526475 8.000000
86.051476 20.151503 4.616307 9.000000
84.397484 -15.901307 1.738997 30.000000
9.877932 -6.758498 -0.173394 3.000000
59.791576 45.565468 5.626030 10.000000
85.803375 20.409599 4.653099 21.000000
9.860079 -6.695873 -0.174750 6.000000
59.740070 45.526215 5.687100 14.000000
86.076111 20.442728 4.791383 4.000000
9.872608 -6.704381 -0.164556 6.000000
19.640478 35.286976 3.369900 11.000000
59.842903 45.258835 5.681060 13.000000
86.079414 20.142200 4.803297 5.000000
84.415825 -15.920019 1.904430 33.000000
9.843980 -6.737791 -0.151995 1.000000
19.895235 35.438396 3.362732 10.000000
59.906292 44.962570 5.645100 9.000000
33.249203 7.657848 1.853828 9.000000
84.385376 -16.234787 1.950090 35.000000
17.482183 -12.060150 -0.252075 28.000000
19.281401 34.065884 3.204471 28.000000
60.037251 44.734085 5.603269 15.000000
33.228664 7.524976 1.845169 18.000000
84.241570 -16.527538 1.963145 40.000000
17.466705 -12.144197 -0.241352 29.000000
19.780306 34.650459 3.238218 13.000000
60.240025 44.542740 5.554325 16.000000
33.299576 7.412831 1.853557 9.000000
84.164711 -16.833046 2.007743 34.000000
17.418118 -12.205359 -0.226447 26.000000
21.110418 36.682507 3.405246 10.000000
60.146690 44.149822 5.518383 9.000000
36.358215 -7.403771 0.887373 187.000000
17.385672 -12.277880 -0.208033 27.000000
19.365042 33.366173 3.063301 9.000000
60.378185 43.980122 5.498579 9.000000
36.379475 -7.547071 0.901537 255.000000
17.389576 -12.376409 -0.189993 29.000000
60.395493 43.670872 5.460083 14.000000
36.409786 -7.692658 0.922478 255.000000
17.352303 -12.445948 -0.178901 33.000000
21.100220 35.763947 3.231586 10.000000
36.415394 -7.833379 0.929846 255.000000
17.302614 -12.506605 -0.163955 28.000000
19.745338 33.202118 2.985963 7.000000
60.526913 43.093784 5.378075 12.000000
85.643440 17.439922 4.748773 3.000000
36.432686 -7.963596 0.950496 253.000000
17.289099 -12.593566 -0.145596 32.000000
19.783882 32.991089 2.932965 9.000000
60.699623 42.898254 5.340962 16.000000
36.390507 -8.107572 0.956748 102.000000
17.253157 -12.659801 -0.134459 27.000000
21.940298 36.299191 3.196623 11.000000
60.696144 42.563080 5.274875 10.000000
86.116325 16.895350 4.722083 16.000000
83.571846 -18.941048 2.213976 27.000000
9.278768 -6.860916 -0.062437 18.000000
19.791143 32.474056 2.832765 9.000000
29.142019 20.284416 2.507771 8.000000
86.036293 16.552406 4.699001 6.000000
83.454239 -19.205570 2.242448 34.000000
9.289676 -6.921789 -0.054593 28.000000
20.907328 34.037598 2.954472 8.000000
44.137867 -10.344316 1.210861 1.000000
9.265847 -6.962053 -0.044502 25.000000
21.035913 33.967152 2.919976 10.000000
60.485386 41.461739 5.115000 14.000000
87.001892 16.093437 4.745327 8.000000
44.036243 -10.490913 1.217027 5.000000
9.242726 -6.992755 -0.038434 28.000000
21.110538 33.823318 2.885946 10.000000
86.587852 15.688849 4.734979 1.000000
44.219208 -10.689583 1.246894 8.000000
9.260794 -7.059944 -0.030487 23.000000
21.179920 33.659191 2.843662 10.000000
44.176342 -10.842575 1.262635 22.000000
9.242796 -7.099939 -0.024410 23.000000
21.370720 33.700863 2.818468 9.000000
60.836891 40.742126 5.004422 18.000000
9.228589 -7.142961 -0.012221 27.000000
21.514225 33.653793 2.786078 9.000000
61.129253 40.614182 4.977587 6.000000
84.340454 -21.388411 2.460811 9.000000
9.223495 -7.198410 -0.004084 27.000000
20.381874 31.638603 2.598721 9.000000
84.093544 -21.622845 2.501187 11.000000
9.211370 -7.238225 0.002045 29.000000
61.551346 40.262730 4.923892 13.000000
84.100357 -21.953531 2.518948 9.000000
9.204375 -7.287454 0.010245 23.000000
82.491829 -21.856901 2.502967 1.000000
9.201044 -7.339840 0.020543 27.000000
62.953777 40.539845 4.933988 2.000000
101.467026 15.744196 5.435209 20.000000
9.189660 -7.386036 0.026751 29.000000
21.340189 32.095253 2.526196 9.000000
63.386547 40.490639 4.903506 1.000000
101.238655 15.328981 5.402009 1.000000
44.891396 -12.255636 1.389234 6.000000
9.157326 -7.418103 0.037024 21.000000
63.755848 40.398281 4.880901 14.000000
102.029213 15.066362 5.459260 1.000000
9.164921 -7.480056 0.043359 31.000000
63.725441 40.067951 4.828259 20.000000
102.447823 14.762957 5.460752 14.000000
9.140040 -7.510386 0.051618 21.000000
101.972183 14.313107 5.432567 1.000000
9.131671 -7.559746 0.062072 20.000000
102.183197 13.961021 5.422996 2.000000
81.558456 -23.525219 2.652744 3.000000
9.123083 -7.609162 0.066350 85.000000
65.172462 40.000351 4.811009 16.000000
81.840134 -23.931730 2.694534 18.000000
9.102751 -7.648950 0.074707 87.000000
22.378950 32.139206 2.374734 7.000000
65.529648 39.889660 4.786225 11.000000
81.488472 -24.168926 2.700841 4.000000
9.087191 -7.698322 0.083147 39.000000
27.214081 38.779240 2.831218 14.000000
9.080586 -7.744596 0.091653 21.000000
39.964710 -12.157447 1.356558 8.000000
9.095154 -7.812026 0.102539 17.000000
66.636803 39.581768 4.726892 21.000000
37.650791 -11.604479 1.300101 8.000000
9.073966 -7.851804 0.111001 16.000000
29.038017 40.485180 2.872733 7.000000
67.064774 39.519939 4.706527 6.000000
83.937408 9.652511 4.398391 12.000000
37.698204 -11.770560 1.317020 7.000000
9.071448 -7.907954 0.119727 11.000000
29.132103 40.303627 2.823868 9.000000
67.351967 39.388859 4.690155 1.000000
84.046669 9.353084 4.402290 22.000000
9.042337 -7.941092 0.128128 15.000000
67.659187 39.204887 4.645765 12.000000
83.996750 9.035978 4.383127 18.000000
9.039313 -7.997309 0.136927 22.000000
67.905914 39.031864 4.612168 8.000000
84.183266 8.744045 4.391158 9.000000
36.688107 -11.892378 1.319847 8.000000
9.032243 -8.050262 0.147826 24.000000
68.214699 38.877426 4.595931 1.000000
84.020264 8.430771 4.366316 28.000000
9.010037 -8.089923 0.156402 10.000000
26.952307 36.185650 2.419926 12.000000
68.414612 38.659851 4.572298 1.000000
84.005112 8.118368 4.378722 32.000000
7.769024 -7.024780 0.142598 10.000000
20.639149 27.498760 1.807928 7.000000
68.238106 38.277779 4.497637 15.000000
84.090508 7.815643 4.352092 24.000000
7.805982 -7.110372 0.151126 11.000000
20.620262 27.264872 1.767595 8.000000
34.516823 -11.750485 1.292400 7.000000
20.730995 27.213322 1.750974 8.000000
95.365250 52.579319 6.183765 29.000000
93.735474 8.035965 4.864630 7.000000
30.910599 -10.649407 1.181681 7.000000
7.624998 -7.048476 0.163120 10.000000
20.767666 27.055172 1.715843 8.000000
95.665649 52.266956 6.132924 34.000000
93.297348 7.654045 4.824022 1.000000
30.754883 -10.716002 1.188534 9.000000
7.456340 -6.943424 0.167171 9.000000
20.910189 27.035114 1.695500 8.000000
30.856375 -10.878353 1.205425 32.000000
30.684124 -10.944232 1.211643 39.000000
7.497139 -7.082260 0.183622 94.000000
27.454268 34.975994 2.127986 12.000000
94.866943 50.526634 5.896352 18.000000
30.192610 -10.893825 1.193802 35.000000
7.431201 -7.071692 0.189804 107.000000
27.400543 34.657780 2.083518 12.000000
94.621643 49.972786 5.814033 28.000000
30.130535 -10.990446 1.204069 10.000000
7.437613 -7.129923 0.197830 34.000000
27.640539 34.699173 2.053285 12.000000
94.930702 49.691879 5.765525 31.000000
27.987492 34.871693 2.030447 12.000000
30.113503 -11.235022 1.240354 49.000000
16.148569 -15.703798 0.463970 13.000000
28.226114 34.918610 2.007494 12.000000
30.384914 -11.463325 1.264608 30.000000
16.119238 -15.790636 0.480547 27.000000
28.244165 34.680176 1.976259 12.000000
30.276928 -11.549526 1.273196 19.000000
16.075119 -15.863293 0.504623 27.000000
28.239298 34.415810 1.920370 12.000000
93.897842 47.431213 5.476349 33.000000
29.825777 -11.496850 1.267079 19.000000
16.027313 -15.932487 0.516791 23.000000
28.395319 34.360661 1.883842 12.000000
94.123436 47.133503 5.424612 23.000000
112.622482 5.133854 5.730861 1.000000
29.936640 -11.665790 1.284830 10.000000
28.656157 34.418610 1.861443 12.000000
112.929092 4.752876 5.745584 26.000000
30.018770 -11.824707 1.301487 40.000000
7.377170 -7.439234 0.256049 162.000000
112.661331 4.328012 5.731115 22.000000
30.202238 -12.025038 1.322709 9.000000
7.367228 -7.483871 0.265825 38.000000
29.948971 -12.051555 1.324831 7.000000
7.619157 -7.796743 0.279752 31.000000
7.541634 -7.774213 0.287408 22.000000
41.015972 -16.846970 1.858441 9.000000
7.583661 -7.872336 0.297692 8.000000
49.752598 57.618607 2.857952 6.000000
40.847229 -16.952894 1.869063 20.000000
49.905712 57.369499 2.801491 18.000000
93.483612 43.890446 4.996748 8.000000
40.604549 -17.026901 1.876199 8.000000
6.961134 -7.332942 0.289486 19.000000
50.057957 57.120373 2.731899 14.000000
93.043129 43.268162 4.928793 31.000000
40.355663 -17.088415 1.882769 20.000000
6.882622 -7.303660 0.296098 9.000000
50.198776 56.859268 2.675173 1.000000
92.622772 42.660488 4.844694 31.000000
40.154064 -17.176882 1.899199 10.000000
6.843282 -7.312891 0.302500 164.000000
92.381241 42.100555 4.787664 35.000000
39.865540 -17.226583 1.903714 17.000000
6.766088 -7.288828 0.309066 32.000000
92.478912 41.794701 4.732643 29.000000
39.668762 -17.314367 1.912473 10.000000
18.362349 20.350557 0.899713 6.000000
92.537239 41.413288 4.692363 35.000000
39.511169 -17.410030 1.930446 18.000000
6.793643 -7.419158 0.326684 32.000000
18.403091 20.267332 0.879453 18.000000
92.342247 40.959023 4.640226 27.000000
76.966965 -0.053733 3.885511 24.000000
39.300442 -17.489468 1.938315 10.000000
18.470612 20.206642 0.860341 7.000000
92.256157 40.516830 4.575538 22.000000
76.911316 -0.335591 3.882738 34.000000
39.068459 -17.541672 1.944711 11.000000
6.952353 -7.699722 0.351393 30.000000
18.399582 19.967386 0.834318 4.000000
91.837502 39.932083 4.512456 31.000000
76.868950 -0.617157 3.894139 60.000000
38.843758 -17.612137 1.959105 21.000000
6.837162 -7.628173 0.355932 24.000000
91.523590 39.416286 4.455390 29.000000
76.931084 -0.899650 3.897427 26.000000
38.640625 -17.682903 1.966826 20.000000
6.919956 -7.774981 0.368928 26.000000
91.710793 39.061226 4.404537 33.000000
38.479717 -17.780125 1.976768 22.000000
6.822334 -7.727537 0.374382 30.000000
25.626303 27.212996 1.063702 9.000000
91.647934 38.675911 4.360544 32.000000
38.241356 -17.840363 1.990012 13.000000
6.789907 -7.742406 0.381208 25.000000
25.743696 27.137680 1.031771 8.000000
91.490868 38.215183 4.311701 27.000000
36.634945 -17.254719 1.909696 8.000000
6.870944 -7.890201 0.394616 43.000000
25.782261 26.998455 1.003641 9.000000
91.380440 37.794971 4.265670 26.000000
35.116592 -16.689610 1.853977 8.000000
25.948599 26.964586 0.979934 9.000000
91.353966 37.392506 4.206228 23.000000
33.546154 -16.094227 1.787185 7.000000
91.196770 36.938496 4.123914 27.000000
32.335426 -15.659415 1.744585 7.000000
6.605059 -7.755431 0.405588 9.000000
91.142761 36.528332 4.081055 26.000000
82.369347 -3.049138 4.146663 23.000000
31.254299 -15.277517 1.701437 7.000000
6.539005 -7.732391 0.412038 10.000000
55.879757 56.804127 1.905646 1.000000
90.967873 36.090214 4.067559 28.000000
82.300545 -3.348694 4.187029 10.000000
29.977243 -14.783140 1.652259 7.000000
6.487857 -7.729187 0.421183 31.000000
90.795219 35.637112 3.985761 25.000000
81.845810 -3.616402 4.135840 1.000000
28.925123 -14.396329 1.614125 8.000000
6.404981 -7.687497 0.422877 34.000000
56.005737 56.162354 1.786057 10.000000
26.421972 -13.259992 1.487232 22.000000
6.435233 -7.778861 0.433726 25.000000
55.936169 55.682915 1.694626 14.000000
90.604836 34.798080 3.881262 19.000000
26.317144 -13.322585 1.494262 33.000000
6.362058 -7.748052 0.439470 128.000000
30.369102 30.010799 0.886894 25.000000
90.270660 34.290604 3.827776 24.000000
6.298709 -7.728487 0.444022 27.000000
30.525723 29.945225 0.858391 11.000000
90.016907 33.835133 3.778365 1.000000
6.371991 -7.874372 0.459981 30.000000
90.061935 33.475842 3.741489 13.000000
6.277153 -7.815580 0.463966 36.000000
90.157112 33.135635 3.706793 10.000000
23.417511 -12.294469 1.386118 10.000000
6.361732 -7.977767 0.479412 26.000000
90.285065 32.807552 3.639923 1.000000
22.736286 -12.033163 1.357154 15.000000
6.409727 -8.098671 0.492489 51.000000
22.013124 -11.753914 1.329653 9.000000
56.652367 53.592216 1.265925 1.000000
21.474796 -11.562986 1.308105 9.000000
56.664822 53.230427 1.207753 8.000000
20.861322 -11.331490 1.285724 9.000000
6.431053 -8.308816 0.524903 51.000000
57.042965 53.193428 1.157185 1.000000
92.988319 32.272812 3.592043 1.000000
20.281017 -11.121943 1.264847 12.000000
57.014324 52.777359 1.098421 1.000000
93.447472 32.048893 3.570688 9.000000
19.717590 -10.902662 1.236018 20.000000
6.458796 -8.469177 0.547010 67.000000
57.222656 52.582081 1.044450 1.000000
19.244669 -10.724648 1.220166 10.000000
6.427420 -8.492410 0.556304 17.000000
57.293625 52.261284 0.988094 1.000000
94.619041 31.695818 3.554380 18.000000
18.708563 -10.515937 1.199883 10.000000
6.487420 -8.634154 0.573553 27.000000
95.456825 31.587812 3.546336 7.000000
78.780922 -7.766185 4.024066 1.000000
18.284832 -10.361918 1.182379 10.000000
6.359927 -8.529388 0.574353 48.000000
95.759529 31.299038 3.482877 20.000000
78.826439 -8.062500 4.027874 1.000000
18.168358 -10.384072 1.184628 21.000000
58.387085 52.112465 0.805915 23.000000
96.412117 31.121683 3.467035 14.000000
78.663040 -8.323347 4.034826 1.000000
18.147118 -10.460358 1.193071 14.000000
6.203611 -8.445193 0.582189 33.000000
90.118141 79.842026 1.155787 10.000000
18.127216 -10.533356 1.205185 13.000000
6.134207 -8.415183 0.584036 33.000000
90.350677 79.458870 1.071020 10.000000
18.096554 -10.604452 1.216742 18.000000
6.214198 -8.590891 0.603928 64.000000
93.921104 29.199228 3.279967 1.000000
18.065607 -10.675461 1.228308 10.000000
6.125635 -8.531004 0.607407 68.000000
28.051319 24.324533 0.278655 19.000000
18.032337 -10.740901 1.232264 18.000000
6.041942 -8.479878 0.609479 32.000000
18.009409 -10.816867 1.244436 15.000000
5.963062 -8.431293 0.611722 45.000000
94.174271 28.146173 3.123244 1.000000
17.973351 -10.885048 1.255734 20.000000
5.954748 -8.485335 0.623134 29.000000
94.431084 27.882147 3.094274 4.000000
17.939131 -10.950092 1.263369 23.000000
5.998945 -8.612093 0.640094 17.000000
94.479874 27.502592 3.092389 3.000000
17.919373 -11.028384 1.279559 22.000000
5.896086 -8.530926 0.641534 18.000000
58.709583 49.036617 0.280368 6.000000
79.777512 -11.084238 4.136552 1.000000
17.895412 -11.104276 1.288124 31.000000
5.997102 -8.745443 0.665299 29.000000
58.719666 48.680794 0.239625 1.000000
94.849808 26.857670 3.011861 1.000000
79.845810 -11.392179 4.128117 1.000000
17.855968 -11.166316 1.299151 12.000000
5.870880 -8.625777 0.660117 98.000000
58.816723 48.398621 0.186118 21.000000
94.885521 26.492516 2.992682 17.000000
17.827009 -11.239306 1.311110 17.000000
100.279602 27.640438 3.087218 1.000000
17.816957 -11.320076 1.316967 12.000000
26.023540 21.103546 0.029239 6.000000
100.144272 27.171061 3.061543 1.000000
17.766359 -11.379545 1.327392 19.000000
5.977947 -8.990723 0.709546 17.000000
26.015507 20.954411 0.005830 98.000000
99.897926 26.748882 2.979022 1.000000
17.753292 -11.463155 1.340654 17.000000
5.847263 -8.861108 0.707007 15.000000
17.720743 -11.529984 1.356047 17.000000
5.759828 -8.798587 0.707704 7.000000
17.686909 -11.600461 1.352996 10.000000
5.726091 -8.814039 0.714707 4.000000
86.371101 22.128132 2.474909 7.000000
10.014204 -6.620719 0.776324 2.000000
59.427338 46.446430 -0.223790 9.000000
85.962990 21.688135 2.429950 5.000000
9.940864 -6.622214 0.778706 4.000000
59.265133 45.970749 -0.287998 15.000000
86.688286 21.533480 2.401401 14.000000
9.912271 -6.655749 0.780465 6.000000
14.959448 -23.581415 1.962581 9.000000
59.623276 45.899525 -0.328317 1.000000
85.184242 20.828695 2.342289 22.000000
86.036438 -15.433896 4.489172 1.000000
9.896902 -6.695670 0.787373 1.000000
14.914498 -23.702166 1.992628 14.000000
59.659748 45.580334 -0.393116 1.000000
85.329613 20.533087 2.282887 1.000000
85.664169 -15.691409 4.487959 1.000000
17.736746 -12.094652 1.422136 10.000000
14.839042 -23.765886 2.008363 26.000000
59.838127 45.370247 -0.445620 1.000000
33.512360 7.934339 0.877753 6.000000
85.768822 -16.035706 4.481222 3.000000
17.699903 -12.164807 1.434043 10.000000
14.769287 -23.848293 2.035346 8.000000
59.959732 45.117306 -0.510777 20.000000
33.541363 7.811491 0.871743 14.000000
85.595886 -16.328289 4.490532 1.000000
17.689732 -12.248952 1.444218 10.000000
13.899383 -22.619652 1.944967 9.000000
59.988182 44.795300 -0.561888 15.000000
33.599586 7.695333 0.848438 33.000000
17.672941 -12.333401 1.454085 10.000000
13.675368 -22.439060 1.948172 9.000000
37.157860 27.535534 -0.387459 9.000000
33.583820 7.562282 0.841322 82.000000
17.641401 -12.403184 1.466387 10.000000
13.593669 -22.481222 1.966144 10.000000
33.611740 7.439235 0.823297 119.000000
85.690582 -17.309381 4.459169 4.000000
17.607822 -12.476262 1.471171 10.000000
13.525857 -22.555368 1.986745 18.000000
61.065350 44.562279 -0.765279 18.000000
33.663624 7.321394 0.805857 180.000000
47.309708 -9.737105 2.480649 9.000000
17.581854 -12.554909 1.480412 10.000000
13.499860 -22.691223 2.013087 16.000000
91.963036 66.594597 -1.248522 234.000000
33.689514 7.203958 0.781805 179.000000
36.577328 -7.661391 1.912755 8.000000
17.533453 -12.612989 1.487610 9.000000
13.462930 -22.809977 2.038041 12.000000
92.291451 66.342567 -1.349031 38.000000
33.799255 7.097979 0.765651 29.000000
17.373608 -12.594890 1.485481 9.000000
13.416286 -22.922470 2.062338 15.000000
61.496735 43.849003 -0.975540 18.000000
17.321480 -12.649573 1.484791 10.000000
13.380697 -23.045820 2.083259 21.000000
61.442497 43.810333 -1.093238 14.000000
17.311663 -12.642404 1.442602 10.000000
13.381966 -23.048004 2.050700 17.000000
61.378956 44.105251 -1.094976 1.000000
33.744080 7.080244 0.649988 51.000000
17.373259 -12.594636 1.417730 10.000000
13.431479 -22.930065 2.007459 12.000000
92.012047 66.630089 -1.606141 207.000000
33.727680 7.205963 0.650177 251.000000
36.519962 -7.656030 1.753149 8.000000
17.542166 -12.609968 1.408437 10.000000
13.463240 -22.792326 1.971830 16.000000
61.091084 44.581062 -1.029630 22.000000
33.683109 7.319476 0.631752 255.000000
85.275093 -17.550999 4.014393 8.000000
17.577148 -12.546918 1.381403 10.000000
13.509633 -22.680616 1.934008 18.000000
33.651173 7.441802 0.631660 255.000000
85.621841 -17.311050 3.982013 5.000000
17.593315 -12.465983 1.360353 10.000000
13.540982 -22.553806 1.899519 14.000000
37.220333 27.581831 -0.598356 12.000000
33.623562 7.565065 0.637675 254.000000
85.495667 -16.959614 3.927496 15.000000
17.602726 -12.375994 1.346252 9.000000
5.658360 -9.354114 0.777888 3.000000
33.576122 7.683791 0.637305 255.000000
17.634501 -12.306573 1.326550 10.000000
5.731028 -9.392616 0.771334 1.000000
59.860764 45.042835 -0.915298 17.000000
33.538097 7.804560 0.631111 255.000000
85.701576 -16.363953 3.855184 4.000000
17.659916 -12.228307 1.306267 10.000000
13.787312 -22.428493 1.817899 9.000000
59.767487 45.316685 -0.864034 13.000000
33.509159 7.927405 0.637120 195.000000
17.678684 -12.141140 1.289170 10.000000
14.733912 -23.763369 1.901248 7.000000
59.680683 45.596325 -0.838969 18.000000
33.578503 8.067684 0.638970 15.000000
38.530655 -7.064747 1.703479 7.000000
17.719772 -12.083078 1.270454 10.000000
13.822255 -22.128824 1.755832 9.000000
59.838364 46.048481 -0.817081 5.000000
85.032463 20.760130 1.619533 12.000000
38.640747 -6.938644 1.686616 7.000000
9.899719 -6.692539 0.697384 1.000000
13.852568 -21.988993 1.712496 9.000000
59.823715 46.387310 -0.766342 2.000000
86.925491 21.560192 1.672718 19.000000
38.733898 -6.815891 1.682757 6.000000
9.904422 -6.650478 0.689972 1.000000
13.898932 -21.884323 1.690124 9.000000
59.212337 46.261749 -0.721329 10.000000
86.181755 21.711334 1.659926 31.000000
39.025330 -6.719803 1.673564 5.000000
9.970773 -6.642139 0.682405 1.000000
13.956394 -21.814615 1.656534 9.000000
17.654282 -11.667398 1.194217 9.000000
13.908701 -21.573809 1.623932 10.000000
17.683073 -11.597944 1.178609 16.000000
5.824957 -8.962796 0.665024 8.000000
17.709412 -11.513814 1.158784 14.000000
5.876121 -8.965986 0.655661 6.000000
26.002888 20.936764 -0.244723 108.000000
76.809959 -12.083063 3.190911 28.000000
17.741613 -11.446841 1.147182 16.000000
5.920323 -8.961614 0.645635 37.000000
25.995995 21.088730 -0.222013 4.000000
76.641945 -11.768938 3.168562 33.000000
17.754753 -11.372110 1.134514 16.000000
5.882736 -8.837487 0.628870 104.000000
59.037922 48.253185 -0.465782 1.000000
99.808159 27.473007 2.023839 4.000000
76.485481 -11.471777 3.146898 34.000000
17.809784 -11.315518 1.116907 20.000000
58.664703 48.290703 -0.424378 1.000000
94.968277 26.515621 1.962088 6.000000
76.484138 -11.185098 3.104595 33.000000
17.830509 -11.237164 1.104550 16.000000
76.396561 -10.886445 3.085910 30.000000
17.840801 -11.156831 1.084356 10.000000
5.841246 -8.572585 0.585417 35.000000
76.259392 -10.581864 3.038406 31.000000
17.882053 -11.091664 1.073339 22.000000
5.986022 -8.716231 0.585613 66.000000
76.162186 -10.297531 3.033082 34.000000
17.912947 -11.024429 1.054474 16.000000
5.925795 -8.564321 0.567677 80.000000
93.973869 27.711489 2.000953 1.000000
76.071152 -10.001450 3.014565 36.000000
17.949440 -10.956385 1.043213 18.000000
5.988841 -8.587996 0.561534 29.000000
58.088268 49.594532 -0.199962 1.000000
93.957771 28.045744 2.019701 20.000000
76.031113 -9.739811 2.971486 33.000000
17.968580 -10.877872 1.030977 16.000000
6.044816 -8.610482 0.553195 22.000000
58.248806 50.137260 -0.147551 10.000000
93.891594 28.436972 2.054975 9.000000
75.936241 -9.417984 2.952901 33.000000
18.015463 -10.820503 1.020463 10.000000
6.047867 -8.541710 0.541174 24.000000
28.045460 24.302307 -0.045338 7.000000
93.475410 28.685373 2.082300 1.000000
75.806549 -9.119907 2.946538 33.000000
18.025425 -10.736783 1.007781 10.000000
6.053302 -8.483284 0.529756 26.000000
58.765202 51.282215 -0.068063 1.000000
93.947243 29.207352 2.095181 11.000000
75.649857 -8.833278 2.925919 33.000000
18.061104 -10.668547 0.989236 19.000000
6.126867 -8.523298 0.524404 29.000000
58.633202 51.546803 -0.013626 1.000000
93.843620 29.552771 2.129631 16.000000
75.683243 -8.556119 2.886039 33.000000
18.094370 -10.603173 0.978019 15.000000
6.093929 -8.412249 0.508038 19.000000
58.803200 52.079590 0.027419 1.000000
75.591995 -8.292022 2.881495 33.000000
18.107931 -10.522150 0.958346 18.000000
6.152903 -8.437736 0.503434 23.000000
58.429089 52.131638 0.082001 9.000000
96.033035 30.962305 2.201667 25.000000
75.463371 -7.998107 2.862192 34.000000
18.133823 -10.448479 0.946702 18.000000
6.121938 -8.330960 0.489356 35.000000
95.707672 31.282089 2.232234 31.000000
75.350868 -7.693724 2.817069 33.000000
18.168089 -10.379711 0.935520 17.000000
6.423321 -8.667958 0.497452 26.000000
95.147026 31.448450 2.256575 15.000000
75.286461 -7.434971 2.813724 33.000000
18.387156 -10.419904 0.933834 10.000000
6.429821 -8.619985 0.488333 29.000000
18.874493 -10.604869 0.937675 10.000000
6.377550 -8.478679 0.472497 27.000000
86.576637 79.527679 0.430879 10.000000
93.966286 31.824116 2.268693 29.000000
19.402283 -10.808045 0.954154 9.000000
6.451117 -8.517539 0.466509 24.000000
86.064140 79.640488 0.511642 10.000000
93.512527 32.052971 2.295083 17.000000
77.161514 -6.764328 2.853773 30.000000
19.855719 -10.969991 0.962664 10.000000
6.456814 -8.463516 0.455475 40.000000
85.921265 80.094841 0.615043 10.000000
92.780617 32.164444 2.314158 22.000000
77.145821 -6.491675 2.825276 39.000000
20.465824 -11.209354 0.978006 9.000000
56.873238 53.407528 0.435744 1.000000
77.104836 -6.203707 2.809405 46.000000
20.990454 -11.396886 0.980194 10.000000
6.422756 -8.289125 0.428504 39.000000
56.649780 53.571037 0.517113 1.000000
91.674049 32.535530 2.360395 24.000000
77.127052 -5.921062 2.809405 39.000000
21.610889 -11.636265 1.002973 8.000000
91.027275 32.682133 2.346811 12.000000
77.083450 -5.633603 2.807045 34.000000
22.235952 -11.867906 1.007925 16.000000
6.366373 -8.093122 0.404572 26.000000
90.530243 32.878757 2.370728 31.000000
77.074165 -5.348999 2.792472 39.000000
22.893457 -12.111233 1.026655 10.000000
6.472371 -8.169027 0.400385 29.000000
89.907387 33.008232 2.390873 20.000000
77.148178 -5.083604 2.767471 39.000000
23.579762 -12.363906 1.041431 9.000000
6.437365 -8.069724 0.385736 81.000000
90.103249 33.455406 2.449683 23.000000
77.255577 -4.806363 2.784200 85.000000
6.348116 -7.898287 0.371567 57.000000
30.528502 29.937496 0.417923 16.000000
90.143806 33.846920 2.454142 27.000000
77.393356 -4.530240 2.761452 34.000000
6.299967 -7.777036 0.358253 25.000000
30.414740 30.045404 0.455183 12.000000
90.177216 34.237103 2.492144 19.000000
77.494263 -4.251201 2.764478 34.000000
6.398556 -7.845406 0.353532 48.000000
30.552195 30.403252 0.496523 5.000000
90.409607 34.704998 2.535892 27.000000
77.539047 -3.982232 2.751995 34.000000
26.297020 -13.312398 1.096239 29.000000
6.446458 -7.845254 0.347490 17.000000
77.682899 -3.704199 2.756600 33.000000
26.596424 -13.341728 1.085873 9.000000
6.582358 -7.953877 0.342493 25.000000
90.633041 35.573456 2.634602 33.000000
81.974113 -3.607737 2.908386 1.000000
28.958969 -14.394261 1.163214 21.000000
6.656043 -7.977499 0.335582 9.000000
90.718163 35.954498 2.674616 29.000000
82.466103 -3.326597 2.925390 29.000000
30.329985 -14.937356 1.198352 13.000000
6.668330 -7.941375 0.329506 23.000000
90.821518 36.381191 2.715755 30.000000
82.272453 -3.045552 2.903759 23.000000
31.428589 -15.342329 1.227412 9.000000
6.594286 -7.795002 0.315515 34.000000
26.041533 26.872778 0.568253 8.000000
91.016487 36.846985 2.725605 26.000000
