VERSION .7
FIELDS x y z intensity
SIZE 4 4 4 4
TYPE F F F F
COUNT 1 1 1 1
WIDTH 1219
HEIGHT 1
VIEWPOINT 0 0 0 1 0 0 0
POINTS 1219
DATA ascii
17.917057 -10.940910 3.830296 22.000000
14.293289 -20.634436 3.612689 10.000000
29.997362 25.957050 4.050391 8.000000
17.906157 -11.024558 3.836578 14.000000
14.247683 -20.730507 3.629305 22.000000
30.037296 25.799688 4.022041 10.000000
17.861673 -11.083342 3.846688 17.000000
14.205207 -20.839676 3.661311 23.000000
30.159754 25.713379 4.004826 10.000000
80.234901 -10.862445 15.328121 8.000000
17.844809 -11.163670 3.859436 10.000000
14.147055 -20.918697 3.679562 15.000000
79.851013 -11.094449 15.262087 1.000000
17.800432 -11.222551 3.865880 14.000000
14.115145 -21.021399 3.702914 22.000000
32.427391 27.238756 4.227048 11.000000
17.791811 -11.308458 3.876787 12.000000
14.062189 -21.101318 3.726406 15.000000
32.521061 27.114761 4.203886 11.000000
17.761354 -11.371968 3.885957 11.000000
14.038598 -21.234158 3.749831 14.000000
32.422581 26.831825 4.156163 4.000000
17.720547 -11.442013 3.894227 10.000000
13.980939 -21.316360 3.773458 12.000000
25.924212 21.301964 3.295864 6.000000
17.688173 -11.508792 3.899725 30.000000
13.943750 -21.438709 3.799296 18.000000
26.042452 21.239706 3.277291 17.000000
86.556274 -13.616267 16.603628 1.000000
10.010468 -6.565649 2.216628 8.000000
13.954658 -21.611946 3.835543 27.000000
26.067303 21.101355 3.252937 8.000000
86.520775 -13.920343 16.590195 1.000000
9.946150 -6.573232 2.209606 6.000000
13.846127 -21.625629 3.846835 13.000000
32.020306 25.726591 3.955075 15.000000
86.312065 -14.211494 16.544239 6.000000
9.937713 -6.620115 2.217419 1.000000
13.842576 -21.778788 3.875103 12.000000
31.182055 24.865587 3.819178 11.000000
17.786486 -11.938510 3.989607 13.000000
13.785217 -21.882084 3.902069 14.000000
31.154072 24.657019 3.776666 17.000000
17.750175 -12.008739 3.995179 22.000000
13.757270 -21.990604 3.927587 19.000000
31.414110 24.676109 3.776096 10.000000
17.773300 -12.105949 4.008924 14.000000
13.727983 -22.123722 3.951647 21.000000
33.845776 26.386187 4.034069 11.000000
85.821365 -15.395314 16.506491 6.000000
17.734978 -12.184356 4.022940 17.000000
13.675156 -22.228647 3.979621 25.000000
33.958927 26.293812 4.006893 11.000000
85.773415 -15.665007 16.475128 6.000000
17.676403 -12.226033 4.018345 16.000000
13.639278 -22.335958 4.000062 10.000000
34.002010 26.128395 3.970455 11.000000
85.597496 -15.957293 16.436722 6.000000
17.694248 -12.334498 4.044342 12.000000
13.596835 -22.451044 4.030475 10.000000
59.579559 45.436783 6.898116 10.000000
85.683243 -16.282967 16.479769 9.000000
17.586739 -12.350997 4.029598 16.000000
13.545291 -22.543150 4.052593 10.000000
59.761429 45.230015 6.847169 13.000000
85.423233 -16.558182 16.425591 11.000000
17.580889 -12.443357 4.042572 14.000000
13.494733 -22.646612 4.071695 12.000000
59.878857 44.974659 6.788976 15.000000
85.409096 -16.864988 16.402624 4.000000
17.559626 -12.520536 4.059399 16.000000
13.494610 -22.827230 4.114632 12.000000
59.981880 44.676552 6.740788 10.000000
85.420967 -17.192862 16.432644 6.000000
17.380125 -12.484288 4.027952 23.000000
13.444742 -22.934347 4.139285 26.000000
60.169514 44.506844 6.692580 15.000000
85.098503 -17.437260 16.366520 8.000000
17.293882 -12.518682 4.022429 14.000000
13.391195 -23.026863 4.157045 17.000000
60.143269 44.147312 6.619120 20.000000
85.604408 -17.868099 16.460497 1.000000
17.285240 -12.604614 4.034495 23.000000
13.325359 -23.108135 4.177180 15.000000
60.201534 43.851448 6.529198 10.000000
17.257542 -12.676925 4.034464 23.000000
13.278228 -23.213268 4.197345 12.000000
60.226364 43.853447 6.400054 14.000000
17.244507 -12.667350 3.985030 24.000000
13.292539 -23.228878 4.162306 12.000000
60.203262 44.159016 6.387686 18.000000
17.274874 -12.592437 3.954338 26.000000
13.373069 -23.172174 4.122650 25.000000
60.160294 44.467548 6.413529 17.000000
85.649742 -17.565790 16.031086 3.000000
17.315733 -12.525290 3.933871 20.000000
13.370214 -22.972328 4.072042 27.000000
60.112762 44.774040 6.425915 13.000000
85.343567 -17.177282 15.899077 1.000000
17.396828 -12.487082 3.918690 23.000000
13.405718 -22.840359 4.038411 12.000000
59.927071 44.929127 6.434289 17.000000
17.578737 -12.524910 3.934222 10.000000
13.479255 -22.774029 4.002313 13.000000
59.795971 45.174141 6.464301 5.000000
85.789696 -16.629215 15.865066 5.000000
17.550442 -12.408020 3.902183 12.000000
13.511207 -22.638302 3.963607 28.000000
59.732151 45.470764 6.488575 9.000000
85.575035 -16.277880 15.767656 17.000000
17.614695 -12.356864 3.886980 14.000000
13.557620 -22.528028 3.929513 10.000000
85.782501 -15.991782 15.747795 9.000000
17.672060 -12.305286 3.874614 17.000000
13.621347 -22.447285 3.900689 13.000000
31.837233 24.597734 3.505741 8.000000
85.924927 -15.708176 15.763779 4.000000
17.649321 -12.193645 3.852074 11.000000
13.636167 -22.295851 3.868637 10.000000
31.545444 24.557457 3.497560 10.000000
85.922218 -15.382450 15.705645 18.000000
17.767612 -12.183966 3.849182 20.000000
13.691000 -22.202272 3.837822 15.000000
31.638941 24.817017 3.525059 10.000000
85.867142 -15.063444 15.638751 1.000000
17.796978 -12.108440 3.838151 19.000000
13.734512 -22.091192 3.808745 17.000000
17.745527 -11.978524 3.802140 19.000000
13.751451 -21.938702 3.768042 13.000000
31.279364 24.898561 3.532886 10.000000
17.867151 -11.970050 3.803737 9.000000
13.808209 -21.859318 3.744232 10.000000
31.594881 25.339445 3.593236 10.000000
86.385574 -14.192629 15.641203 9.000000
9.932284 -6.601493 2.102879 3.000000
13.860743 -21.765390 3.713833 22.000000
31.511950 25.463284 3.615776 10.000000
86.379486 -13.913078 15.584841 6.000000
9.974134 -6.584226 2.103049 4.000000
13.891016 -21.637480 3.682349 17.000000
26.014074 21.178785 3.011524 8.000000
17.687950 -11.574670 3.700667 9.000000
13.910109 -21.493528 3.643706 20.000000
17.711761 -11.497758 3.681615 20.000000
13.970212 -21.422091 3.621625 19.000000
32.529274 26.872326 3.810194 11.000000
17.728020 -11.420550 3.669101 26.000000
14.001410 -21.298904 3.586764 21.000000
32.425198 26.986906 3.831833 10.000000
17.780216 -11.362180 3.656085 12.000000
14.058534 -21.215982 3.567865 22.000000
32.170006 26.965151 3.820163 10.000000
17.808901 -11.293155 3.642483 21.000000
14.082912 -21.084534 3.531857 22.000000
32.442757 27.396849 3.879396 11.000000
80.025383 -11.132914 14.261066 1.000000
17.815039 -11.214386 3.620979 17.000000
14.114524 -20.988798 3.505232 19.000000
32.348156 27.520704 3.902544 11.000000
80.175514 -10.854404 14.236958 11.000000
17.848442 -11.135626 3.611093 14.000000
14.180914 -20.905802 3.478384 28.000000
32.298439 27.683109 3.931223 11.000000
17.885153 -11.071986 3.595563 19.000000
14.216872 -20.794344 3.450568 27.000000
32.344307 27.918858 3.956165 3.000000
17.897642 -10.997790 3.583176 20.000000
5.914658 -8.583396 1.418632 10.000000
58.022579 50.456043 7.160159 12.000000
17.958565 -10.949052 3.576367 15.000000
5.913926 -8.518538 1.405785 7.000000
57.991707 50.803669 7.219999 7.000000
17.961676 -10.860846 3.561497 26.000000
6.028050 -8.615347 1.417923 36.000000
18.003031 -10.787398 3.546010 26.000000
6.048874 -8.578003 1.406091 2.000000
79.418694 -9.020536 13.964278 1.000000
18.020977 -10.712840 3.530868 18.000000
6.135389 -8.633331 1.411311 8.000000
33.738441 30.208059 4.304699 6.000000
79.505974 -8.749452 13.959784 1.000000
18.039940 -10.634821 3.519406 14.000000
6.437137 -8.991298 1.467600 7.000000
33.618992 30.323841 4.319557 13.000000
79.508118 -8.454864 13.954626 1.000000
18.079636 -10.581826 3.505611 16.000000
6.351733 -8.803656 1.433051 1.000000
33.513309 30.452023 4.344217 13.000000
104.958801 34.894802 16.490917 19.000000
79.556694 -8.179286 13.929288 1.000000
18.118759 -10.507302 3.497475 19.000000
6.466321 -8.893598 1.441778 52.000000
30.704504 28.086239 4.006832 10.000000
104.534569 35.118847 16.441517 24.000000
79.617958 -7.890796 13.920472 1.000000
18.137463 -10.437930 3.486876 22.000000
6.417418 -8.758663 1.415997 36.000000
31.003714 28.559349 4.081139 10.000000
103.999779 35.363911 16.397280 29.000000
18.145910 -10.358642 3.466538 20.000000
6.389502 -8.657016 1.397432 31.000000
103.563263 35.659691 16.389009 31.000000
79.056717 -7.264292 13.798627 4.000000
18.184629 -10.284179 3.454781 21.000000
6.439526 -8.658195 1.393763 34.000000
27.038836 25.275953 3.622648 18.000000
103.007416 35.850822 16.339233 1.000000
18.338348 -10.295210 3.470282 10.000000
6.257798 -8.349771 1.338541 28.000000
27.339958 25.745861 3.688845 13.000000
102.698090 36.165707 16.311085 1.000000
18.851206 -10.492447 3.552296 10.000000
6.297888 -8.339396 1.333154 20.000000
26.161034 24.817217 3.561092 21.000000
102.330971 36.438423 16.292263 24.000000
19.358271 -10.681931 3.624592 10.000000
6.387443 -8.396872 1.340285 33.000000
30.336226 28.979797 4.165354 10.000000
102.293716 36.848171 16.346533 1.000000
78.563148 -6.114075 13.625407 1.000000
19.868366 -10.873107 3.704854 18.000000
6.406672 -8.358396 1.330412 18.000000
30.200680 29.083075 4.177520 10.000000
78.723625 -5.822545 13.649261 1.000000
20.889118 -11.322990 3.878171 12.000000
6.450102 -8.351480 1.323711 29.000000
30.009621 29.091505 4.186516 9.000000
20.960545 -11.276655 3.876307 24.000000
6.484139 -8.332243 1.318805 15.000000
21.586466 -11.511578 3.975465 10.000000
6.581093 -8.396196 1.324992 33.000000
30.669535 30.159920 4.361662 21.000000
22.228790 -11.749677 4.067786 12.000000
6.476931 -8.201217 1.292404 19.000000
30.540033 30.253546 4.374146 11.000000
22.896120 -12.000348 4.172954 17.000000
6.510736 -8.182185 1.283893 18.000000
23.887451 -12.408538 4.335672 23.000000
6.603332 -8.236411 1.288711 20.000000
24.129459 -12.427488 4.361978 25.000000
6.676350 -8.274091 1.292233 54.000000
27.468729 27.806389 4.046054 10.000000
25.514399 -13.022680 4.583166 35.000000
6.694415 -8.228668 1.281811 54.000000
27.319878 27.859207 4.059793 10.000000
25.770462 -13.034538 4.610212 30.000000
6.520404 -7.955040 1.237437 31.000000
100.002174 40.139805 16.412205 28.000000
26.320433 -13.197533 4.689790 26.000000
6.543743 -7.924097 1.229068 34.000000
26.080490 26.978853 3.937310 9.000000
6.556173 -7.882941 1.217153 22.000000
25.866386 26.954376 3.939652 9.000000
6.572673 -7.844121 1.209437 37.000000
25.512678 26.781591 3.913760 9.000000
99.624397 41.225037 16.517591 1.000000
6.653175 -7.881336 1.211626 37.000000
25.234358 26.684584 3.918453 15.000000
99.576736 41.633430 16.573439 30.000000
25.252428 26.891104 3.948835 15.000000
100.066345 42.249096 16.659967 1.000000
25.341637 27.185089 4.004585 10.000000
99.678177 42.516342 16.659895 1.000000
25.280914 27.320028 4.030503 10.000000
99.607094 42.918201 16.712950 33.000000
6.837001 -7.865070 1.198416 14.000000
25.269974 27.509785 4.064595 13.000000
99.383347 43.233738 16.739361 38.000000
7.085467 -8.090814 1.231056 28.000000
25.158474 27.581034 4.088496 16.000000
99.589806 43.758335 16.839916 27.000000
38.373028 -17.714577 6.588232 8.000000
6.905431 -7.827165 1.185556 17.000000
25.059109 27.675148 4.108588 18.000000
99.498817 44.133366 16.889385 29.000000
38.457760 -17.582987 6.576551 19.000000
6.942884 -7.814463 1.183600 26.000000
99.597931 44.614902 16.933851 28.000000
38.677071 -17.512152 6.587857 18.000000
99.590820 45.008835 16.977459 27.000000
38.882744 -17.458286 6.598279 11.000000
99.733353 45.493156 17.067915 31.000000
39.124668 -17.394884 6.613165 19.000000
22.529158 25.599316 3.825056 8.000000
39.277264 -17.290592 6.605197 8.000000
7.356498 -8.047927 1.205688 26.000000
22.237295 25.455194 3.815214 8.000000
39.455154 -17.204741 6.624974 21.000000
7.345973 -7.977501 1.193416 29.000000
21.946314 25.290888 3.797416 25.000000
31.776197 14.912120 5.502986 1.000000
39.758133 -17.163704 6.634295 18.000000
7.379569 -7.960845 1.188826 26.000000
21.583769 25.049196 3.773174 15.000000
31.701735 15.019201 5.512134 8.000000
39.974449 -17.091795 6.644863 26.000000
7.513845 -8.040714 1.197474 26.000000
21.404299 25.043507 3.776819 21.000000
31.576080 15.094856 5.511933 9.000000
40.146065 -16.991400 6.662994 13.000000
7.480976 -7.949731 1.182022 9.000000
21.288134 25.075478 3.782606 10.000000
31.572186 15.235407 5.533504 1.000000
40.398212 -16.923796 6.671034 24.000000
21.351202 25.337414 3.833729 8.000000
40.650959 -16.863119 6.687292 9.000000
7.496237 -7.855336 1.160404 9.000000
21.238167 25.382551 3.858589 8.000000
40.860989 -16.774979 6.695910 17.000000
7.580388 -7.885448 1.165087 3.000000
20.734827 24.966352 3.795224 9.000000
41.081169 -16.689686 6.698173 10.000000
15.886290 -16.393379 2.411404 22.000000
20.553474 24.933357 3.795882 10.000000
41.258438 -16.594151 6.717590 17.000000
7.758562 -7.950494 1.167583 9.000000
20.694216 25.283388 3.861278 8.000000
41.500317 -16.514982 6.731125 10.000000
7.721699 -7.854916 1.153808 30.000000
20.612226 25.372385 3.886448 23.000000
41.700272 -16.442991 6.747145 17.000000
20.580143 25.523476 3.915421 19.000000
41.970848 -16.355312 6.764167 15.000000
7.646727 -7.665433 1.118897 23.000000
20.407196 25.499695 3.923402 20.000000
42.215096 -16.289448 6.786712 10.000000
19.896793 25.040600 3.859044 9.000000
42.436630 -16.188002 6.796075 20.000000
19.828217 25.142946 3.880603 30.000000
42.694443 -16.107344 6.795295 12.000000
19.834784 25.341749 3.928538 10.000000
43.018017 -16.058109 6.846024 8.000000
16.115984 -15.694016 2.277031 29.000000
46.809074 -17.278061 7.421413 9.000000
16.160797 -15.628119 2.263749 25.000000
19.510586 25.298454 3.939703 9.000000
47.034561 -17.184284 7.439156 17.000000
16.173918 -15.537347 2.246496 21.000000
19.799068 25.868023 4.040163 29.000000
46.977024 -16.959095 7.401884 9.000000
16.222601 -15.459375 2.232769 22.000000
19.677776 25.896345 4.045362 9.000000
46.340218 -16.555710 7.284078 9.000000
16.260452 -15.392881 2.215156 23.000000
19.452574 25.795696 4.041381 13.000000
46.456085 -16.414473 7.275665 9.000000
16.270184 -15.289411 2.200963 20.000000
19.376585 25.891792 4.073948 21.000000
16.311695 -15.210902 2.182940 17.000000
19.440418 26.176542 4.119076 19.000000
47.098797 -16.235807 7.329927 9.000000
16.331928 -15.118237 2.162533 16.000000
46.865192 -15.990730 7.276886 9.000000
16.378864 -15.061138 2.154283 24.000000
19.184767 26.222261 4.150660 22.000000
16.394352 -14.964854 2.137360 17.000000
19.072680 26.270569 4.164491 31.000000
38.413910 -12.793501 5.928256 7.000000
16.458811 -14.903014 2.126214 35.000000
18.990755 26.350714 4.189713 30.000000
38.436512 -12.637283 5.909787 7.000000
16.496183 -14.827185 2.104476 25.000000
19.048094 26.635550 4.247116 8.000000
16.503551 -14.729983 2.094948 29.000000
19.687540 27.723551 4.428271 12.000000
44.336529 -14.243438 6.785275 9.000000
16.538223 -14.662688 2.081489 23.000000
19.655403 27.894304 4.468237 8.000000
44.499168 -14.115968 6.785561 9.000000
16.570250 -14.582960 2.067119 31.000000
19.614513 28.064522 4.507722 13.000000
45.099487 -14.124679 6.860738 9.000000
16.590656 -14.493361 2.051389 32.000000
45.093071 -13.932768 6.843163 9.000000
16.626938 -14.407784 2.037088 27.000000
18.678080 27.126030 4.382722 9.000000
16.646513 -14.333431 2.022360 24.000000
18.635509 27.277708 4.419637 8.000000
16.688116 -14.263076 2.013322 20.000000
45.530403 -13.547249 6.853767 8.000000
16.703377 -14.170506 1.993464 28.000000
18.797224 27.962679 4.555531 8.000000
45.575005 -13.378887 6.853053 10.000000
16.748116 -14.103222 1.984914 34.000000
18.554331 27.789513 4.529678 8.000000
45.603561 -13.214542 6.841910 13.000000
16.758724 -14.007498 1.964701 29.000000
45.895523 -13.116995 6.869949 13.000000
16.804211 -13.946171 1.956630 27.000000
18.811382 28.626703 4.698345 8.000000
46.034950 -12.974526 6.875135 9.000000
16.821405 -13.856637 1.941203 21.000000
20.884705 32.037071 5.272675 8.000000
46.122871 -12.825687 6.881537 27.000000
16.857441 -13.782921 1.928028 23.000000
20.959053 32.397762 5.347418 9.000000
46.153946 -12.652269 6.853635 27.000000
16.897024 -13.712263 1.915311 13.000000
20.976717 32.687145 5.417004 12.000000
45.030888 -12.175564 6.688824 9.000000
16.962944 -13.662948 1.913264 19.000000
21.141912 33.211731 5.519084 10.000000
44.894596 -11.962311 6.653746 9.000000
16.939768 -13.542212 1.893595 17.000000
21.230036 33.608562 5.600981 10.000000
45.044586 -11.825628 6.661213 9.000000
17.026726 -13.514581 1.886563 12.000000
20.994230 33.506634 5.599288 10.000000
45.928940 -11.886584 6.785814 9.000000
17.060751 -13.439957 1.881043 21.000000
20.819569 33.500145 5.613505 10.000000
46.066772 -11.742273 6.774374 10.000000
17.064087 -13.341521 1.856964 19.000000
20.665499 33.525700 5.640126 10.000000
46.091927 -11.577492 6.780553 14.000000
9.265018 -7.189276 1.003310 31.000000
20.711546 33.864468 5.713205 10.000000
46.067921 -11.392126 6.762383 9.000000
9.264091 -7.134311 0.994205 150.000000
20.436874 33.692184 5.692526 10.000000
48.279686 -11.751466 7.071833 9.000000
9.269561 -7.087115 0.985977 184.000000
20.283140 33.716812 5.712134 10.000000
48.305542 -11.597135 7.079094 9.000000
9.287673 -7.047173 0.983100 13.000000
20.023815 33.550308 5.699905 10.000000
48.564896 -11.453408 7.101422 9.000000
9.325790 -7.022385 0.978248 97.000000
19.809978 33.470173 5.708585 12.000000
48.593288 -11.272256 7.090602 8.000000
9.299987 -6.949687 0.966742 153.000000
19.637579 33.458061 5.721875 10.000000
9.321529 -6.912687 0.964301 23.000000
19.344444 33.223743 5.697647 9.000000
84.893463 -19.053738 12.367215 14.000000
9.337981 -6.874496 0.957402 86.000000
18.972784 32.861824 5.657463 8.000000
17.302343 -12.640228 1.761678 10.000000
20.017176 34.966106 6.035820 9.000000
85.124390 -18.466761 12.381288 18.000000
17.340982 -12.571238 1.753382 25.000000
19.896564 35.052769 6.066923 8.000000
85.156563 -18.162731 12.361165 1.000000
17.427893 -12.537052 1.749968 10.000000
19.832800 35.197548 6.110014 1.000000
85.242661 -17.885767 12.349479 9.000000
17.502863 -12.493892 1.741552 8.000000
19.712311 35.314434 6.159847 1.000000
85.483757 -17.593945 12.421148 7.000000
17.599234 -12.470177 1.746799 8.000000
85.365402 -17.243696 12.379177 9.000000
17.592564 -12.368849 1.730292 8.000000
85.343369 -16.913921 12.382401 1.000000
17.580799 -12.264536 1.720937 8.000000
85.670891 -16.699291 12.437791 12.000000
17.691448 -12.245572 1.723583 7.000000
17.750519 -12.195032 1.725180 7.000000
17.664248 -12.140301 1.747124 9.000000
85.854271 -16.750591 12.698580 3.000000
17.684168 -12.249665 1.768643 8.000000
85.402397 -16.987593 12.687426 11.000000
17.536247 -12.242557 1.769599 9.000000
85.287064 -17.274357 12.694684 14.000000
17.502468 -12.314636 1.785777 15.000000
85.204300 -17.582935 12.722888 23.000000
17.500900 -12.409680 1.805328 13.000000
19.314054 34.346973 6.072037 1.000000
85.244110 -17.917141 12.785140 13.000000
17.446163 -12.467213 1.819460 16.000000
19.499891 34.381882 6.069617 9.000000
85.045540 -18.201136 12.811800 13.000000
17.379103 -12.515769 1.832299 26.000000
19.733402 34.498333 6.074505 10.000000
85.067902 -18.532249 12.840841 2.000000
17.368618 -12.605151 1.847372 23.000000
18.936220 32.838196 5.780249 9.000000
17.307909 -12.653563 1.853141 18.000000
19.254292 33.108765 5.819739 9.000000
17.296196 -12.742537 1.875764 21.000000
19.491808 33.249569 5.828887 12.000000
17.292841 -12.838116 1.888066 11.000000
19.703154 33.329491 5.834785 20.000000
17.236633 -12.894650 1.902221 12.000000
19.977341 33.525604 5.867358 10.000000
17.207811 -12.971725 1.923228 13.000000
20.244812 33.693024 5.881546 10.000000
48.530350 -11.677984 7.459941 6.000000
17.159616 -13.034301 1.930750 10.000000
20.447170 33.748993 5.876196 10.000000
17.106966 -13.093463 1.941584 10.000000
46.017010 -11.422158 7.119824 9.000000
17.105103 -13.191736 1.962051 18.000000
20.533703 33.350967 5.783427 10.000000
46.031162 -11.604942 7.137020 9.000000
17.055824 -13.253709 1.973360 9.000000
20.684963 33.335442 5.779228 10.000000
45.687031 -11.679452 7.114880 9.000000
17.014156 -13.321631 1.985585 10.000000
20.979685 33.535427 5.798978 10.000000
45.555714 -11.832418 7.101453 27.000000
16.987850 -13.401759 1.999660 10.000000
21.154760 33.541241 5.785075 12.000000
45.785698 -12.071460 7.169512 9.000000
16.995979 -13.509529 2.021719 12.000000
21.215483 33.378719 5.741585 10.000000
45.596668 -12.200533 7.155293 9.000000
16.954809 -13.583363 2.034486 20.000000
20.911610 32.635788 5.613123 10.000000
46.002979 -12.464252 7.250694 10.000000
16.924337 -13.651343 2.047736 19.000000
20.871822 32.324741 5.544700 9.000000
16.895599 -13.740477 2.062420 22.000000
20.845943 32.026466 5.486183 9.000000
46.170063 -12.890914 7.309539 9.000000
16.864227 -13.808126 2.079523 22.000000
46.132870 -13.036894 7.318659 9.000000
16.816504 -13.872317 2.091413 24.000000
18.927032 28.628185 4.884342 8.000000
46.119225 -13.233186 7.350574 10.000000
16.795321 -13.958606 2.106667 29.000000
18.533602 27.810989 4.738623 8.000000
45.528076 -13.227129 7.271775 9.000000
16.750547 -14.025513 2.122880 34.000000
18.684641 27.816164 4.721315 9.000000
45.574062 -13.430464 7.304279 9.000000
16.728607 -14.111764 2.138208 30.000000
18.801973 27.780840 4.714489 9.000000
45.248650 -13.497808 7.267694 10.000000
16.712521 -14.198341 2.154067 37.000000
45.223606 -13.671039 7.296997 9.000000
16.670851 -14.268471 2.167023 27.000000
18.829254 27.386492 4.623553 8.000000
45.122314 -13.829730 7.297602 10.000000
16.646481 -14.363788 2.182958 34.000000
18.759268 27.081722 4.571405 8.000000
45.285954 -14.061663 7.349301 9.000000
16.615099 -14.443284 2.201292 24.000000
44.551914 -14.004432 7.246413 9.000000
16.576441 -14.516687 2.210973 21.000000
19.750500 28.070864 4.713847 8.000000
44.164818 -14.060825 7.200070 9.000000
16.568094 -14.606741 2.231885 25.000000
19.783899 27.910805 4.680287 9.000000
44.104946 -14.203017 7.222797 13.000000
16.513573 -14.666590 2.243450 21.000000
44.092464 -14.377575 7.245917 9.000000
16.491896 -14.755817 2.263447 21.000000
19.009512 26.405878 4.416473 16.000000
38.397583 -12.683920 6.325238 8.000000
16.456692 -14.838489 2.274235 27.000000
19.091740 26.325804 4.391080 15.000000
16.422810 -14.917431 2.296660 27.000000
19.168596 26.248194 4.371387 12.000000
16.391008 -14.988045 2.306987 20.000000
19.278227 26.196180 4.351347 8.000000
46.928082 -16.048775 7.793204 8.000000
16.357317 -15.067690 2.317849 28.000000
44.840675 -15.518713 7.472925 9.000000
16.326307 -15.150114 2.337028 22.000000
19.453524 26.041945 4.308322 33.000000
44.794323 -15.677972 7.482763 8.000000
16.326923 -15.257099 2.356555 32.000000
19.516953 25.928104 4.289768 10.000000
46.708000 -16.540171 7.830239 9.000000
16.255211 -15.302073 2.370044 18.000000
19.633104 25.893803 4.272324 8.000000
46.354958 -16.606606 7.807634 9.000000
16.248619 -15.408589 2.389158 28.000000
19.829010 25.954039 4.271031 20.000000
47.358677 -17.152950 7.995741 9.000000
16.198318 -15.474041 2.401949 22.000000
19.432106 25.223995 4.146741 8.000000
47.218681 -17.298275 8.000752 9.000000
16.168938 -15.559716 2.421880 25.000000
19.605549 25.275322 4.143137 8.000000
46.976112 -17.395636 7.978856 9.000000
16.163895 -15.663903 2.437248 28.000000
19.789188 25.329004 4.151826 25.000000
42.784912 -16.022163 7.293262 8.000000
16.130051 -15.746155 2.456754 28.000000
19.846867 25.211813 4.121741 22.000000
42.655453 -16.152191 7.289400 8.000000
7.994749 -7.861905 1.229975 5.000000
19.943560 25.144474 4.105574 18.000000
42.398159 -16.224207 7.271317 8.000000
16.082666 -15.931800 2.495248 23.000000
20.313408 25.418858 4.133647 14.000000
42.119637 -16.294857 7.249915 16.000000
20.583307 25.573040 4.158736 10.000000
41.891201 -16.374825 7.228442 13.000000
20.494371 25.272345 4.098946 10.000000
41.656342 -16.459282 7.230358 17.000000
7.790895 -7.886664 1.239566 6.000000
20.484632 25.071938 4.061371 8.000000
41.363113 -16.518948 7.181947 10.000000
7.799749 -7.953726 1.251511 3.000000
20.589582 25.021618 4.041862 23.000000
41.202164 -16.621666 7.179944 12.000000
15.896826 -16.329947 2.576429 23.000000
20.739504 25.016369 4.035987 27.000000
40.945530 -16.692890 7.169595 9.000000
15.877355 -16.430000 2.595133 19.000000
21.233213 25.421677 4.096296 9.000000
40.745533 -16.777460 7.144787 8.000000
7.577555 -7.896282 1.248843 8.000000
21.208652 25.212868 4.051203 8.000000
40.499195 -16.849895 7.128088 9.000000
7.479585 -7.851593 1.243184 12.000000
21.324295 25.162544 4.043962 19.000000
40.315437 -16.947050 7.130136 10.000000
7.555956 -7.990200 1.268516 7.000000
21.486336 25.166162 4.027864 21.000000
40.067513 -17.007648 7.112343 17.000000
7.590752 -8.086158 1.285209 9.000000
21.844763 25.396879 4.065711 15.000000
39.839363 -17.083405 7.098448 9.000000
7.429946 -7.970431 1.268468 15.000000
21.987598 25.383179 4.046046 8.000000
39.643642 -17.163551 7.074207 15.000000
7.386740 -7.982542 1.271850 29.000000
22.456779 25.733622 4.102903 8.000000
39.369129 -17.216318 7.059538 19.000000
7.393631 -8.048967 1.287777 34.000000
39.199707 -17.313654 7.055853 11.000000
7.337012 -8.046328 1.286897 10.000000
39.006119 -17.391121 7.047204 20.000000
7.008492 -7.740141 1.239551 26.000000
38.764442 -17.453970 7.030296 24.000000
6.926394 -7.706052 1.237354 16.000000
38.604992 -17.528252 7.018933 9.000000
7.033178 -7.882779 1.267194 9.000000
24.984627 27.641335 4.370400 26.000000
98.816513 43.913311 17.862780 1.000000
38.388031 -17.599731 6.991168 10.000000
6.881441 -7.764390 1.249998 38.000000
25.104122 27.550406 4.345544 26.000000
99.012672 43.545994 17.829098 28.000000
38.059219 -17.618082 6.973084 8.000000
7.112932 -8.082246 1.302884 83.000000
25.127798 27.383774 4.313347 24.000000
99.213509 43.201046 17.797832 17.000000
6.844287 -7.834705 1.266297 28.000000
25.118889 27.192495 4.276672 18.000000
99.016380 42.745663 17.718962 30.000000
6.834599 -7.881735 1.275385 14.000000
25.240208 27.123699 4.260715 10.000000
99.108871 42.355320 17.707613 28.000000
7.009191 -8.143186 1.319236 32.000000
25.137634 26.815718 4.200783 10.000000
99.231117 41.998528 17.625906 32.000000
6.876954 -8.046189 1.307126 23.000000
25.170279 26.644756 4.169669 31.000000
99.286232 41.552696 17.567352 36.000000
6.853393 -8.078384 1.313899 70.000000
25.419966 26.712259 4.175229 18.000000
99.463478 41.199120 17.552588 37.000000
6.666548 -7.916781 1.290970 64.000000
25.660685 26.768066 4.172407 15.000000
99.552994 40.829659 17.504570 36.000000
6.627652 -7.929396 1.292721 107.000000
25.830185 26.766632 4.165790 9.000000
99.656921 40.486740 17.460600 38.000000
26.315710 -13.109062 4.956817 15.000000
6.602524 -7.955603 1.300559 94.000000
26.095894 26.844368 4.172899 9.000000
99.864571 40.165550 17.453032 36.000000
26.266144 -13.193266 4.966246 24.000000
27.190578 27.766104 4.304177 20.000000
100.025940 39.805153 17.417055 35.000000
25.646696 -12.994431 4.867995 39.000000
27.260468 27.643780 4.286222 20.000000
100.181404 39.442307 17.380270 33.000000
24.772192 -12.676571 4.721619 160.000000
100.261497 39.070168 17.351131 29.000000
23.959785 -12.366568 4.584656 37.000000
6.640304 -8.241184 1.355779 19.000000
100.649193 38.796932 17.354870 31.000000
23.825403 -12.397435 4.576431 33.000000
6.563149 -8.206817 1.351752 31.000000
30.595871 30.351212 4.681772 11.000000
100.785049 38.445763 17.316423 27.000000
22.647223 -11.885015 4.358066 10.000000
6.523190 -8.218425 1.357164 33.000000
30.587082 30.131386 4.633978 11.000000
100.978928 38.096344 17.306303 24.000000
22.005423 -11.651271 4.251696 9.000000
32.530155 31.811422 4.878526 13.000000
101.146660 37.736721 17.272579 29.000000
21.413532 -11.438564 4.154130 10.000000
6.551765 -8.376833 1.388757 26.000000
32.626957 31.672976 4.851520 13.000000
101.568794 37.490849 17.264078 33.000000
20.921379 -11.279137 4.075567 25.000000
6.624080 -8.533560 1.414541 36.000000
32.644402 31.458336 4.812931 13.000000
101.734375 37.128857 17.230213 1.000000
78.696335 -5.834337 14.397714 1.000000
20.479939 -11.128958 4.005116 9.000000
6.409062 -8.316330 1.382272 25.000000
32.833160 31.408958 4.799697 10.000000
101.951569 36.785244 17.224651 1.000000
78.735664 -6.127501 14.423165 1.000000
19.670547 -10.778235 3.862224 10.000000
6.420257 -8.394311 1.396943 32.000000
26.134171 24.826422 3.788634 12.000000
102.289642 36.504192 17.221272 25.000000
19.113447 -10.572963 3.765069 10.000000
6.355893 -8.373579 1.397075 24.000000
27.322664 25.765589 3.927331 9.000000
102.923912 36.305817 17.286009 1.000000
77.998833 -6.632008 14.268282 1.000000
18.691643 -10.416457 3.696099 9.000000
6.282971 -8.340812 1.393321 17.000000
26.946436 25.224854 3.840401 22.000000
103.237572 36.011749 17.278349 1.000000
78.100113 -6.915295 14.305277 1.000000
18.287157 -10.279068 3.631083 10.000000
6.256348 -8.366076 1.399452 27.000000
103.432419 35.655025 17.269398 28.000000
78.177101 -7.210987 14.324123 1.000000
18.142908 -10.281491 3.617043 13.000000
6.446690 -8.686809 1.454907 26.000000
30.962320 28.561203 4.323343 24.000000
103.951477 35.408215 17.294992 23.000000
78.237091 -7.492033 14.353995 1.000000
18.121773 -10.365841 3.628603 10.000000
6.471564 -8.784235 1.475188 166.000000
104.490280 35.185169 17.304939 18.000000
78.507675 -7.808431 14.408792 1.000000
18.109360 -10.434383 3.640180 22.000000
6.473958 -8.855267 1.488971 40.000000
30.679747 27.896852 4.212027 10.000000
78.778397 -8.113164 14.463589 1.000000
18.091225 -10.520891 3.656286 27.000000
6.440845 -8.878091 1.496629 5.000000
18.049583 -10.572695 3.654565 19.000000
6.387545 -8.872859 1.497621 1.000000
33.798988 30.283529 4.561657 13.000000
18.047775 -10.660673 3.669627 10.000000
6.646953 -9.301504 1.572144 8.000000
33.930729 30.199324 4.541874 13.000000
18.013584 -10.725471 3.677808 25.000000
6.093915 -8.587661 1.453684 1.000000
17.956713 -10.780952 3.678007 16.000000
6.084455 -8.647676 1.467221 8.000000
31.415854 27.531569 4.117915 9.000000
17.955788 -10.865847 3.693117 20.000000
6.056626 -8.672290 1.473446 9.000000
17.944162 -10.948866 3.706520 13.000000
5.920006 -8.543200 1.453366 4.000000
32.258739 27.874483 4.150200 11.000000
17.892702 -11.003360 3.707582 10.000000
14.231496 -20.691477 3.529430 10.000000
32.185825 27.596334 4.104749 11.000000
17.872074 -11.081156 3.719268 13.000000
14.205099 -20.816092 3.550752 23.000000
32.716125 27.843605 4.144201 3.000000
17.837482 -11.150426 3.735696 19.000000
14.185253 -20.951530 3.587484 19.000000
32.639431 27.592224 4.092760 4.000000
17.806231 -11.217523 3.741118 15.000000
14.119265 -21.011683 3.602845 32.000000
32.253922 27.064255 4.009706 10.000000
17.776360 -11.289927 3.751094 18.000000
14.087785 -21.131729 3.628119 15.000000
32.687271 27.224342 4.028673 11.000000
17.743477 -11.356155 3.763879 16.000000
14.044332 -21.234770 3.655087 14.000000
32.616337 26.963409 3.977916 11.000000
17.710007 -11.426449 3.765638 11.000000
13.993511 -21.319298 3.674834 18.000000
17.673588 -11.490522 3.770196 23.000000
13.955081 -21.431572 3.694459 18.000000
25.961040 21.150682 3.106423 8.000000
86.320274 -13.579141 15.974515 1.000000
9.999716 -6.551111 2.142349 2.000000
13.911010 -21.527853 3.720932 13.000000
31.437634 25.403231 3.728160 10.000000
86.275429 -13.896317 15.944011 6.000000
9.930151 -6.557679 2.134724 4.000000
13.876349 -21.647863 3.746608 12.000000
31.655243 25.406017 3.722522 10.000000
86.267334 -14.204129 15.967349 5.000000
9.918869 -6.600067 2.141531 1.000000
13.851604 -21.784594 3.775265 21.000000
31.247749 24.891218 3.635726 10.000000
17.797182 -11.936679 3.863501 10.000000
13.792547 -21.859863 3.798375 15.000000
17.742617 -11.990087 3.864577 18.000000
13.755887 -21.979860 3.824311 16.000000
31.616980 24.808706 3.607928 10.000000
85.818535 -15.085795 15.882138 1.000000
17.778765 -12.109672 3.889846 18.000000
13.705479 -22.078854 3.846673 10.000000
31.583443 24.595894 3.572662 10.000000
85.873978 -15.404752 15.917986 12.000000
17.756111 -12.185195 3.898053 17.000000
13.684331 -22.217487 3.876443 14.000000
85.722275 -15.702053 15.916145 1.000000
17.645472 -12.204639 3.891294 18.000000
13.637484 -22.324259 3.904993 23.000000
59.491573 45.632996 6.572863 6.000000
85.872032 -16.008472 15.890200 13.000000
17.663866 -12.308739 3.900920 14.000000
13.602480 -22.425016 3.924483 20.000000
59.617558 45.383530 6.528830 14.000000
17.596830 -12.358086 3.907722 15.000000
13.546953 -22.537006 3.948611 10.000000
59.795071 45.173462 6.477381 15.000000
17.544998 -12.413358 3.909685 15.000000
13.502895 -22.624376 3.970574 10.000000
59.943913 44.941753 6.422925 16.000000
85.449303 -16.919416 15.830254 4.000000
17.581120 -12.531234 3.931351 10.000000
13.463400 -22.765366 4.004687 19.000000
60.011887 44.650070 6.360029 14.000000
85.398422 -17.188324 15.815049 14.000000
17.395239 -12.495144 3.900001 29.000000
13.431027 -22.892632 4.023541 14.000000
60.496220 44.666885 6.327873 1.000000
17.287201 -12.509251 3.889393 20.000000
13.388798 -22.995026 4.047966 10.000000
60.160667 44.079346 6.223400 11.000000
17.272905 -12.586386 3.899400 24.000000
13.344825 -23.104601 4.068560 16.000000
60.156918 43.738647 6.141034 15.000000
84.131523 -17.882706 15.491332 1.000000
17.254299 -12.665274 3.893578 20.000000
13.298647 -23.220745 4.089960 10.000000
60.129627 43.702766 5.993808 9.000000
83.900459 -17.833591 15.278827 1.000000
17.257998 -12.663352 3.855329 23.000000
13.314495 -23.229612 4.054090 11.000000
60.090157 43.995453 5.992062 20.000000
84.259941 -17.602818 15.224529 1.000000
17.288736 -12.588684 3.821041 27.000000
13.340152 -23.077908 4.002813 10.000000
60.044804 44.301208 6.003691 12.000000
84.182495 -17.264874 15.121675 1.000000
17.319845 -12.519060 3.795146 23.000000
13.379777 -22.951887 3.956251 20.000000
60.057167 44.651199 6.034397 7.000000
84.148621 -16.952055 15.058537 1.000000
17.447781 -12.514429 3.797642 10.000000
13.442994 -22.867287 3.926476 10.000000
59.753338 44.750023 6.019527 13.000000
84.314857 -16.664209 14.999954 1.000000
17.617125 -12.538358 3.801124 14.000000
13.519783 -22.815239 3.897242 23.000000
59.759144 45.097187 6.049875 13.000000
84.109406 -16.318745 14.906955 1.000000
17.570429 -12.412952 3.766196 14.000000
13.511152 -22.611300 3.847359 16.000000
59.733730 45.422581 6.103666 16.000000
84.415459 -16.057306 14.950665 1.000000
17.609352 -12.343946 3.753212 15.000000
13.572338 -22.525780 3.822496 12.000000
59.452156 45.536873 6.091100 14.000000
84.434685 -15.786269 14.867997 4.000000
17.673622 -12.301794 3.734963 23.000000
13.594869 -22.377222 3.782388 17.000000
32.530918 25.106491 3.363981 10.000000
84.761650 -15.495514 14.899009 3.000000
17.645298 -12.181768 3.707501 23.000000
13.647489 -22.279406 3.751011 23.000000
31.525572 24.515488 3.276306 21.000000
17.761068 -12.165811 3.706955 22.000000
13.677485 -22.154385 3.714791 15.000000
31.473373 24.660542 3.301330 15.000000
17.804495 -12.104466 3.699440 21.000000
13.739033 -22.072680 3.690991 30.000000
31.397928 24.778799 3.316526 25.000000
17.757435 -11.977541 3.661274 23.000000
13.763651 -21.932634 3.652935 20.000000
31.427353 24.989491 3.336343 10.000000
9.927566 -6.648436 2.033750 1.000000
13.805595 -21.821426 3.624432 17.000000
31.517403 25.250198 3.369900 10.000000
9.930777 -6.600491 2.025393 7.000000
13.856756 -21.734005 3.594990 10.000000
9.956079 -6.564825 2.017068 1.000000
13.897510 -21.622681 3.566686 12.000000
26.087559 21.193224 2.828320 6.000000
17.671946 -11.559792 3.560296 10.000000
13.975661 -21.570049 3.543571 21.000000
32.846367 26.903591 3.595155 11.000000
17.701862 -11.491331 3.543070 23.000000
13.996381 -21.429504 3.510679 17.000000
17.737127 -11.422037 3.530368 16.000000
14.042818 -21.337545 3.480915 19.000000
17.770649 -11.356067 3.513995 20.000000
14.091807 -21.242033 3.460142 24.000000
32.848343 27.494713 3.687454 11.000000
17.804855 -11.286232 3.504994 28.000000
14.110313 -21.101625 3.427625 21.000000
17.835894 -11.205794 3.483333 14.000000
14.119983 -20.949505 3.388854 12.000000
17.867853 -11.147738 3.475166 18.000000
14.198329 -20.900051 3.366806 14.000000
32.315075 27.648487 3.705833 8.000000
79.967163 -10.542076 13.584542 1.000000
17.897036 -11.075023 3.465377 17.000000
14.233326 -20.795033 3.339968 22.000000
31.585764 27.225641 3.655617 10.000000
80.098747 -10.275096 13.586226 1.000000
17.916620 -11.000837 3.446639 12.000000
14.278206 -20.712902 3.316493 20.000000
31.413860 27.269173 3.668666 4.000000
80.238609 -9.994247 13.603644 1.000000
17.933071 -10.920632 3.430792 14.000000
5.971427 -8.588559 1.371575 9.000000
31.372725 27.435741 3.690242 10.000000
17.991920 -10.866273 3.419344 17.000000
6.006110 -8.577615 1.365564 9.000000
31.371397 27.638149 3.724041 10.000000
18.000109 -10.785648 3.413724 16.000000
6.050989 -8.571470 1.360826 6.000000
30.862923 27.391754 3.690093 2.000000
18.024590 -10.710731 3.395876 17.000000
6.847589 -9.624818 1.523648 8.000000
30.929043 27.644045 3.731408 10.000000
18.050642 -10.641129 3.382507 11.000000
6.915380 -9.645069 1.520328 1.000000
30.778437 27.713030 3.740042 6.000000
78.823051 -8.382013 13.236382 1.000000
18.070246 -10.563630 3.363911 26.000000
6.400742 -8.861800 1.392620 14.000000
78.822083 -8.103761 13.202959 1.000000
18.082401 -10.486217 3.351855 21.000000
6.436668 -8.843075 1.385617 23.000000
33.251209 30.383820 4.115035 12.000000
18.143126 -10.432760 3.348508 62.000000
6.405199 -8.732392 1.362342 25.000000
18.148951 -10.347781 3.327604 21.000000
6.437585 -8.709430 1.356671 32.000000
30.967268 28.706137 3.894866 20.000000
18.190773 -10.287654 3.317448 23.000000
6.450873 -8.663974 1.343517 33.000000
27.370779 25.559412 3.474058 14.000000
18.487818 -10.366396 3.357083 10.000000
6.554477 -8.736093 1.352610 26.000000
27.036263 25.433176 3.463011 9.000000
18.930634 -10.528001 3.423047 10.000000
6.305646 -8.346639 1.289980 21.000000
19.403721 -10.698177 3.485624 22.000000
6.445043 -8.460328 1.302118 14.000000
30.150183 28.771896 3.924827 10.000000
19.968323 -10.914225 3.571697 106.000000
6.432786 -8.383369 1.286234 26.000000
30.117899 28.952745 3.963839 10.000000
20.897671 -11.327627 3.722332 14.000000
6.533794 -8.456793 1.295138 31.000000
21.019094 -11.293967 3.723763 25.000000
6.565470 -8.427647 1.283350 33.000000
32.879318 32.063187 4.397798 13.000000
21.683039 -11.553359 3.825435 10.000000
6.517028 -8.302517 1.262319 35.000000
32.841595 32.262081 4.432866 8.000000
90.264305 33.946102 13.913882 33.000000
22.295578 -11.775024 3.907834 9.000000
6.484929 -8.202510 1.243144 36.000000
30.507027 30.189219 4.155342 17.000000
90.295639 34.318130 13.954304 28.000000
22.992083 -12.035303 4.012879 134.000000
6.688740 -8.396859 1.268706 31.000000
90.608131 34.817497 14.056814 25.000000
23.899235 -12.404066 4.154001 27.000000
6.527178 -8.132696 1.226863 36.000000
26.249912 26.341700 3.633204 23.000000
90.633652 35.190880 14.079745 23.000000
24.402859 -12.552135 4.223706 11.000000
6.607845 -8.177504 1.227620 39.000000
90.773544 35.628601 14.139045 21.000000
25.548492 -13.028843 4.403849 31.000000
6.686781 -8.210500 1.228926 142.000000
100.349159 39.791836 15.690575 15.000000
25.956129 -13.117071 4.445018 10.000000
6.591209 -8.032841 1.200429 74.000000
99.972504 40.067131 15.692930 27.000000
26.348749 -13.194470 4.503942 22.000000
6.567335 -7.944188 1.183479 26.000000
99.797462 40.422134 15.688605 26.000000
26.530285 -13.169747 4.505928 9.000000
6.379408 -7.662241 1.137734 30.000000
25.961086 27.005848 3.772080 9.000000
99.772278 40.777267 15.762345 29.000000
6.536012 -7.797604 1.155649 36.000000
25.452864 26.690804 3.733283 9.000000
99.525482 41.143425 15.749322 28.000000
6.417054 -7.593558 1.122188 62.000000
25.294447 26.701412 3.742471 10.000000
99.511261 41.524464 15.807220 24.000000
25.162689 26.767441 3.764070 12.000000
99.464508 41.954094 15.863759 1.000000
25.541521 27.370766 3.855529 9.000000
99.477890 42.389877 15.929130 1.000000
25.463221 27.468914 3.870653 9.000000
99.657791 42.836971 15.979409 27.000000
6.855049 -7.883052 1.151484 28.000000
25.472128 27.681330 3.907311 13.000000
99.533867 43.216602 16.004179 31.000000
6.933418 -7.914403 1.154192 27.000000
25.628445 28.047060 3.973095 9.000000
99.540367 43.633018 16.068380 28.000000
38.291893 -17.652805 6.279038 19.000000
25.136532 27.712013 3.932361 9.000000
99.428909 44.019314 16.115114 21.000000
38.499657 -17.594017 6.295954 22.000000
99.632004 44.546680 16.213318 27.000000
38.779102 -17.558348 6.316403 17.000000
27.508577 30.755863 4.380621 10.000000
99.800453 45.040668 16.266218 20.000000
38.912903 -17.447351 6.312526 10.000000
7.279233 -8.070232 1.161466 23.000000
27.208780 30.645988 4.379673 11.000000
99.989548 45.567863 16.363354 28.000000
39.168476 -17.389805 6.328317 17.000000
7.349294 -8.088105 1.162120 13.000000
22.569740 25.600344 3.665385 13.000000
100.240616 46.063148 16.467407 28.000000
39.355232 -17.308519 6.318024 14.000000
7.346280 -8.031117 1.151663 12.000000
22.166752 25.329796 3.632820 8.000000
39.528278 -17.212002 6.327947 20.000000
7.378182 -8.009672 1.144587 28.000000
21.935186 25.251341 3.633638 28.000000
31.890596 14.938647 5.281933 3.000000
39.722954 -17.148516 6.350456 11.000000
7.428191 -8.004886 1.142005 22.000000
21.660616 25.111778 3.620223 10.000000
31.540819 14.922750 5.245907 8.000000
39.991196 -17.074192 6.351323 9.000000
7.467602 -7.982847 1.135414 20.000000
21.382530 24.973881 3.612248 27.000000
31.314722 14.956489 5.229773 8.000000
40.224171 -16.999628 6.362817 16.000000
7.582491 -8.046345 1.142539 1.000000
21.308937 25.073360 3.632754 8.000000
31.306026 15.073302 5.248608 8.000000
40.442692 -16.942430 6.381117 11.000000
31.301407 15.226161 5.270467 1.000000
40.699863 -16.858435 6.395263 20.000000
21.141647 25.240334 3.681473 32.000000
31.246416 15.334520 5.282617 1.000000
40.919117 -16.773809 6.404249 14.000000
7.694640 -7.990330 1.126778 10.000000
20.978287 25.232605 3.680704 25.000000
31.195393 15.438053 5.282617 1.000000
41.066608 -16.667072 6.402394 18.000000
7.741740 -7.980491 1.121542 8.000000
20.573730 24.913603 3.641330 8.000000
31.150213 15.558086 5.297022 13.000000
41.283398 -16.595819 6.419650 10.000000
7.730336 -7.916040 1.110229 9.000000
31.057695 15.661166 5.303900 14.000000
41.569645 -16.525764 6.438307 20.000000
7.394663 -7.514363 1.052293 39.000000
20.601944 25.332615 3.731822 11.000000
31.068367 15.795987 5.339540 13.000000
41.773670 -16.446665 6.445430 18.000000
7.486458 -7.557352 1.056158 19.000000
20.542461 25.449461 3.749484 22.000000
31.030632 15.913363 5.342568 10.000000
42.007507 -16.344267 6.455275 17.000000
7.664927 -7.675637 1.069333 20.000000
20.484673 25.569052 3.779191 23.000000
31.017891 16.050684 5.369184 8.000000
42.259350 -16.272640 6.477143 10.000000
7.689876 -7.644378 1.063166 7.000000
19.902046 25.020300 3.710412 8.000000
30.834536 16.099354 5.360054 8.000000
42.430820 -16.177303 6.478991 12.000000
16.083447 -15.888142 2.204758 19.000000
19.790136 25.067652 3.729251 11.000000
42.731731 -16.112892 6.507744 8.000000
16.085814 -15.774407 2.181265 29.000000
19.827854 25.287399 3.774882 8.000000
43.044930 -16.059597 6.530503 9.000000
8.048987 -7.835503 1.081619 26.000000
19.896858 25.558640 3.822176 10.000000
46.894394 -17.300255 7.095952 9.000000
8.042268 -7.771755 1.070971 25.000000
19.783361 25.624397 3.843019 8.000000
46.738243 -17.057533 7.045554 9.000000
8.085470 -7.756396 1.067011 14.000000
19.715261 25.730602 3.865298 22.000000
46.863297 -16.908791 7.037277 9.000000
8.095012 -7.711470 1.056836 1.000000
19.677790 25.868235 3.898646 10.000000
46.945942 -16.725931 7.030677 9.000000
16.267080 -15.372261 2.103836 26.000000
19.411123 25.694059 3.879778 8.000000
16.289463 -15.291475 2.092294 24.000000
19.315191 25.762859 3.902258 31.000000
16.339182 -15.225874 2.075770 29.000000
19.340477 25.994551 3.949542 9.000000
45.200191 -15.572499 6.701894 9.000000
16.384970 -15.156720 2.058800 28.000000
19.716791 26.694405 4.068909 13.000000
45.375031 -15.455758 6.728308 9.000000
16.372566 -15.039535 2.038893 32.000000
19.200562 26.195848 4.005181 8.000000
16.406292 -14.960012 2.024529 26.000000
19.050646 26.192114 4.011124 24.000000
38.341129 -12.754396 5.650055 7.000000
16.461536 -14.900252 2.016778 28.000000
18.964079 26.275005 4.041862 17.000000
43.856232 -14.410713 6.438519 9.000000
16.472368 -14.800582 1.999756 28.000000
18.896605 26.375042 4.070084 8.000000
43.853294 -14.231878 6.422185 21.000000
16.520996 -14.740373 1.987713 34.000000
43.932068 -14.088130 6.418272 10.000000
16.538406 -14.647390 1.971676 29.000000
19.654451 27.861961 4.325557 8.000000
44.500187 -14.090651 6.477074 12.000000
16.562830 -14.561049 1.956573 20.000000
19.678543 28.103870 4.364591 8.000000
16.609350 -14.494366 1.944147 30.000000
19.508137 28.078989 4.379917 9.000000
47.750175 -14.744626 6.907911 9.000000
16.633013 -14.407967 1.929111 35.000000
18.919256 27.445513 4.293915 8.000000
47.738716 -14.549647 6.889616 9.000000
16.675140 -14.337821 1.916287 28.000000
18.572441 27.144688 4.260026 10.000000
47.799854 -14.386123 6.882272 9.000000
16.665234 -14.228424 1.897869 27.000000
45.549385 -13.526940 6.551065 18.000000
16.729177 -14.177339 1.891508 23.000000
45.616440 -13.373757 6.545500 10.000000
9.103793 -7.657962 1.019878 31.000000
18.994934 28.427925 4.501195 8.000000
45.709068 -13.219175 6.543334 22.000000
9.101615 -7.599341 1.010253 35.000000
20.866234 31.465744 4.997449 9.000000
9.148993 -7.582163 1.006154 10.000000
20.765186 31.563932 5.027764 8.000000
9.160420 -7.537851 0.998255 51.000000
9.134231 -7.460321 0.988269 94.000000
9.185137 -7.445944 0.984583 110.000000
20.810982 32.366707 5.202683 9.000000
9.181707 -7.387561 0.975093 94.000000
20.993975 32.915894 5.306313 10.000000
44.985603 -11.961336 6.351546 8.000000
9.201333 -7.347957 0.968103 81.000000
21.339420 33.742584 5.454723 10.000000
46.515884 -12.185862 6.552708 9.000000
9.219511 -7.309915 0.961124 24.000000
21.166195 33.741802 5.470348 10.000000
46.557026 -12.023129 6.561101 20.000000
9.226792 -7.260769 0.957039 25.000000
20.924725 33.630058 5.474982 10.000000
46.563484 -11.842921 6.547307 10.000000
9.253736 -7.227211 0.950891 30.000000
20.804510 33.711689 5.504009 10.000000
46.668121 -11.696248 6.547687 10.000000
9.276616 -7.190496 0.944342 42.000000
46.729916 -11.529869 6.550384 10.000000
9.255634 -7.120081 0.937492 119.000000
20.537121 33.790913 5.550281 10.000000
46.947124 -11.418436 6.566899 9.000000
9.268937 -7.078951 0.930185 103.000000
20.295612 33.670990 5.553316 21.000000
9.323014 -7.066300 0.926843 21.000000
20.137852 33.674568 5.570220 10.000000
48.572258 -11.428302 6.764292 9.000000
9.321095 -7.011205 0.922043 22.000000
19.956259 33.650295 5.588902 10.000000
48.692760 -11.277421 6.784434 10.000000
9.311166 -6.950447 0.912413 22.000000
19.783136 33.638783 5.602713 10.000000
48.716553 -11.112846 6.773695 9.000000
9.360993 -6.934360 0.908662 20.000000
19.605383 33.617905 5.614962 10.000000
48.569157 -10.883197 6.756188 4.000000
9.325031 -6.857436 0.900809 34.000000
20.107384 34.756927 5.829221 8.000000
84.866463 -18.690161 11.780252 1.000000
17.335840 -12.650784 1.658868 13.000000
20.046761 34.947021 5.877463 11.000000
85.153549 -18.457525 11.827029 6.000000
17.378290 -12.584407 1.654738 22.000000
19.955637 35.085487 5.917191 10.000000
85.277618 -18.172993 11.819880 8.000000
17.538357 -12.602589 1.654196 10.000000
19.818995 35.144360 5.957996 9.000000
85.579269 -17.909618 11.868053 5.000000
17.572487 -12.529707 1.649283 23.000000
19.696068 35.213093 5.993939 9.000000
85.379433 -17.541409 11.815850 4.000000
17.633097 -12.480309 1.639496 18.000000
19.576317 35.302078 6.032841 7.000000
85.302933 -17.215584 11.843283 12.000000
17.609362 -12.366885 1.633064 10.000000
19.442381 35.365559 6.060278 8.000000
85.513290 -16.932087 11.848296 5.000000
17.626635 -12.282796 1.619166 10.000000
85.502548 -16.620012 11.885151 13.000000
17.730677 -12.263573 1.628566 22.000000
86.205963 -16.444668 12.021686 1.000000
17.713842 -12.156188 1.622916 13.000000
86.201195 -16.443758 12.130264 1.000000
17.702091 -12.152668 1.644649 10.000000
85.595207 -16.653526 12.131058 11.000000
17.652143 -12.213809 1.663000 9.000000
85.682777 -16.996731 12.198843 12.000000
17.691925 -12.337467 1.689934 16.000000
19.603350 35.379940 6.131610 3.000000
85.394554 -17.265099 12.182239 9.000000
17.650181 -12.404755 1.697855 8.000000
19.707924 35.263176 6.102216 7.000000
85.379875 -17.588099 12.220284 6.000000
17.562952 -12.439866 1.708958 8.000000
19.802814 35.144333 6.079174 7.000000
85.263237 -17.874550 12.258958 6.000000
17.528189 -12.511970 1.728939 8.000000
19.959936 35.121567 6.066218 9.000000
85.282852 -18.205231 12.317858 6.000000
