VERSION .7
FIELDS x y z intensity
SIZE 4 4 4 4
TYPE F F F F
COUNT 1 1 1 1
WIDTH 1227
HEIGHT 1
VIEWPOINT 0 0 0 1 0 0 0
POINTS 1227
DATA ascii
6.325035 -7.844302 0.879822 22.000000
90.502892 34.777054 9.762826 27.000000
25.032768 -12.815429 3.119658 10.000000
32.052532 32.153385 3.007539 13.000000
91.085739 35.384705 9.874081 1.000000
25.874710 -13.138349 3.198628 10.000000
6.427408 -7.852757 0.869971 58.000000
31.969448 32.317276 3.043241 10.000000
91.162186 35.799507 9.913795 1.000000
26.346151 -13.244973 3.234683 32.000000
6.616313 -8.020524 0.885882 135.000000
31.556412 32.112038 3.045617 12.000000
90.866989 36.050190 9.929791 25.000000
26.424372 -13.168948 3.228193 19.000000
6.454990 -7.766795 0.853363 113.000000
31.252394 32.036701 3.058977 6.000000
91.298912 36.609413 10.026278 17.000000
28.897449 -14.282009 3.513131 7.000000
6.545134 -7.822342 0.852883 61.000000
91.190834 36.917564 10.027800 27.000000
30.094692 -14.736725 3.628421 7.000000
6.492508 -7.704641 0.835432 47.000000
26.010283 27.047573 2.604242 9.000000
91.229301 37.341480 10.082489 25.000000
31.470264 -15.274353 3.781641 3.000000
6.492053 -7.647046 0.824711 255.000000
25.858368 27.087618 2.618658 9.000000
91.405701 37.805424 10.152122 32.000000
32.757046 -15.736747 3.902981 2.000000
6.422708 -7.504098 0.803391 255.000000
25.682173 27.101233 2.637052 9.000000
91.534004 38.251968 10.216870 35.000000
34.083332 -16.227716 4.040904 7.000000
6.497944 -7.538575 0.804260 107.000000
25.706095 27.316828 2.669022 8.000000
91.512833 38.618900 10.247012 34.000000
36.058025 -17.021458 4.254230 9.000000
6.529898 -7.525042 0.796372 63.000000
91.655609 39.075523 10.314118 33.000000
37.014832 -17.291769 4.344469 8.000000
6.629336 -7.577965 0.797709 37.000000
91.720901 39.482285 10.372144 25.000000
38.283913 -17.730209 4.456711 14.000000
6.545377 -7.426886 0.777371 35.000000
25.764753 27.989531 2.793671 9.000000
91.721077 39.881462 10.441560 19.000000
38.435951 -17.637941 4.467216 10.000000
6.614638 -7.452865 0.775503 21.000000
25.763802 28.185312 2.817620 8.000000
91.722878 40.282623 10.476177 18.000000
38.683548 -17.580210 4.465979 10.000000
28.292576 31.180485 3.136209 10.000000
92.294662 40.899364 10.592543 25.000000
38.885895 -17.500492 4.459331 8.000000
28.189980 31.297157 3.167101 10.000000
92.210709 41.286476 10.636680 31.000000
39.146461 -17.470078 4.467769 23.000000
28.058334 31.359505 3.186136 10.000000
92.137878 41.621208 10.679825 23.000000
39.293537 -17.363293 4.462103 14.000000
27.887613 31.388498 3.208654 13.000000
92.314369 42.089542 10.753058 32.000000
39.750988 -17.399837 4.499472 10.000000
27.906458 31.642530 3.246366 10.000000
92.457573 42.564842 10.787839 23.000000
40.009037 -17.338333 4.490690 17.000000
92.602158 43.004135 10.893375 31.000000
40.165173 -17.231415 4.485679 24.000000
22.651901 26.067219 2.705769 5.000000
92.680466 43.473892 10.958284 21.000000
40.403477 -17.158581 4.489755 19.000000
92.882721 43.984818 11.019329 29.000000
40.681454 -17.092554 4.497756 15.000000
22.146797 25.839111 2.720173 8.000000
93.052353 44.443520 11.129704 29.000000
40.806797 -16.986231 4.505361 21.000000
7.374599 -7.735976 0.762364 9.000000
22.000002 25.877354 2.732778 22.000000
93.154144 44.932224 11.162431 28.000000
40.866356 -16.835552 4.481712 17.000000
7.185627 -7.482639 0.732710 24.000000
21.768446 25.777723 2.732400 9.000000
93.416847 45.441406 11.248590 31.000000
41.018444 -16.730967 4.476337 10.000000
7.230787 -7.474634 0.725396 9.000000
21.581352 25.756153 2.750828 9.000000
93.401451 45.878246 11.322994 27.000000
118.828049 4.253394 13.736650 10.000000
41.260853 -16.653715 4.480410 17.000000
7.253705 -7.446136 0.717791 31.000000
21.584465 25.934080 2.774028 8.000000
93.529419 46.326717 11.357069 33.000000
119.044762 4.698091 13.721459 10.000000
41.513943 -16.579184 4.469742 14.000000
7.627193 -7.772334 0.744287 15.000000
20.939007 25.346920 2.726104 7.000000
93.786697 46.883011 11.446134 25.000000
41.730328 -16.496935 4.470992 9.000000
7.652394 -7.741056 0.738247 1.000000
20.957184 25.568237 2.764473 8.000000
93.967690 47.384186 11.544104 21.000000
41.977310 -16.416931 4.475088 9.000000
16.164949 -16.232803 1.533644 16.000000
20.713717 25.460972 2.779263 26.000000
93.884674 47.815990 11.631837 1.000000
42.208897 -16.329390 4.493366 13.000000
16.027040 -15.976769 1.503092 10.000000
22.218899 27.496880 3.012083 13.000000
93.929756 48.231899 11.694483 18.000000
42.434387 -16.246563 4.495289 17.000000
22.195633 27.684868 3.054510 9.000000
93.817825 48.630543 11.759722 1.000000
42.675865 -16.159922 4.506523 16.000000
16.128019 -15.848960 1.474142 34.000000
94.000038 49.162926 11.805069 1.000000
42.849579 -16.046379 4.486373 8.000000
8.839278 -8.616859 0.796110 210.000000
20.949076 26.507101 2.955887 10.000000
93.754448 49.431114 11.869662 1.000000
47.510830 -17.603077 4.967946 9.000000
8.882441 -8.601673 0.790923 207.000000
20.809660 26.520472 2.961118 8.000000
93.847122 49.899403 11.922159 1.000000
47.459846 -17.386623 4.938105 9.000000
8.905615 -8.564079 0.781660 193.000000
93.913879 50.377285 11.991687 1.000000
47.290413 -17.146902 4.887944 9.000000
8.886704 -8.483421 0.770807 174.000000
20.904194 27.046867 3.056818 8.000000
47.376244 -16.972481 4.872312 9.000000
8.900015 -8.433998 0.760682 185.000000
20.775003 27.074511 3.075745 8.000000
92.972740 7.349768 10.790874 10.000000
50.278053 -17.804392 5.145204 6.000000
8.927616 -8.398263 0.751815 169.000000
19.805481 26.007824 2.969309 8.000000
93.297432 7.686839 10.848016 8.000000
49.902248 -17.465740 5.090847 9.000000
8.918500 -8.328284 0.742059 151.000000
20.636415 27.306040 3.132963 8.000000
93.082733 8.045471 10.826720 11.000000
45.861652 -15.872058 4.672959 7.000000
8.940575 -8.290666 0.732940 107.000000
21.362370 28.483053 3.284069 8.000000
30.326399 16.990553 3.991317 6.000000
92.939606 8.360044 10.862919 8.000000
46.100014 -15.765587 4.674164 10.000000
8.955791 -8.238157 0.722945 39.000000
19.566708 26.279457 3.045172 16.000000
30.405756 17.160742 4.021186 7.000000
92.857712 8.695887 10.824005 16.000000
46.197529 -15.610044 4.652452 26.000000
8.957546 -8.185100 0.714516 10.000000
19.406864 26.265200 3.058255 14.000000
30.343908 17.272781 4.052229 8.000000
92.972572 9.001375 10.890207 1.000000
38.447903 -12.842108 3.867466 7.000000
8.995157 -8.159171 0.708745 17.000000
21.136749 28.826887 3.378959 9.000000
30.339466 17.417793 4.072510 8.000000
38.467926 -12.707156 3.850951 8.000000
9.010528 -8.113115 0.699115 20.000000
20.908646 28.725533 3.383531 9.000000
30.302425 17.537449 4.094312 10.000000
45.982697 -14.985060 4.588664 22.000000
9.012925 -8.058485 0.692880 13.000000
19.437643 26.911337 3.190662 8.000000
30.198107 17.625143 4.101291 10.000000
45.944065 -14.786415 4.562371 17.000000
9.027737 -8.012383 0.685416 22.000000
19.402107 27.050671 3.222992 10.000000
67.647583 39.799778 9.247886 5.000000
45.915154 -14.618083 4.546432 30.000000
8.465560 -7.458145 0.632752 79.000000
19.282360 27.102852 3.243805 13.000000
66.893448 39.686848 9.178379 15.000000
46.036720 -14.453511 4.535695 26.000000
9.053205 -7.917112 0.663974 20.000000
18.949131 26.842211 3.227434 9.000000
66.611328 39.850269 9.200858 14.000000
46.218525 -14.324704 4.539884 18.000000
9.063571 -7.867740 0.656312 20.000000
19.471304 27.797577 3.363607 9.000000
66.206940 39.922821 9.218933 1.000000
46.249020 -14.175057 4.538483 9.000000
9.088737 -7.831357 0.651851 24.000000
19.378153 27.871126 3.394218 12.000000
29.927132 18.195980 4.195039 6.000000
9.104981 -7.790141 0.642672 24.000000
19.370567 28.079237 3.434948 11.000000
30.006100 18.387762 4.227541 8.000000
47.685097 -14.215545 4.642274 9.000000
9.107088 -7.734309 0.634541 21.000000
19.488129 28.472353 3.498610 14.000000
29.961956 18.512106 4.249560 6.000000
47.410439 -13.953650 4.602066 21.000000
9.120356 -7.688218 0.627235 26.000000
64.961937 40.466709 9.275308 4.000000
47.577549 -13.813551 4.595898 9.000000
9.118171 -7.629384 0.616835 29.000000
19.116781 28.363146 3.522582 8.000000
64.409782 40.435513 9.243505 6.000000
9.134795 -7.586546 0.609840 25.000000
63.908958 40.448418 9.233034 9.000000
9.145976 -7.542042 0.604676 23.000000
21.239866 31.980679 4.007997 7.000000
63.660141 40.602856 9.284389 1.000000
49.593025 -13.837291 4.740077 5.000000
9.150615 -7.489692 0.596957 27.000000
21.259779 32.291176 4.070292 9.000000
63.395466 40.761692 9.294222 7.000000
49.557747 -13.613262 4.722398 9.000000
9.170574 -7.450067 0.588204 22.000000
21.292234 32.587578 4.125739 9.000000
62.978020 40.804703 9.293738 14.000000
49.532120 -13.429733 4.697622 13.000000
9.178618 -7.400923 0.580787 29.000000
21.184788 32.659138 4.160238 9.000000
61.939110 40.454662 9.201577 1.000000
49.457653 -13.224385 4.695163 7.000000
9.182524 -7.348698 0.573153 28.000000
21.092960 32.780102 4.193297 9.000000
61.579182 40.542339 9.209326 16.000000
49.670284 -13.086365 4.701724 9.000000
9.213463 -7.318223 0.569290 30.000000
61.280308 40.652901 9.224901 6.000000
77.731300 -20.175068 7.322628 18.000000
9.248302 -7.290773 0.563607 24.000000
20.303755 32.055397 4.142203 9.000000
60.993568 40.785404 9.256213 11.000000
130.222473 22.095625 15.796794 19.000000
77.522697 -19.832350 7.282328 24.000000
9.242462 -7.234001 0.555549 28.000000
20.255589 32.240150 4.190082 10.000000
60.797436 40.962086 9.287089 19.000000
77.542976 -19.535011 7.263386 24.000000
9.257384 -7.191121 0.546656 26.000000
60.700306 41.220921 9.334306 17.000000
9.267933 -7.145003 0.543682 30.000000
20.619740 33.347137 4.370079 10.000000
60.511078 41.401783 9.366387 23.000000
9.274596 -7.096095 0.532332 23.000000
20.658619 33.685402 4.446356 10.000000
60.473274 41.702145 9.423225 14.000000
9.284851 -7.050140 0.525317 31.000000
20.459232 33.623081 4.456503 10.000000
60.330593 41.899628 9.461687 1.000000
84.785172 -20.057991 7.867714 1.000000
9.310774 -7.016172 0.521247 32.000000
20.235901 33.532204 4.476142 10.000000
60.551037 42.398293 9.600424 6.000000
9.291357 -6.950823 0.514740 22.000000
20.652046 34.507053 4.624582 8.000000
60.680229 42.789337 9.656529 8.000000
84.903603 -19.445520 7.850265 6.000000
9.312975 -6.913904 0.508445 21.000000
20.445719 34.434513 4.640681 9.000000
60.557076 43.051582 9.729110 14.000000
84.914665 -19.120775 7.860070 1.000000
9.354554 -6.891732 0.503238 15.000000
20.297152 34.471478 4.670988 10.000000
60.575096 43.367508 9.794736 23.000000
85.223763 -18.862444 7.866870 1.000000
16.989330 -12.420655 0.907823 22.000000
20.121035 34.460632 4.694795 10.000000
60.536602 43.692509 9.855336 21.000000
17.378946 -12.608016 0.911150 33.000000
19.784540 34.157597 4.679001 10.000000
60.377094 43.914845 9.921799 13.000000
17.554907 -12.637725 0.914158 31.000000
19.486563 33.929268 4.672537 10.000000
60.293507 44.160503 9.985176 18.000000
36.531258 -7.671710 3.370850 7.000000
17.544458 -12.532829 0.903677 34.000000
19.263180 33.813076 4.674805 11.000000
60.326176 44.508804 10.056213 11.000000
85.211868 -17.584497 7.841737 2.000000
17.568106 -12.457335 0.891353 32.000000
19.075670 33.771126 4.700516 18.000000
60.086830 44.673252 10.083453 15.000000
85.372009 -17.291561 7.865916 11.000000
17.581337 -12.370129 0.878443 33.000000
18.942074 33.823509 4.739310 9.000000
59.990875 44.927917 10.160207 14.000000
17.593914 -12.282816 0.873065 31.000000
18.957228 34.129467 4.800545 9.000000
59.925468 45.222706 10.243861 16.000000
85.729515 -16.726250 7.872256 8.000000
17.626741 -12.209888 0.864971 35.000000
18.970787 34.450741 4.877735 10.000000
59.767963 45.448612 10.312094 15.000000
85.607925 -16.377045 7.870862 8.000000
17.679735 -12.150946 0.861630 32.000000
18.806276 34.450218 4.909608 10.000000
59.646473 45.685707 10.372032 5.000000
85.464745 -16.040613 7.898407 10.000000
17.715805 -12.089435 0.861429 22.000000
18.786324 34.427956 4.940732 10.000000
59.612671 45.676323 10.461057 10.000000
17.688524 -12.066293 0.874973 18.000000
18.947535 34.422729 4.922051 10.000000
59.737770 45.425652 10.440370 7.000000
85.981995 -16.464161 8.121222 2.000000
17.697058 -12.167400 0.896369 33.000000
19.066416 34.354290 4.900858 10.000000
59.898872 45.219048 10.414172 10.000000
85.483414 -16.693724 8.110520 13.000000
17.606504 -12.209516 0.909242 25.000000
18.987848 33.919128 4.821117 9.000000
59.954678 44.917145 10.381856 12.000000
17.585545 -12.290675 0.929237 32.000000
19.125889 33.873833 4.797038 9.000000
60.123409 44.716740 10.343997 16.000000
85.423332 -17.348522 8.178330 6.000000
17.568567 -12.374901 0.942004 31.000000
19.267351 33.847862 4.782153 9.000000
60.212627 44.441261 10.317945 10.000000
85.434258 -17.645937 8.231015 1.000000
17.494041 -12.418588 0.955449 27.000000
19.420120 33.827251 4.761626 10.000000
60.254421 44.148037 10.272067 14.000000
36.519310 -7.682513 3.527650 7.000000
17.439596 -12.476319 0.973716 33.000000
19.624277 33.908192 4.754876 14.000000
60.512321 43.997055 10.248562 13.000000
85.248291 -18.260088 8.287185 12.000000
17.413593 -12.554460 0.986091 33.000000
19.865192 34.036102 4.755075 10.000000
60.482204 43.653248 10.204328 18.000000
85.411201 -18.607038 8.324679 1.000000
17.209314 -12.503299 0.991994 49.000000
20.090868 34.148399 4.759487 10.000000
60.573631 43.382458 10.153119 13.000000
85.010574 -18.846392 8.307644 1.000000
17.029966 -12.468616 0.995359 23.000000
20.329472 34.265972 4.750959 10.000000
60.681721 43.140194 10.132699 24.000000
9.345068 -6.892297 0.553692 23.000000
19.331520 32.326218 4.471342 9.000000
60.747761 42.852833 10.104217 17.000000
84.774292 -19.447050 8.390182 10.000000
9.315344 -6.923231 0.563583 29.000000
60.503540 42.365036 9.999552 15.000000
84.657402 -19.747128 8.401033 9.000000
9.305577 -6.969064 0.572670 27.000000
20.524597 33.770309 4.642329 10.000000
60.442959 41.993305 9.924794 15.000000
9.295677 -7.014975 0.579751 27.000000
20.626987 33.660183 4.602629 10.000000
60.427418 41.670521 9.885254 19.000000
84.797050 -20.420593 8.506009 1.000000
9.285479 -7.060842 0.588890 27.000000
20.712326 33.523026 4.573312 10.000000
60.551292 41.429298 9.841502 22.000000
79.697983 -19.501972 8.016093 25.000000
9.271099 -7.103687 0.597800 28.000000
20.786266 33.381542 4.536060 10.000000
60.625992 41.170452 9.791166 19.000000
79.317657 -19.717306 8.028261 25.000000
9.272419 -7.158787 0.605723 27.000000
20.400816 32.496483 4.391999 9.000000
60.784836 40.953598 9.753453 16.000000
130.125809 22.546803 16.847599 10.000000
79.061523 -19.946924 7.994967 25.000000
9.230103 -7.180266 0.610813 26.000000
20.422794 32.280716 4.345431 9.000000
60.997753 40.772797 9.750541 8.000000
129.996353 22.057259 16.797379 10.000000
79.273033 -20.309618 8.067090 18.000000
9.238752 -7.241505 0.621356 29.000000
20.422375 32.019699 4.293486 9.000000
61.053085 40.502167 9.697689 8.000000
49.637936 -12.911212 5.074183 6.000000
9.231484 -7.290587 0.628836 28.000000
21.285156 33.104179 4.428465 10.000000
61.572468 40.522514 9.730352 7.000000
49.548656 -13.091319 5.079190 9.000000
9.200448 -7.320989 0.636778 22.000000
21.291893 32.861927 4.371374 10.000000
61.839474 40.389587 9.737093 6.000000
9.192681 -7.369997 0.646356 28.000000
21.305159 32.619789 4.321986 9.000000
62.734375 40.677940 9.816881 1.000000
49.476624 -13.442501 5.117450 9.000000
9.191234 -7.419040 0.654184 28.000000
21.362968 32.472584 4.284376 9.000000
63.526527 40.877312 9.878219 6.000000
49.599689 -13.671346 5.135327 9.000000
9.149519 -7.438264 0.659252 26.000000
21.290911 32.093983 4.224769 9.000000
63.577080 40.581108 9.849496 3.000000
49.592197 -13.855720 5.166759 9.000000
9.150024 -7.499882 0.671809 25.000000
18.834969 28.167231 3.692986 8.000000
64.300919 40.712212 9.884418 4.000000
47.864941 -13.562461 5.000720 10.000000
9.149145 -7.555392 0.680007 25.000000
19.121067 28.380192 3.699420 8.000000
64.368752 40.409756 9.830458 9.000000
47.837135 -13.744188 5.020595 10.000000
9.113442 -7.582261 0.685642 22.000000
19.254333 28.353174 3.680868 8.000000
64.679230 40.290604 9.842813 13.000000
47.755253 -13.910344 5.043628 9.000000
9.115825 -7.640955 0.696256 23.000000
19.499615 28.489136 3.689488 9.000000
65.275146 40.361980 9.885840 4.000000
47.252316 -13.942966 5.004308 23.000000
9.121705 -7.702982 0.707220 18.000000
19.301201 27.989132 3.609434 9.000000
65.415672 40.086777 9.841838 12.000000
47.456558 -14.192521 5.048883 9.000000
9.086968 -7.728148 0.710793 21.000000
19.447659 27.981512 3.593563 30.000000
65.746117 40.005707 9.858943 12.000000
47.646156 -14.439683 5.083431 9.000000
9.099798 -7.796715 0.724522 21.000000
19.427711 27.755957 3.548936 10.000000
30.174740 18.209749 4.502303 4.000000
46.471558 -14.261012 4.980538 9.000000
9.097319 -7.852594 0.732927 29.000000
18.991106 26.911634 3.421221 8.000000
30.144304 18.033850 4.468705 8.000000
46.323154 -14.401452 4.978813 28.000000
9.064321 -7.882272 0.741009 27.000000
19.159069 26.959429 3.417852 13.000000
30.108513 17.877129 4.429748 7.000000
46.453415 -14.628881 5.015722 10.000000
9.052857 -7.925178 0.748540 33.000000
19.445190 27.160755 3.434283 9.000000
67.423485 39.699623 9.884405 5.000000
46.112686 -14.707567 5.010333 9.000000
8.534286 -7.531931 0.714139 22.000000
19.458698 26.970228 3.395726 12.000000
30.208345 17.645260 4.400932 15.000000
9.020042 -8.014001 0.763349 23.000000
30.299902 17.550112 4.392455 16.000000
9.006490 -8.058390 0.773049 20.000000
21.030062 28.712902 3.577515 15.000000
30.322927 17.422375 4.380750 11.000000
38.454834 -12.725166 4.221575 8.000000
9.006909 -8.124101 0.786507 18.000000
19.485060 26.399939 3.275069 20.000000
30.336834 17.282778 4.355011 11.000000
46.151833 -15.451145 5.089618 7.000000
8.973074 -8.153425 0.792532 45.000000
19.561924 26.301773 3.254430 8.000000
30.437178 17.199495 4.348378 14.000000
92.728638 8.634824 11.765030 16.000000
8.949258 -8.186128 0.801326 111.000000
21.452049 28.613029 3.525367 8.000000
30.408373 17.022535 4.315938 17.000000
8.949023 -8.252139 0.810666 159.000000
20.618843 27.312504 3.349415 8.000000
30.455978 16.916786 4.314709 10.000000
50.222717 -17.420631 5.624682 8.000000
8.930714 -8.293123 0.820172 182.000000
19.834406 26.074121 3.183353 9.000000
30.530516 16.819004 4.292219 9.000000
92.734169 7.640431 11.771244 19.000000
49.955864 -17.533457 5.611299 5.000000
8.914515 -8.339137 0.827906 170.000000
19.947836 26.034138 3.163842 8.000000
30.546011 16.681900 4.267274 10.000000
49.992500 -17.752384 5.641411 9.000000
8.915548 -8.395714 0.837025 171.000000
20.874836 27.038130 3.271062 8.000000
30.564783 16.553902 4.261798 13.000000
47.092697 -16.908007 5.338475 8.000000
8.884751 -8.434261 0.850195 191.000000
20.177505 25.937820 3.123722 8.000000
30.592228 16.424038 4.238750 19.000000
47.001495 -17.069994 5.344020 9.000000
8.889612 -8.501037 0.857951 198.000000
20.805037 26.543184 3.182033 8.000000
30.600943 16.284513 4.219379 13.000000
47.067528 -17.289503 5.376400 9.000000
8.896980 -8.564747 0.867896 205.000000
30.700323 16.186443 4.206041 10.000000
47.531757 -17.648579 5.454335 9.000000
8.870750 -8.605367 0.877225 198.000000
30.712345 16.049202 4.187328 10.000000
42.936737 -16.121754 4.949992 10.000000
8.820766 -8.619856 0.886218 1.000000
22.162117 27.672741 3.282667 5.000000
30.785948 15.964738 4.178222 8.000000
42.654484 -16.177366 4.931665 12.000000
16.090656 -15.828814 1.629806 12.000000
22.301275 27.628403 3.256293 9.000000
94.167877 48.395714 12.699924 20.000000
42.381596 -16.260283 4.923328 9.000000
16.054502 -15.920565 1.648472 9.000000
20.754728 25.520481 2.987853 21.000000
93.959267 47.853981 12.610717 1.000000
42.167179 -16.355570 4.921324 13.000000
16.039091 -16.005533 1.663972 9.000000
20.965889 25.587967 2.987267 23.000000
93.823860 47.373287 12.533060 1.000000
41.961895 -16.453136 4.920291 9.000000
7.600154 -7.645389 0.801113 1.000000
21.031044 25.485497 2.960603 8.000000
41.750916 -16.538786 4.910223 21.000000
16.144995 -16.360582 1.724248 25.000000
21.497820 25.857496 2.995203 9.000000
92.706726 45.979691 12.247984 1.000000
41.513088 -16.620861 4.905181 14.000000
7.549494 -7.701219 0.812777 20.000000
21.657749 25.856489 2.980528 8.000000
92.695740 45.551685 12.187837 1.000000
41.298264 -16.710741 4.902741 21.000000
7.470800 -7.679710 0.814996 49.000000
21.710667 25.736628 2.951741 24.000000
92.611404 45.089592 12.118483 1.000000
118.457413 3.805457 14.888316 10.000000
41.035679 -16.771420 4.894150 9.000000
7.171212 -7.420821 0.792241 20.000000
21.883598 25.749540 2.938629 18.000000
92.865959 44.813202 12.094760 1.000000
118.489815 3.392508 14.890809 10.000000
40.829956 -16.862251 4.892562 20.000000
7.405856 -7.720057 0.828797 7.000000
22.257784 25.996140 2.951991 18.000000
93.035278 44.475254 12.040768 12.000000
118.263397 2.952255 14.860895 10.000000
40.775471 -17.014956 4.909085 19.000000
7.414923 -7.786437 0.840552 20.000000
92.916199 44.020527 12.005395 12.000000
40.615700 -17.106642 4.920015 11.000000
7.142912 -7.556059 0.818328 10.000000
22.651758 26.076242 2.930836 8.000000
92.738998 43.521099 11.925564 28.000000
40.423904 -17.208910 4.928041 18.000000
7.372621 -7.859286 0.855666 24.000000
27.916401 31.899881 3.567054 9.000000
92.640434 43.061234 11.856373 32.000000
40.196228 -17.286287 4.907977 10.000000
7.404495 -7.951470 0.870376 23.000000
27.797525 31.530102 3.507523 10.000000
92.451073 42.581402 11.777035 29.000000
39.933537 -17.338739 4.898651 15.000000
7.344441 -7.945171 0.874336 24.000000
27.863049 31.393942 3.487881 10.000000
92.386154 42.141750 11.695134 35.000000
39.741497 -17.412216 4.905157 10.000000
6.842477 -7.451572 0.822848 3.000000
27.997726 31.324755 3.454118 10.000000
92.214134 41.694416 11.602100 32.000000
39.254875 -17.370781 4.852920 15.000000
28.338913 31.495651 3.468417 13.000000
92.009239 41.254116 11.559958 28.000000
39.086571 -17.459713 4.869889 16.000000
92.038841 40.824444 11.489587 29.000000
38.854755 -17.527269 4.848978 16.000000
25.716070 28.162689 3.061754 14.000000
91.886772 40.354603 11.416574 28.000000
38.638756 -17.600552 4.852561 9.000000
25.744808 27.997271 3.026800 18.000000
91.730042 39.904396 11.344357 28.000000
38.431114 -17.668213 4.849158 14.000000
7.207775 -8.138318 0.918618 32.000000
25.892359 27.951418 3.012006 6.000000
91.683098 39.484982 11.285286 30.000000
38.202362 -17.732948 4.843359 20.000000
7.236791 -8.231669 0.931935 17.000000
25.659378 27.497065 2.946741 5.000000
91.727501 39.106171 11.220159 26.000000
36.946720 -17.307110 4.706227 8.000000
7.173386 -8.220111 0.935315 255.000000
25.624468 27.258671 2.911530 9.000000
91.497498 38.668877 11.177109 26.000000
35.958035 -16.989609 4.601509 20.000000
6.457098 -7.449022 0.853804 58.000000
25.652655 27.098486 2.871210 9.000000
91.503288 38.239128 11.088868 35.000000
34.042660 -16.237516 4.377329 7.000000
6.580241 -7.644837 0.878931 253.000000
25.770042 27.023407 2.853576 9.000000
91.304802 37.763691 11.030508 26.000000
32.690052 -15.746716 4.223987 3.000000
6.429437 -7.530565 0.869785 184.000000
25.956636 27.020090 2.836944 9.000000
91.245453 37.403885 10.991661 35.000000
31.314079 -15.212054 4.065006 2.000000
91.131287 36.930489 10.925214 35.000000
29.904520 -14.675970 3.907323 7.000000
91.051682 36.510277 10.830228 30.000000
28.793262 -14.243025 3.779321 7.000000
6.697260 -8.012675 0.937525 24.000000
31.557407 32.146702 3.323894 12.000000
90.938499 36.133682 10.768638 30.000000
26.371733 -13.165707 3.478221 21.000000
6.661069 -8.028997 0.943914 39.000000
31.757288 32.114017 3.300827 13.000000
90.804115 35.658894 10.701222 29.000000
26.313351 -13.257262 3.487334 23.000000
6.466584 -7.852967 0.927587 72.000000
90.730774 35.283268 10.644342 25.000000
25.840899 -13.132527 3.441035 10.000000
6.435569 -7.871134 0.934232 30.000000
32.171303 32.059204 3.263563 13.000000
90.637077 34.846775 10.583274 30.000000
24.965899 -12.803200 3.335710 13.000000
6.553715 -8.075858 0.962996 33.000000
30.462858 30.145512 3.041968 31.000000
90.377571 34.403439 10.522515 29.000000
23.945444 -12.385640 3.214668 36.000000
6.505123 -8.076299 0.963850 23.000000
30.603113 30.063097 3.014852 11.000000
90.286598 33.990467 10.429205 35.000000
23.559994 -12.295931 3.178359 9.000000
6.249498 -7.814615 0.937057 21.000000
29.835390 29.094812 2.914076 10.000000
22.836842 -12.025223 3.100435 16.000000
22.131746 -11.752797 3.019133 14.000000
6.302118 -7.999941 0.968061 17.000000
30.151117 28.974554 2.872756 8.000000
21.540651 -11.540317 2.952903 10.000000
6.301334 -8.056642 0.979460 26.000000
30.203348 28.822632 2.831527 8.000000
78.492012 -5.915621 9.902099 1.000000
20.944262 -11.315073 2.889191 10.000000
6.295756 -8.110592 0.990441 16.000000
30.639433 29.024961 2.840217 10.000000
92.462730 32.924500 10.454535 22.000000
78.867615 -6.207016 9.952024 5.000000
20.370928 -11.101979 2.815696 10.000000
6.335524 -8.223876 1.006919 26.000000
30.743406 28.910398 2.810420 10.000000
93.321175 32.808659 10.536620 23.000000
19.823862 -10.898261 2.761610 10.000000
30.638706 28.601065 2.769205 1.000000
93.541687 32.556358 10.497472 28.000000
19.294769 -10.695265 2.696996 10.000000
6.407920 -8.442122 1.044807 36.000000
30.978962 28.706926 2.760816 10.000000
94.265694 32.421478 10.530129 32.000000
18.843100 -10.535370 2.646890 10.000000
6.544252 -8.687671 1.077972 25.000000
94.851723 32.234749 10.564645 25.000000
18.329472 -10.332341 2.590975 16.000000
31.441631 28.740358 2.724823 11.000000
95.334831 32.028156 10.570441 17.000000
18.165592 -10.327881 2.580548 27.000000
6.537345 -8.808966 1.102659 28.000000
31.395500 28.467701 2.681193 11.000000
95.839119 31.807137 10.559904 26.000000
18.163479 -10.410744 2.589104 22.000000
6.507622 -8.836407 1.108905 84.000000
31.522921 28.373404 2.660881 11.000000
96.243301 31.550148 10.591626 21.000000
18.128714 -10.479277 2.597028 39.000000
6.291327 -8.605458 1.084679 132.000000
30.217676 26.998747 2.513934 10.000000
79.210052 -8.535032 10.050353 1.000000
18.089005 -10.544965 2.607991 18.000000
6.203802 -8.551349 1.082438 44.000000
29.753624 26.388657 2.446361 16.000000
98.190109 31.412010 10.689919 1.000000
79.321312 -8.827226 10.040017 1.000000
18.076965 -10.622663 2.619018 10.000000
6.160352 -8.557268 1.087761 13.000000
29.770775 26.228004 2.419755 10.000000
98.507317 31.115952 10.675519 23.000000
79.181450 -9.077587 10.040198 3.000000
18.028980 -10.683557 2.621436 24.000000
6.115543 -8.557869 1.092539 7.000000
29.814888 26.082582 2.381229 10.000000
79.157402 -9.396915 10.055985 1.000000
17.998913 -10.750806 2.633655 14.000000
17.971352 -10.823908 2.642848 32.000000
30.162472 25.998821 2.344881 10.000000
17.957714 -10.901297 2.657598 28.000000
17.904551 -10.959031 2.659379 12.000000
32.138840 27.294313 2.431217 9.000000
17.890724 -11.036599 2.670487 14.000000
5.955816 -8.659289 1.126880 2.000000
32.373535 27.290031 2.411731 10.000000
94.255959 27.544514 9.939980 1.000000
80.335320 -11.004570 10.243484 6.000000
17.853174 -11.103978 2.682126 16.000000
6.032874 -8.840548 1.155141 9.000000
32.405708 27.114603 2.377115 10.000000
94.856743 27.343128 9.957890 1.000000
79.922089 -11.203870 10.195232 1.000000
17.844778 -11.189669 2.698217 13.000000
5.999978 -8.861930 1.162613 36.000000
31.004494 25.749569 2.239167 10.000000
95.076172 27.029348 9.918180 1.000000
17.834560 -11.270185 2.706347 16.000000
5.954806 -8.861686 1.165503 6.000000
30.918207 25.496067 2.198431 11.000000
95.134819 26.669542 9.879199 1.000000
17.800472 -11.331419 2.714349 13.000000
31.008471 25.380140 2.177176 10.000000
95.660553 26.457113 9.906648 1.000000
17.759808 -11.401594 2.726037 17.000000
6.182127 -9.347261 1.239210 1.000000
26.083813 21.190182 1.808292 6.000000
17.742477 -11.482515 2.733569 21.000000
6.020940 -9.172981 1.219127 1.000000
17.705238 -11.546303 2.745278 19.000000
13.974380 -21.461210 2.868084 14.000000
32.243984 25.804594 2.164353 10.000000
10.009937 -6.580303 1.557942 1.000000
13.928227 -21.554501 2.887643 18.000000
32.335316 25.683836 2.142470 10.000000
100.773308 26.305834 10.267073 1.000000
85.049141 -14.110297 10.875784 1.000000
9.972223 -6.600471 1.559537 8.000000
13.893621 -21.674809 2.915122 17.000000
100.898338 25.943834 10.214978 18.000000
86.017136 -14.595041 11.021804 2.000000
9.920227 -6.623476 1.561903 5.000000
13.851444 -21.775944 2.940453 10.000000
32.340195 25.303310 2.072962 23.000000
84.699043 -14.690969 10.844494 1.000000
9.948517 -6.687646 1.571785 1.000000
13.805175 -21.879877 2.961358 15.000000
32.591156 25.316755 2.054487 29.000000
111.008850 27.698195 11.157737 1.000000
17.568789 -11.912860 2.794566 16.000000
13.734054 -21.944973 2.986226 10.000000
59.448940 45.831455 3.684406 17.000000
111.134621 27.297279 11.099760 23.000000
85.563164 -15.472342 10.969028 1.000000
17.526695 -11.973839 2.798270 12.000000
13.706325 -22.071617 3.010716 14.000000
59.706314 45.681953 3.624195 19.000000
84.492081 -15.583427 10.853858 1.000000
17.518349 -12.053537 2.814633 10.000000
13.681529 -22.212938 3.041592 27.000000
60.090137 45.627430 3.584523 4.000000
84.450874 -15.896103 10.840739 1.000000
17.476416 -12.123820 2.811577 12.000000
13.629250 -22.302029 3.056505 15.000000
59.800240 45.062714 3.504962 12.000000
86.342064 20.203659 8.491510 7.000000
17.455219 -12.195056 2.826002 17.000000
13.600361 -22.439182 3.087020 10.000000
59.998947 44.868614 3.454529 1.000000
86.615257 19.948944 8.464515 24.000000
85.586906 -16.744951 10.955283 6.000000
17.424301 -12.264186 2.831695 12.000000
13.538747 -22.514454 3.109452 13.000000
37.126057 27.552141 2.091330 8.000000
87.165833 19.771595 8.464644 27.000000
85.328476 -17.019341 10.945541 2.000000
17.419256 -12.356357 2.842009 10.000000
13.508706 -22.652075 3.135603 10.000000
37.251797 27.434299 2.068462 1.000000
87.276527 19.428661 8.436262 17.000000
85.246117 -17.312532 10.927239 14.000000
17.382870 -12.421983 2.854516 10.000000
13.473937 -22.774109 3.164703 14.000000
60.272560 44.048260 3.285518 5.000000
86.476082 18.918087 8.305372 30.000000
85.208244 -17.630270 10.915169 11.000000
17.356928 -12.499800 2.861559 12.000000
13.424705 -22.881855 3.186906 13.000000
87.588654 18.825356 8.326679 23.000000
85.171059 -17.948357 10.887897 12.000000
17.325222 -12.569040 2.863548 10.000000
13.391352 -23.008646 3.212177 13.000000
87.609138 18.494083 8.259081 14.000000
17.291445 -12.641525 2.861799 12.000000
87.450470 18.460588 8.055373 15.000000
84.897682 -18.200487 10.630213 1.000000
17.289652 -12.635586 2.823103 10.000000
13.347103 -23.117861 3.197268 10.000000
87.831322 18.861475 8.064859 3.000000
85.348572 -17.985765 10.601495 4.000000
17.340050 -12.579797 2.801325 14.000000
13.378736 -22.977745 3.151704 11.000000
60.067272 43.866077 3.000392 8.000000
86.583435 18.925737 7.909814 32.000000
85.492249 -17.689032 10.564834 8.000000
17.336489 -12.480486 2.766800 16.000000
13.432116 -22.876188 3.111645 27.000000
60.122532 44.245220 3.037332 1.000000
86.070915 19.128750 7.853534 21.000000
85.223236 -17.323374 10.477853 10.000000
17.403860 -12.432393 2.755081 10.000000
13.472516 -22.762644 3.083860 14.000000
37.186523 27.576891 1.899908 10.000000
86.905106 19.648674 7.920494 21.000000
85.665100 -17.086483 10.447082 7.000000
17.400557 -12.338528 2.728801 19.000000
13.504319 -22.626762 3.039510 10.000000
59.903351 44.764534 3.081977 1.000000
86.855408 19.956371 7.922265 17.000000
85.690605 -16.780767 10.396613 1.000000
17.439491 -12.270327 2.708925 17.000000
13.578277 -22.562351 3.014240 29.000000
59.670174 44.932056 3.104551 6.000000
85.995804 -16.513489 10.379731 6.000000
17.483761 -12.210455 2.694038 16.000000
13.595500 -22.404690 2.972013 10.000000
87.547775 20.792244 7.967448 7.000000
17.485466 -12.116544 2.668581 16.000000
13.638947 -22.300396 2.936753 17.000000
59.666443 45.601940 3.186905 15.000000
87.416573 21.083706 7.962156 7.000000
85.694031 -15.820579 10.267693 1.000000
17.510466 -12.039110 2.654343 17.000000
13.682539 -22.188553 2.910181 19.000000
59.676113 45.956795 3.222737 1.000000
85.881073 -15.545307 10.237208 15.000000
17.566587 -11.987607 2.637645 13.000000
13.712629 -22.055994 2.876423 12.000000
59.427898 46.113625 3.231591 11.000000
86.006310 -15.242632 10.199047 4.000000
17.583164 -11.904697 2.618513 11.000000
13.772655 -21.981052 2.845408 12.000000
32.398746 25.330894 1.795592 5.000000
100.227524 25.324238 9.189809 1.000000
85.934380 -14.905235 10.183970 1.000000
9.931215 -6.673500 1.469135 6.000000
6.384233 -10.106668 1.302865 1.000000
100.420212 25.764847 9.197836 20.000000
86.089050 -14.622702 10.149848 1.000000
9.915376 -6.610234 1.452643 6.000000
13.871560 -21.765604 2.785645 25.000000
86.305496 -14.334215 10.153629 9.000000
9.942224 -6.580614 1.444924 5.000000
13.897956 -21.656605 2.759097 17.000000
33.158806 26.508251 1.905472 11.000000
95.979965 25.358999 8.824997 5.000000
17.695154 -11.614704 2.553929 9.000000
13.911283 -21.503569 2.718952 10.000000
33.045086 26.616446 1.926793 10.000000
95.957031 25.729561 8.848978 4.000000
17.738724 -11.550498 2.542846 25.000000
5.894653 -9.032039 1.135494 4.000000
26.093702 21.175545 1.537741 7.000000
95.549728 25.996103 8.820145 1.000000
17.742521 -11.464978 2.526418 16.000000
17.760824 -11.384745 2.508128 17.000000
32.379307 26.662979 1.956038 19.000000
17.799349 -11.317610 2.496494 27.000000
32.319279 26.812927 1.973026 10.000000
94.088989 26.695459 8.711461 1.000000
17.810818 -11.237789 2.477679 28.000000
6.064270 -9.007596 1.106820 19.000000
32.746864 27.351507 2.027046 14.000000
93.729065 26.947208 8.721107 1.000000
17.837183 -11.171898 2.457560 12.000000
6.044286 -8.913962 1.090175 1.000000
32.548122 27.408064 2.043868 18.000000
94.118813 27.433134 8.749421 6.000000
80.084343 -10.955951 9.180867 13.000000
17.891052 -11.105896 2.451369 19.000000
6.268840 -9.165701 1.112285 30.000000
32.526051 27.593859 2.086129 12.000000
94.220062 27.837721 8.802828 11.000000
17.905430 -11.028422 2.436890 17.000000
6.341975 -9.206961 1.111955 28.000000
31.688589 27.074181 2.053050 10.000000
94.182869 28.184559 8.825788 1.000000
17.934099 -10.955615 2.424160 17.000000
6.366478 -9.166987 1.100236 11.000000
30.100882 25.909130 1.977170 10.000000
93.809113 28.447742 8.834970 14.000000
17.965181 -10.888674 2.408349 22.000000
29.935024 25.939676 1.985776 7.000000
94.914803 29.163343 8.931639 14.000000
17.976242 -10.805486 2.393380 16.000000
30.062761 26.262400 2.029167 8.000000
98.841652 30.747902 9.347633 24.000000
18.012533 -10.737625 2.381834 20.000000
6.149452 -8.659519 1.022674 6.000000
31.201397 27.440058 2.119423 9.000000
98.490822 31.035137 9.325149 34.000000
18.043327 -10.679296 2.366633 11.000000
6.170182 -8.621597 1.009655 18.000000
98.370110 31.393908 9.342721 25.000000
18.070328 -10.597559 2.349765 27.000000
6.222631 -8.621546 1.005077 83.000000
18.103268 -10.532124 2.345552 19.000000
6.206206 -8.542109 0.990648 24.000000
96.374489 31.518660 9.210059 15.000000
18.121992 -10.454304 2.324513 19.000000
6.261653 -8.546071 0.982823 28.000000
31.737074 28.737076 2.281267 11.000000
95.925903 31.761610 9.196034 32.000000
18.178146 -10.398087 2.319412 17.000000
6.331749 -8.581903 0.981844 18.000000
31.520714 28.772278 2.303880 11.000000
95.485626 31.986109 9.199918 17.000000
18.193773 -10.322906 2.305708 16.000000
6.534440 -8.785810 1.000327 32.000000
94.897873 32.176548 9.189861 24.000000
18.410500 -10.365318 2.321341 9.000000
6.462467 -8.629134 0.977334 20.000000
94.269165 32.349094 9.157939 22.000000
18.870768 -10.533552 2.359222 10.000000
6.542456 -8.669533 0.976975 33.000000
94.085114 32.653469 9.151076 7.000000
77.596802 -6.679679 8.625968 1.000000
19.417307 -10.749902 2.411085 14.000000
6.387899 -8.400515 0.938151 74.000000
93.440331 32.813911 9.134863 26.000000
77.420692 -6.378744 8.576285 1.000000
19.906914 -10.925827 2.450853 21.000000
6.444838 -8.414268 0.934737 25.000000
92.448540 32.846737 9.084150 22.000000
20.447430 -11.129789 2.508490 16.000000
6.028674 -7.811458 0.863278 46.000000
30.139872 28.711843 2.385602 10.000000
92.394234 33.191124 9.090143 1.000000
78.878273 -5.930887 8.718851 1.000000
21.036537 -11.350699 2.558760 14.000000
6.112673 -7.860563 0.864170 26.000000
30.314451 29.090834 2.429915 1.000000
78.689346 -5.626718 8.667758 1.000000
21.644335 -11.576424 2.618845 10.000000
6.045403 -7.718307 0.840503 13.000000
30.199221 29.193623 2.458662 10.000000
89.872948 33.031193 8.916242 18.000000
22.256847 -11.804296 2.674613 10.000000
6.043059 -7.657334 0.831124 30.000000
32.629635 31.775290 2.697904 11.000000
89.902351 33.416523 8.965019 15.000000
22.956564 -12.067802 2.744209 13.000000
32.539227 31.909298 2.715587 18.000000
89.682632 33.691624 8.954782 6.000000
23.641779 -12.317622 2.801886 10.000000
30.463987 30.094055 2.589088 32.000000
90.309517 34.305367 9.063889 25.000000
24.361021 -12.584432 2.877064 22.000000
32.435810 32.277683 2.798770 9.000000
90.548996 34.776638 9.168973 30.000000
25.142744 -12.860656 2.953299 18.000000
6.418537 -7.889564 0.836182 8.000000
32.115696 32.194267 2.797245 13.000000
25.994278 -13.187651 3.027597 23.000000
6.675645 -8.150238 0.856897 36.000000
31.885845 32.187790 2.818746 13.000000
26.334818 -13.245033 3.046257 26.000000
6.336635 -7.681488 0.801187 185.000000
31.563332 32.096661 2.832166 12.000000
90.818634 35.975975 9.285527 14.000000
26.544388 -13.228761 3.054407 10.000000
6.467046 -7.781300 0.806956 24.000000
31.304665 32.067883 2.850895 12.000000
91.506973 36.655769 9.422310 10.000000
6.482583 -7.736605 0.797922 120.000000
91.278778 36.916092 9.411366 27.000000
30.223835 -14.793425 3.435849 6.000000
6.481507 -7.686140 0.787750 242.000000
26.007183 27.025463 2.425447 9.000000
91.637398 37.452511 9.497304 1.000000
31.630625 -15.338546 3.576960 5.000000
6.471258 -7.617160 0.776086 255.000000
25.864824 27.056540 2.440206 9.000000
91.392616 37.725315 9.520358 32.000000
32.913029 -15.811681 3.689648 6.000000
6.470308 -7.559713 0.765656 73.000000
25.668705 27.068087 2.464628 8.000000
91.457825 38.182636 9.577957 30.000000
34.150497 -16.259697 3.808649 8.000000
6.465763 -7.498593 0.754908 174.000000
25.592371 27.186472 2.486486 8.000000
91.663338 38.644722 9.613548 31.000000
36.053501 -16.988552 3.992165 10.000000
6.540724 -7.526895 0.751528 255.000000
25.586071 27.361010 2.520945 1.000000
91.661285 39.002346 9.697042 33.000000
37.130459 -17.353682 4.098134 8.000000
6.559340 -7.497953 0.745560 33.000000
31.301306 33.707806 3.111760 13.000000
91.718887 39.424507 9.718358 26.000000
38.370358 -17.762112 4.197958 18.000000
31.059122 33.717438 3.141305 10.000000
91.730423 39.828426 9.770222 16.000000
38.481102 -17.642401 4.195510 17.000000
30.846327 33.733715 3.164330 9.000000
92.015694 40.372913 9.852457 30.000000
38.747643 -17.601179 4.202845 25.000000
28.602371 31.477715 2.966644 11.000000
92.251259 40.841614 9.927684 25.000000
38.935753 -17.514761 4.201210 14.000000
28.381855 31.465979 2.985443 10.000000
92.565651 41.387230 10.013512 25.000000
39.123550 -17.443480 4.185016 22.000000
28.325876 31.614080 3.020349 11.000000
92.695053 41.795006 10.077508 28.000000
39.352448 -17.372908 4.187502 8.000000
6.737645 -7.376077 0.705586 17.000000
28.031685 31.539568 3.032064 10.000000
92.420303 42.079403 10.100133 22.000000
39.745701 -17.380995 4.222867 9.000000
6.827842 -7.422622 0.705238 22.000000
27.861729 31.547386 3.053923 10.000000
92.423370 42.490459 10.171212 18.000000
39.976250 -17.307552 4.209896 8.000000
6.906189 -7.452786 0.703376 36.000000
27.849695 31.767673 3.094997 7.000000
93.002357 43.150528 10.287590 15.000000
40.219170 -17.237959 4.213379 21.000000
6.988255 -7.486124 0.701752 21.000000
93.122902 43.621956 10.318541 32.000000
40.440800 -17.166100 4.214817 9.000000
7.286044 -7.748002 0.719474 10.000000
93.108765 44.032196 10.407420 33.000000
40.702118 -17.101234 4.219938 10.000000
7.145136 -7.545211 0.699311 10.000000
22.183681 25.863867 2.556076 4.000000
93.217728 44.482552 10.455106 28.000000
40.866993 -16.994553 4.214956 17.000000
7.186936 -7.533850 0.691568 20.000000
22.026165 25.871508 2.572691 8.000000
93.082153 44.837437 10.494697 23.000000
40.867588 -16.827717 4.193367 17.000000
7.197466 -7.489732 0.684473 27.000000
22.071615 26.118229 2.613175 9.000000
93.351257 45.369213 10.579434 20.000000
41.119343 -16.755383 4.197231 23.000000
7.294606 -7.535340 0.683726 8.000000
21.687532 25.846195 2.602061 8.000000
93.460701 45.846619 10.665884 24.000000
41.291439 -16.666059 4.193451 17.000000
7.195890 -7.381631 0.663020 1.000000
21.620199 25.958580 2.629106 8.000000
93.587334 46.335064 10.736483 22.000000
119.179398 4.661739 12.935866 10.000000
41.549500 -16.601793 4.197991 14.000000
16.107147 -16.402203 1.462429 32.000000
20.967648 25.363552 2.589935 6.000000
93.684189 46.790905 10.803206 28.000000
118.917290 5.108865 12.909450 10.000000
41.751446 -16.488436 4.195868 10.000000
16.185240 -16.361336 1.451966 28.000000
20.988514 25.570026 2.626760 6.000000
93.875603 47.317200 10.900840 28.000000
42.021629 -16.417355 4.201059 17.000000
7.703727 -7.730664 0.680900 10.000000
20.745535 25.463749 2.631090 8.000000
94.004013 47.814796 10.973238 21.000000
42.233971 -16.330616 4.192649 10.000000
7.713325 -7.686448 0.671741 4.000000
22.327421 27.611464 2.869482 20.000000
94.142838 48.299793 11.046393 26.000000
42.530701 -16.266417 4.216160 22.000000
16.040594 -15.867949 1.376064 13.000000
22.262241 27.738178 2.899146 9.000000
94.295654 48.815601 11.141450 33.000000
42.731113 -16.163788 4.214042 15.000000
7.766480 -7.626771 0.658135 6.000000
22.086378 27.716700 2.913733 4.000000
94.372688 49.294914 11.209400 29.000000
42.964893 -16.098112 4.215937 8.000000
7.951962 -7.751870 0.663660 205.000000
20.944794 26.482676 2.799649 8.000000
94.581963 49.825226 11.311445 20.000000
7.994998 -7.736877 0.657086 207.000000
20.861759 26.577316 2.825304 9.000000
94.781578 50.375042 11.395211 19.000000
92.618187 6.297834 10.101182 1.000000
47.235569 -17.304461 4.595865 28.000000
8.893074 -8.546046 0.724120 188.000000
20.767641 26.648411 2.848891 22.000000
94.658615 50.734234 11.439563 26.000000
92.714630 6.629603 10.114162 20.000000
47.258041 -17.116501 4.574226 9.000000
8.895805 -8.486176 0.713193 143.000000
20.064802 25.942102 2.794326 9.000000
94.925941 51.326263 11.551674 24.000000
92.281494 6.938681 10.085963 15.000000
47.409309 -16.965654 4.564806 13.000000
8.887251 -8.416016 0.703599 86.000000
20.814692 27.116432 2.936621 8.000000
50.167423 -17.745510 4.805350 9.000000
8.922117 -8.387221 0.693200 20.000000
19.776627 25.932354 2.824584 9.000000
92.207924 7.597074 10.099945 7.000000
50.048172 -17.516815 4.779007 9.000000
8.942201 -8.344575 0.683813 76.000000
20.638659 27.289198 2.987392 8.000000
45.602940 -15.764697 4.331749 9.000000
8.916609 -8.262653 0.673262 59.000000
93.426598 8.387411 10.289595 14.000000
45.707542 -15.613547 4.336220 9.000000
8.954440 -8.236915 0.667444 18.000000
19.633612 26.350109 2.921152 10.000000
92.855942 8.663025 10.197068 11.000000
45.662128 -15.429135 4.301595 9.000000
8.984826 -8.204274 0.661074 19.000000
19.411327 26.252064 2.925352 10.000000
38.428032 -12.820561 3.601190 8.000000
8.970783 -8.131357 0.649366 19.000000
19.440443 26.494020 2.967481 7.000000
38.509060 -12.690933 3.590136 8.000000
9.008201 -8.105329 0.643557 21.000000
20.957392 28.750298 3.237849 9.000000
67.885506 39.272739 8.672275 16.000000
46.237213 -15.068004 4.297383 9.000000
9.010709 -8.050845 0.633265 18.000000
19.539282 27.032169 3.064847 8.000000
67.750053 39.526512 8.714993 10.000000
46.049595 -14.811509 4.257611 29.000000
9.014253 -7.994792 0.625125 24.000000
19.439571 27.082937 3.086749 21.000000
67.372147 39.621899 8.725551 1.000000
45.913345 -14.599857 4.240514 10.000000
8.474131 -7.460443 0.577865 27.000000
19.340771 27.144814 3.109557 10.000000
66.925697 39.658623 8.712211 8.000000
46.106476 -14.475411 4.227925 33.000000
9.065662 -7.922424 0.609898 25.000000
18.961136 26.819452 3.087436 23.000000
66.650696 39.810661 8.735611 17.000000
46.249619 -14.334342 4.236205 26.000000
9.064780 -7.863242 0.599497 27.000000
19.441778 27.714230 3.206062 15.000000
46.544403 -14.247820 4.232943 9.000000
9.081059 -7.821979 0.592473 25.000000
19.334780 27.767363 3.234176 8.000000
50.229790 -15.174834 4.563019 13.000000
9.098435 -7.779041 0.587554 25.000000
19.377062 28.067684 3.290107 28.000000
65.522072 40.136246 8.754570 14.000000
50.163681 -14.935379 4.523920 9.000000
9.096810 -7.720118 0.575181 25.000000
19.375099 28.264864 3.335856 8.000000
65.184715 40.227474 8.781446 13.000000
50.377613 -14.826937 4.538989 9.000000
9.109920 -7.673983 0.570060 22.000000
9.126793 -7.631184 0.561038 28.000000
19.183643 28.419516 3.386157 8.000000
9.131867 -7.578731 0.553411 29.000000
18.978033 28.338345 3.398232 7.000000
9.131506 -7.524756 0.545585 25.000000
63.998619 40.803028 8.862409 6.000000
49.635902 -13.830582 4.408343 9.000000
9.147717 -7.481989 0.536644 26.000000
21.209360 32.165684 3.893232 9.000000
63.346302 40.714458 8.845975 8.000000
49.681458 -13.647244 4.407917 9.000000
9.148079 -7.426492 0.530943 25.000000
21.146833 32.315750 3.936487 9.000000
63.050026 40.804501 8.835749 10.000000
9.183302 -7.399411 0.523160 24.000000
21.183447 32.632114 3.999846 9.000000
9.187096 -7.347097 0.517725 28.000000
61.793041 40.636772 8.805820 7.000000
9.206418 -7.307387 0.509079 26.000000
20.247074 31.683828 3.925449 9.000000
77.278625 -20.028788 6.787872 21.000000
9.225500 -7.267577 0.502497 27.000000
20.182213 31.838913 3.968731 17.000000
61.300232 40.944035 8.842368 2.000000
130.206390 22.116274 14.907543 18.000000
77.522774 -19.789127 6.774770 17.000000
9.223405 -7.213893 0.496914 27.000000
20.190939 32.112362 4.020342 9.000000
60.765965 40.894642 8.824745 14.000000
77.887260 -19.592831 6.786487 24.000000
9.246109 -7.177188 0.488530 29.000000
20.361076 32.635208 4.110825 9.000000
130.484833 23.125422 15.004834 18.000000
77.437378 -19.178158 6.727096 1.000000
9.268530 -7.140306 0.484238 27.000000
20.391153 32.951736 4.175460 9.000000
130.685074 23.655266 15.061206 10.000000
9.271091 -7.088284 0.474850 29.000000
20.587238 33.516483 4.266129 10.000000
60.526535 41.692127 8.998161 16.000000
130.740463 24.136917 15.147721 10.000000
9.274718 -7.042446 0.471801 27.000000
20.590878 33.812847 4.328714 10.000000
60.891235 42.273247 9.114749 2.000000
130.794968 24.643045 15.187932 10.000000
9.283154 -6.990279 0.464705 29.000000
60.735321 42.479958 9.152948 7.000000
130.974365 25.174276 15.242955 10.000000
79.797386 -18.540073 6.864858 13.000000
9.308969 -6.956400 0.456592 26.000000
19.963190 33.329651 4.316638 9.000000
60.780807 42.844376 9.236119 3.000000
131.375458 25.727219 15.323664 21.000000
80.093597 -18.314459 6.899238 25.000000
9.313196 -6.909027 0.453586 21.000000
20.388000 34.310017 4.469626 10.000000
60.626934 43.053474 9.275055 14.000000
131.174973 26.187540 15.382333 10.000000
80.200241 -18.029785 6.888238 19.000000
9.314568 -6.857260 0.444339 18.000000
20.386246 34.595165 4.532494 10.000000
60.583157 43.357292 9.358638 10.000000
80.358231 -17.756142 6.896172 23.000000
17.255478 -12.605991 0.809734 32.000000
20.160561 34.486847 4.544363 9.000000
60.435509 43.571426 9.398895 8.000000
80.545662 -17.488180 6.892224 13.000000
17.374723 -12.595697 0.801906 34.000000
60.291473 43.804321 9.441047 15.000000
36.561317 -7.804701 3.119600 7.000000
17.530399 -12.610792 0.803178 29.000000
60.310314 44.140480 9.507830 12.000000
36.497551 -7.651332 3.105191 19.000000
17.572887 -12.543876 0.787919 38.000000
19.389071 33.978878 4.547284 7.000000
60.089542 44.318027 9.564789 12.000000
36.573620 -7.527445 3.115858 8.000000
17.545200 -12.436491 0.781066 32.000000
19.235542 33.998707 4.575025 10.000000
60.073929 44.647377 9.628122 8.000000
116.826195 25.942533 13.973531 24.000000
47.735577 -9.651195 4.055337 6.000000
17.560453 -12.346272 0.768374 34.000000
18.967941 33.814301 4.575127 9.000000
60.010197 44.926044 9.709492 15.000000
47.681965 -9.458581 4.056353 148.000000
17.605804 -12.281981 0.760881 34.000000
18.770208 33.737263 4.596808 9.000000
59.889805 45.179390 9.783312 15.000000
47.968536 -9.332828 4.103561 173.000000
17.605471 -12.195152 0.755372 33.000000
18.881462 34.231945 4.696274 10.000000
59.847275 45.475964 9.868954 14.000000
17.662621 -12.139183 0.748420 39.000000
18.834066 34.443928 4.764514 10.000000
59.715244 45.721848 9.954877 24.000000
18.827705 34.432297 4.790709 10.000000
59.709480 45.717434 10.047418 19.000000
19.004108 34.468529 4.784035 10.000000
59.822746 45.473797 10.026357 14.000000
