VERSION .7
FIELDS x y z intensity
SIZE 4 4 4 4
TYPE F F F F
COUNT 1 1 1 1
WIDTH 1232
HEIGHT 1
VIEWPOINT 0 0 0 1 0 0 0
POINTS 1232
DATA ascii
14.161016 -15.464871 0.680957 7.000000
26.375078 29.046881 1.260421 34.000000
46.789780 20.753920 2.351201 201.000000
20.540096 -9.140745 1.013046 9.000000
14.073664 -15.483034 0.694104 6.000000
26.478588 28.967281 1.233343 36.000000
46.788914 20.548637 2.320544 221.000000
58.190342 -0.253905 2.937641 3.000000
20.425972 -9.162661 1.016585 8.000000
7.712556 -8.541646 0.389816 27.000000
26.649479 28.940516 1.208862 37.000000
60.982220 26.515825 2.996375 22.000000
58.198490 -0.467257 2.948303 10.000000
7.627604 -8.510064 0.397081 32.000000
26.830715 28.923864 1.184698 29.000000
60.887272 26.222202 2.964007 15.000000
58.316231 -0.681964 2.954375 20.000000
7.630888 -8.573754 0.406831 25.000000
26.972990 28.854235 1.151581 31.000000
60.837353 25.936781 2.922232 11.000000
7.698472 -8.713790 0.420261 1.000000
27.130589 28.830582 1.133475 32.000000
60.669685 25.602926 2.909652 13.000000
27.301941 28.780302 1.094223 37.000000
35.519604 14.836324 1.673937 8.000000
17.571651 -8.276084 0.922765 17.000000
24.960709 26.138149 0.971660 46.000000
35.654804 14.746836 1.664378 22.000000
17.581364 -8.348246 0.931457 25.000000
25.104231 26.105387 0.948391 21.000000
35.912838 14.699647 1.653542 9.000000
124.325768 -3.689903 6.300845 17.000000
17.470722 -8.381818 0.937540 6.000000
8.699453 -10.139076 0.524904 1.000000
27.777248 28.673910 1.017506 34.000000
60.404930 24.466516 2.754298 10.000000
16.410152 -7.947116 0.891752 1.000000
8.600386 -10.098275 0.532750 6.000000
27.907084 28.597452 0.990502 34.000000
35.371498 14.176243 1.597137 29.000000
41.362110 -20.218351 2.267801 7.000000
8.671296 -10.253832 0.548746 1.000000
28.040340 28.524097 0.956588 21.000000
35.532726 14.097105 1.588819 36.000000
41.324200 -20.360910 2.293398 10.000000
9.356004 -11.146099 0.607379 7.000000
16.823635 16.994806 0.555202 9.000000
35.738132 14.027212 1.582269 36.000000
9.987351 -4.970807 0.559282 53.000000
9.385162 -11.264421 0.622202 6.000000
16.783718 16.830654 0.535243 10.000000
60.137989 23.350142 2.613628 21.000000
121.501022 -5.814858 6.140737 11.000000
9.977901 -5.011817 0.561731 33.000000
9.313735 -11.258371 0.627733 1.000000
16.834927 16.758705 0.518322 10.000000
59.977257 23.035122 2.569261 18.000000
121.244507 -6.248064 6.128889 18.000000
9.968992 -5.050997 0.568085 1.000000
16.910835 16.711317 0.493861 10.000000
59.922009 22.762236 2.540892 18.000000
24.128653 -12.336630 1.387029 24.000000
16.989998 16.666904 0.481919 9.000000
59.739204 22.454491 2.529802 9.000000
72.834732 -4.276155 3.721535 18.000000
14.604003 -7.534461 0.849716 9.000000
17.055529 16.614759 0.461343 8.000000
59.658836 22.175070 2.478437 9.000000
74.962936 -4.676864 3.804842 6.000000
14.497486 -7.543698 0.853626 1.000000
17.148882 16.583633 0.445560 7.000000
59.721756 21.949663 2.455449 14.000000
8.999219 -11.285240 0.678169 1.000000
29.348927 28.174124 0.731440 10.000000
59.577202 21.649010 2.424067 20.000000
77.308990 -5.365296 3.939285 20.000000
9.081403 -11.474326 0.700326 1.000000
29.499405 28.111546 0.704161 10.000000
59.624992 21.431061 2.400805 10.000000
8.366528 -10.651073 0.655311 6.000000
29.686209 28.082668 0.670487 10.000000
38.088856 13.532876 1.517513 118.000000
8.399578 -10.770330 0.672788 1.000000
29.846331 28.037374 0.643293 10.000000
59.357761 20.844963 2.339845 20.000000
30.018766 27.992952 0.608967 10.000000
59.336170 20.593393 2.292095 19.000000
119.336845 -10.062946 6.087755 28.000000
30.176428 27.933897 0.588549 10.000000
118.989433 -10.431153 6.071763 26.000000
8.702411 -11.411147 0.742049 10.000000
30.319395 27.860586 0.560589 10.000000
54.599216 18.512684 2.083789 16.000000
89.218391 -8.135211 4.569712 178.000000
8.630080 -11.402737 0.749451 15.000000
30.499222 27.820347 0.525994 21.000000
54.738800 18.336596 2.056272 17.000000
89.153183 -8.458857 4.567929 174.000000
8.644806 -11.509617 0.766985 6.000000
30.722403 27.828074 0.499221 18.000000
60.427845 19.996300 2.244967 16.000000
89.155579 -8.788914 4.585348 152.000000
8.693707 -11.659256 0.787658 1.000000
30.861620 27.748940 0.470849 24.000000
61.062675 19.958357 2.220915 10.000000
34.579712 -3.536871 1.766954 15.000000
31.079103 27.739161 0.428984 28.000000
61.469028 19.842108 2.210461 7.000000
34.427803 -3.642811 1.765889 20.000000
31.236916 27.674988 0.400621 29.000000
62.013420 19.767159 2.204671 11.000000
34.766655 -3.807568 1.783973 16.000000
8.247882 -4.792676 0.548359 24.000000
11.815554 -16.209110 1.124955 27.000000
31.368374 27.586905 0.371842 27.000000
40.738453 12.829153 1.439250 27.000000
35.253292 -3.991676 1.815891 22.000000
8.206717 -4.812927 0.553567 6.000000
11.688193 -16.158478 1.135919 30.000000
31.518383 27.514618 0.350514 29.000000
40.747852 12.683741 1.423175 26.000000
35.282745 -4.126042 1.824391 9.000000
11.590376 -16.141602 1.149280 31.000000
31.742947 27.516003 0.307947 37.000000
35.799225 -4.313165 1.839245 24.000000
11.487104 -16.122175 1.162225 5.000000
31.908169 27.455048 0.279183 34.000000
35.644112 -4.427074 1.838382 14.000000
17.166489 -10.310589 1.186191 8.000000
11.352352 -16.051317 1.171470 24.000000
32.099972 27.415966 0.250507 33.000000
35.201363 -4.503154 1.822596 35.000000
16.953011 -10.267108 1.184446 24.000000
11.095152 -15.810256 1.164434 59.000000
32.288052 27.372572 0.229026 39.000000
45.868141 13.525829 1.519540 10.000000
35.224545 -4.637399 1.818447 35.000000
17.023039 -10.390906 1.202346 119.000000
11.042281 -15.852313 1.178223 29.000000
32.439960 27.316980 0.199852 22.000000
46.023609 13.405944 1.506460 10.000000
35.381336 -4.783745 1.827392 26.000000
10.115774 -6.225700 0.722331 6.000000
11.020404 -15.945197 1.199095 9.000000
29.639675 24.773825 0.155070 68.000000
10.041678 -6.230958 0.724877 1.000000
10.941535 -15.955804 1.213818 26.000000
32.804996 27.215895 0.133910 12.000000
65.842567 18.668810 2.090972 5.000000
41.543602 -5.927326 2.162537 9.000000
17.073183 -10.676798 1.242198 8.000000
10.837682 -15.923243 1.218581 38.000000
32.997227 27.171810 0.104446 36.000000
23.122240 6.464547 0.729345 6.000000
16.902519 -10.656448 1.243117 8.000000
10.747933 -15.916482 1.231868 29.000000
33.162464 27.104521 0.067277 33.000000
23.141449 6.378563 0.712435 20.000000
16.662493 -10.586582 1.238551 8.000000
10.652817 -15.894978 1.244086 28.000000
33.437199 27.115583 0.037568 40.000000
23.171808 6.286956 0.708393 10.000000
41.610283 -6.397001 2.169485 10.000000
16.400688 -10.504817 1.225357 8.000000
10.605055 -15.949808 1.258756 7.000000
33.519157 26.998291 0.007512 39.000000
23.139662 6.195925 0.698409 22.000000
41.761868 -6.562138 2.171113 36.000000
16.189659 -10.453530 1.222575 8.000000
13.477833 -20.424688 1.629638 11.000000
33.699890 26.940811 -0.030121 35.000000
23.208197 6.114540 0.687154 12.000000
16.002142 -10.411777 1.217843 6.000000
13.421383 -20.502211 1.649072 16.000000
33.911972 26.907221 -0.060444 36.000000
23.301134 6.056464 0.680897 7.000000
15.717173 -10.308553 1.208905 6.000000
13.408893 -20.639997 1.673641 22.000000
34.143890 26.887899 -0.083437 34.000000
47.540195 12.179719 1.379378 5.000000
13.353973 -20.721310 1.697868 28.000000
34.269737 26.784086 -0.113870 39.000000
25.551495 6.437059 0.731415 7.000000
60.215366 -10.379355 3.159518 1.000000
13.338925 -20.865519 1.727382 29.000000
34.497955 26.759357 -0.152402 32.000000
25.563368 6.349973 0.717346 9.000000
60.042374 -10.554677 3.162929 30.000000
6.511098 -4.390138 0.518834 2.000000
13.308107 -20.978315 1.750293 67.000000
34.682850 26.699747 -0.190982 37.000000
25.487164 6.222527 0.696172 37.000000
71.801407 -12.880302 3.771954 9.000000
6.504683 -4.417260 0.520866 3.000000
13.315474 -21.160990 1.778993 37.000000
34.879688 26.648249 -0.222172 39.000000
25.541790 6.146188 0.692515 14.000000
71.669571 -13.127969 3.780282 8.000000
6.444668 -4.416061 0.523015 5.000000
13.219569 -21.172176 1.797936 6.000000
35.128391 26.634920 -0.253910 35.000000
48.531689 11.490294 1.288559 8.000000
6.432469 -4.442436 0.524714 6.000000
13.196186 -21.308172 1.827353 30.000000
35.301449 26.562931 -0.300721 36.000000
77.846100 -14.849937 4.083962 13.000000
6.420867 -4.467607 0.527779 1.000000
13.163165 -21.421543 1.841947 24.000000
35.494541 26.505033 -0.332465 31.000000
87.857628 -17.077793 4.596624 196.000000
6.422131 -4.500166 0.533231 3.000000
13.125239 -21.536388 1.869802 21.000000
35.687611 26.446020 -0.372128 30.000000
87.729996 -17.386919 4.608901 255.000000
6.413479 -4.512487 0.533231 3.000000
13.054463 -21.589483 1.888155 22.000000
22.737598 16.720764 -0.261084 10.000000
87.588150 -17.692688 4.589188 242.000000
13.025848 -21.721567 1.913301 22.000000
22.686684 16.561617 -0.274543 10.000000
27.786345 6.048244 0.675121 23.000000
87.473015 -18.003366 4.602210 157.000000
6.421233 -4.586988 0.543510 1.000000
12.987326 -21.829731 1.941118 10.000000
22.738890 16.472311 -0.303849 9.000000
27.774786 5.939188 0.644547 10.000000
113.964470 -23.870701 5.959598 243.000000
6.507219 -4.681079 0.552099 1.000000
12.997729 -22.030579 1.972691 25.000000
22.794827 16.385778 -0.328293 9.000000
113.808853 -24.273876 5.935710 248.000000
12.980659 -22.178177 1.995374 23.000000
22.895140 16.330944 -0.358328 7.000000
113.766060 -24.701035 5.877048 106.000000
6.513603 -4.756771 0.559758 1.000000
12.922484 -22.256630 2.016438 15.000000
22.873079 16.309187 -0.402073 7.000000
12.936664 -22.263149 1.981269 10.000000
22.776552 16.366613 -0.406325 9.000000
113.785110 -24.289574 5.527573 255.000000
13.418732 -9.727826 1.095024 1.000000
12.972844 -22.147089 1.938912 21.000000
22.716524 16.450064 -0.396534 21.000000
27.792704 5.937948 0.535767 9.000000
113.934853 -23.885256 5.469469 255.000000
13.592139 -9.770541 1.091294 2.000000
13.049884 -22.092543 1.911290 25.000000
22.644131 16.524494 -0.381645 15.000000
27.757242 6.031761 0.530527 15.000000
87.466774 -18.002081 4.117568 213.000000
13.763314 -9.824527 1.087597 5.000000
12.981394 -21.793785 1.858386 14.000000
22.676157 16.675581 -0.373385 10.000000
87.599724 -17.710939 4.073998 255.000000
13.887867 -9.840437 1.079805 5.000000
13.076446 -21.797316 1.835422 19.000000
35.625637 26.400093 -0.572719 12.000000
87.743134 -17.405439 4.062028 250.000000
6.392731 -4.486223 0.487247 1.000000
13.103028 -21.661259 1.801350 29.000000
35.448673 26.470781 -0.555984 33.000000
87.902260 -17.102390 4.003821 255.000000
6.431391 -4.466604 0.480292 1.000000
13.125010 -21.527557 1.767496 10.000000
35.267822 26.537628 -0.523852 39.000000
68.180511 -13.018462 3.067019 102.000000
6.430535 -4.424543 0.473313 5.000000
13.162623 -21.395538 1.734547 29.000000
35.019077 26.552036 -0.506256 36.000000
68.208656 -12.764903 3.054025 183.000000
6.449633 -4.406242 0.466799 5.000000
13.206633 -21.300117 1.704170 26.000000
34.870010 26.640854 -0.490190 35.000000
25.558157 6.140689 0.486350 7.000000
68.374474 -12.536729 3.022905 202.000000
6.461177 -4.381127 0.459688 2.000000
13.354777 -21.380413 1.687609 13.000000
34.678009 26.686384 -0.458245 37.000000
25.486916 6.222466 0.485425 30.000000
68.441177 -12.289850 2.987365 91.000000
6.492431 -4.370962 0.456766 1.000000
13.248742 -21.030504 1.642207 24.000000
34.497116 26.749063 -0.441908 35.000000
25.492970 6.323039 0.490564 10.000000
60.110607 -10.577489 2.611447 21.000000
6.551340 -4.382429 0.453092 1.000000
13.300609 -20.958406 1.613906 34.000000
34.304523 26.801632 -0.410302 38.000000
60.055882 -10.341071 2.596750 10.000000
15.354683 -10.228689 1.057343 6.000000
13.310863 -20.805614 1.584242 30.000000
34.115917 26.856222 -0.378906 34.000000
47.656487 12.191786 0.927343 10.000000
15.567601 -10.288348 1.056332 6.000000
13.369753 -20.721960 1.560162 24.000000
33.899841 26.887955 -0.362494 33.000000
47.340202 12.295914 0.939139 10.000000
15.750291 -10.330275 1.049785 6.000000
13.411271 -20.620016 1.526007 31.000000
33.746571 26.968479 -0.331749 36.000000
23.183434 6.112343 0.456170 15.000000
15.943336 -10.373515 1.050121 5.000000
13.421883 -20.495169 1.502712 31.000000
33.561913 27.023069 -0.315863 33.000000
23.147312 6.189315 0.464249 28.000000
42.308037 -6.655526 1.772575 10.000000
16.179167 -10.442755 1.046271 7.000000
13.499547 -20.434313 1.472180 33.000000
33.385147 27.083031 -0.285118 44.000000
23.129217 6.275400 0.468528 23.000000
42.100368 -6.464823 1.755423 30.000000
16.447214 -10.534618 1.050964 6.000000
10.614922 -15.946531 1.134746 30.000000
33.169670 27.110409 -0.254216 34.000000
23.188000 6.382685 0.470190 8.000000
16.679670 -10.589325 1.049260 7.000000
10.657158 -15.883467 1.116281 29.000000
33.001549 27.165705 -0.238732 32.000000
16.882067 -10.635320 1.042190 7.000000
10.752325 -15.905025 1.100255 27.000000
32.834412 27.211287 -0.208402 36.000000
65.642151 18.562483 1.369372 17.000000
9.864337 -6.168711 0.603622 4.000000
10.844771 -15.927680 1.090808 25.000000
29.644943 24.751877 -0.161771 27.000000
65.318993 18.729919 1.364053 1.000000
115.861519 -16.118340 4.657396 35.000000
9.976349 -6.188009 0.600867 1.000000
10.954458 -15.962697 1.079000 31.000000
29.556881 24.880390 -0.141604 31.000000
65.118027 18.955513 1.385118 10.000000
115.841125 -15.641747 4.654015 222.000000
11.047660 -15.966752 1.058340 10.000000
32.331287 27.399530 -0.133140 36.000000
45.757061 13.493073 0.974289 5.000000
115.937042 -15.242816 4.594380 217.000000
17.020063 -10.389091 0.992687 7.000000
11.178028 -16.029287 1.048090 12.000000
32.059597 27.371803 -0.103004 33.000000
45.673611 13.650622 0.981895 8.000000
35.388527 -4.533375 1.395545 1.000000
16.951668 -10.262251 0.976097 21.000000
11.277489 -16.052198 1.034988 33.000000
31.885077 27.444862 -0.080769 34.000000
45.709057 13.843914 1.000419 4.000000
17.197214 -10.320877 0.970402 7.000000
11.374377 -16.064610 1.017800 29.000000
31.699455 27.468613 -0.051245 30.000000
45.591106 13.990822 0.998953 8.000000
35.785137 -4.305131 1.390939 9.000000
11.517807 -16.141409 1.007984 4.000000
31.597532 27.593433 -0.029287 33.000000
40.861156 12.703366 0.911272 8.000000
8.219563 -4.851360 0.448436 49.000000
11.598010 -16.134396 0.989207 35.000000
31.411985 27.615538 -0.007300 35.000000
40.799709 12.848443 0.925884 22.000000
35.299175 -3.990632 1.358487 23.000000
8.191807 -4.800341 0.442775 66.000000
11.710304 -16.165268 0.976263 29.000000
31.205742 27.637650 0.029102 29.000000
61.990036 19.747787 1.419604 6.000000
35.217850 -3.863202 1.354856 10.000000
8.226819 -4.780437 0.438725 53.000000
11.826067 -16.217585 0.971127 23.000000
31.070639 27.721865 0.058140 32.000000
61.185455 19.750572 1.425358 1.000000
34.605972 -3.667770 1.324708 26.000000
8.287762 -4.775303 0.436020 3.000000
9.533375 -12.963885 0.764502 1.000000
30.883255 27.758646 0.086970 28.000000
60.872517 19.872688 1.419595 8.000000
34.669571 -3.546062 1.308363 10.000000
20.123802 -11.497041 1.044331 8.000000
9.558950 -12.908754 0.746258 1.000000
30.699745 27.797802 0.101196 38.000000
60.725342 20.094746 1.440372 5.000000
20.394924 -11.557696 1.035803 8.000000
8.703523 -11.659675 0.663251 24.000000
30.532267 27.840727 0.129810 29.000000
60.207550 20.145166 1.451840 7.000000
8.635448 -11.480456 0.642291 28.000000
30.356279 27.884712 0.165467 28.000000
54.568077 18.502127 1.337754 17.000000
8.627538 -11.386982 0.626251 7.000000
30.180386 27.927782 0.193773 35.000000
59.307117 20.340063 1.455665 8.000000
8.727203 -11.431240 0.615351 1.000000
30.059429 28.021063 0.222344 30.000000
59.186909 20.518444 1.476255 16.000000
14.854467 -19.323780 1.025810 1.000000
29.868963 28.048824 0.243149 26.000000
59.271183 20.791321 1.502186 17.000000
81.571404 -6.563079 3.000753 11.000000
14.931549 -19.284363 1.005158 49.000000
29.719881 28.104696 0.271290 38.000000
59.397141 21.080311 1.507326 14.000000
12.976212 -6.986970 0.602233 5.000000
15.021205 -19.253958 0.980821 105.000000
29.533268 28.133982 0.299004 34.000000
38.030914 13.669482 0.987671 4.000000
15.129788 -19.233438 0.961473 79.000000
29.332390 28.148413 0.326396 34.000000
59.542290 21.648088 1.570505 20.000000
77.403152 -5.371831 2.804392 12.000000
8.343339 -10.530449 0.516124 33.000000
17.308712 16.732353 0.205890 4.000000
59.633263 21.893515 1.585805 20.000000
17.032244 16.586287 0.219921 7.000000
59.758007 22.188194 1.624672 20.000000
74.961494 -4.663640 2.701524 8.000000
14.473623 -7.524861 0.629528 6.000000
9.045155 -11.249904 0.531838 1.000000
17.006229 16.677004 0.241124 8.000000
59.736580 22.429708 1.648601 19.000000
72.873047 -4.265642 2.625678 17.000000
14.612433 -7.529124 0.625741 6.000000
9.045728 -11.166558 0.516904 1.000000
16.866615 16.661798 0.256562 9.000000
59.901630 22.742533 1.655446 20.000000
24.109482 -12.310908 1.021027 16.000000
16.815935 16.733957 0.273286 10.000000
59.929321 23.004711 1.680953 19.000000
9.972272 -5.048285 0.415712 57.000000
16.779102 16.820150 0.286129 8.000000
59.992561 23.269581 1.707472 20.000000
9.964169 -4.998387 0.406815 61.000000
9.306368 -11.245469 0.486779 6.000000
16.744734 16.903299 0.307314 9.000000
60.036327 23.540068 1.744951 14.000000
9.964712 -4.953031 0.400259 16.000000
9.428540 -11.300433 0.477936 6.000000
16.770149 17.053516 0.325626 9.000000
35.550327 14.089727 1.048120 40.000000
27.892836 28.552925 0.571304 32.000000
35.484188 14.214219 1.061052 8.000000
8.660045 -10.236901 0.414355 5.000000
27.704573 28.588902 0.604542 24.000000
60.319389 24.419615 1.806341 18.000000
16.586067 -8.021589 0.636941 7.000000
8.749992 -10.259419 0.402551 1.000000
25.032114 26.012217 0.573413 9.000000
60.412720 24.703190 1.868710 20.000000
8.672000 -10.096378 0.385714 1.000000
24.853445 26.016735 0.596627 28.000000
60.432030 24.970003 1.894969 21.000000
24.864195 26.219717 0.630730 9.000000
60.514748 25.264240 1.923363 13.000000
17.527346 -8.244007 0.642547 10.000000
8.526114 -9.780558 0.355629 1.000000
27.118052 28.787045 0.717940 10.000000
60.586899 25.555531 1.951594 21.000000
18.368488 -8.557562 0.665148 3.000000
8.509210 -9.696064 0.344568 1.000000
26.982986 28.844738 0.737714 13.000000
60.616650 25.830187 1.967099 16.000000
18.508945 -8.540576 0.658411 2.000000
7.689210 -8.700246 0.299992 32.000000
26.795124 28.875389 0.770130 14.000000
60.791748 26.155910 1.998854 17.000000
18.513060 -8.460312 0.650338 6.000000
7.644441 -8.579933 0.286865 33.000000
26.661648 28.943590 0.796821 10.000000
60.763252 26.408007 2.035809 19.000000
58.102711 -0.466488 2.029057 15.000000
7.655936 -8.529685 0.278114 18.000000
26.501019 28.961351 0.822304 23.000000
46.726597 20.511541 1.585863 148.000000
7.716328 -8.542827 0.271291 1.000000
26.348843 28.997644 0.854925 25.000000
46.735489 20.700560 1.606346 236.000000
20.489124 -9.113777 0.681218 10.000000
14.188042 -15.603393 0.482270 6.000000
26.201893 29.028751 0.880590 27.000000
46.809071 20.938709 1.638379 228.000000
35.269543 -15.518970 1.150359 9.000000
14.184638 -15.485241 0.461887 6.000000
26.061443 29.086782 0.913546 34.000000
46.871811 21.163433 1.661121 13.000000
56.069778 0.342515 1.958036 13.000000
21.654123 -9.433461 0.696891 9.000000
8.149352 -8.825186 0.253720 1.000000
25.897758 29.118126 0.938764 37.000000
62.562965 28.498400 2.256582 14.000000
53.999504 0.527800 1.885794 9.000000
8.115904 -8.733752 0.243496 8.000000
25.798716 29.211470 0.972895 27.000000
62.569904 28.805407 2.285055 11.000000
53.837318 0.723565 1.880210 8.000000
14.324135 -6.124541 0.448754 24.000000
8.093312 -8.645677 0.233595 10.000000
14.250824 16.255672 0.554757 7.000000
62.599495 29.097569 2.302076 21.000000
14.215321 -6.010635 0.436498 8.000000
8.059945 -8.547027 0.219419 12.000000
25.468016 29.266640 1.029470 18.000000
14.228173 -5.954692 0.430831 8.000000
8.039674 -8.463169 0.209869 9.000000
25.358692 29.347248 1.056282 43.000000
30.087067 14.247797 1.150882 4.000000
11.482411 -4.760868 0.342867 6.000000
7.619990 -7.965509 0.192413 26.000000
25.188526 29.367205 1.087460 37.000000
63.026394 30.129591 2.427282 21.000000
51.404224 1.435850 1.777803 16.000000
11.473026 -4.705431 0.335547 3.000000
7.673553 -7.962867 0.181443 9.000000
25.041214 29.412928 1.119484 30.000000
63.027287 30.414312 2.456051 24.000000
51.488518 1.627087 1.780913 19.000000
11.525721 -4.682453 0.332286 6.000000
24.908844 29.465204 1.145117 31.000000
62.924061 30.635756 2.492872 19.000000
49.334839 1.731431 1.715245 6.000000
14.232703 -5.721510 0.404363 20.000000
8.200295 -8.385570 0.174012 10.000000
24.758268 29.505753 1.176802 23.000000
62.487286 30.706924 2.516512 7.000000
49.328159 1.912241 1.715245 14.000000
14.251105 -5.662562 0.396201 20.000000
8.261171 -8.389038 0.166460 9.000000
24.732718 29.695667 1.201007 38.000000
62.082561 30.791046 2.528963 23.000000
49.385723 2.095779 1.717502 12.000000
14.295278 -5.619534 0.386124 10.000000
8.355321 -8.422673 0.159449 10.000000
24.596243 29.742317 1.239871 26.000000
62.075333 31.071461 2.569687 7.000000
14.347415 -5.582287 0.387003 8.000000
24.448467 29.785242 1.264847 46.000000
13.242275 6.686254 0.556922 6.000000
14.405346 -5.544122 0.377233 9.000000
8.173679 -8.116814 0.136719 66.000000
24.272003 29.792250 1.301645 34.000000
13.172901 6.711928 0.562787 6.000000
76.390007 4.070280 2.671382 2.000000
14.481627 -5.512626 0.378699 6.000000
8.100956 -7.991417 0.127113 1.000000
24.154711 29.860538 1.327781 35.000000
13.179140 6.776066 0.569291 3.000000
122.481689 6.976461 4.284088 15.000000
14.738500 -5.554522 0.379431 1.000000
15.703218 -15.377728 0.234006 8.000000
24.003700 29.897299 1.358995 32.000000
15.659210 -15.222600 0.217269 7.000000
15.743812 -15.193005 0.198574 8.000000
122.967323 8.318389 4.347002 36.000000
15.775209 -15.117314 0.179235 9.000000
23.550150 29.991472 1.444913 36.000000
123.583961 8.815248 4.369914 21.000000
15.812461 -15.042224 0.167602 16.000000
23.419367 30.029402 1.462959 36.000000
27.483627 14.755125 1.274692 7.000000
123.338158 9.230548 4.362335 10.000000
15.983932 -15.094131 0.145809 8.000000
23.287491 30.097910 1.508494 33.000000
28.200178 15.266868 1.327209 27.000000
123.525383 9.699965 4.435144 10.000000
15.875037 -14.881604 0.136721 8.000000
23.177940 30.162455 1.527817 32.000000
28.068888 15.329084 1.340440 10.000000
123.600090 10.161777 4.395789 10.000000
20.541344 -7.149233 0.470787 29.000000
15.922250 -14.816595 0.113882 8.000000
23.015703 30.190563 1.557937 26.000000
27.945261 15.407528 1.354217 8.000000
20.482475 -7.044685 0.461278 17.000000
13.249177 -12.243125 0.081863 6.000000
22.875433 30.213848 1.588344 23.000000
27.773823 15.426982 1.364917 8.000000
20.450298 -6.953885 0.452461 23.000000
13.352955 -12.248597 0.069576 7.000000
22.794411 30.348272 1.623979 20.000000
27.501905 15.420728 1.371125 8.000000
68.492386 6.402078 2.462339 11.000000
20.459240 -6.865425 0.444509 22.000000
13.431642 -12.221853 0.053882 1.000000
22.653791 30.370262 1.660878 14.000000
27.593287 15.592463 1.400420 8.000000
68.384949 6.620861 2.495273 19.000000
20.458321 -6.789718 0.436470 31.000000
9.777666 -8.837899 0.034505 3.000000
22.574322 30.496311 1.689776 18.000000
68.549133 6.890449 2.502168 21.000000
20.511711 -6.724079 0.429543 12.000000
16.594395 -14.889298 0.042803 7.000000
22.479828 30.613773 1.724701 9.000000
29.007275 16.679922 1.507753 8.000000
20.531605 -6.647360 0.421910 16.000000
16.783297 -14.948118 0.019613 5.000000
22.178148 30.436144 1.749622 28.000000
28.962078 16.795483 1.537871 22.000000
20.579708 -6.579698 0.418628 10.000000
10.790371 -9.543157 0.007542 6.000000
22.041239 30.459965 1.773087 25.000000
29.007900 16.944057 1.554874 10.000000
20.699167 -6.534367 0.412988 10.000000
10.877882 -9.549727 -0.002526 6.000000
21.887247 30.470549 1.802058 34.000000
29.052485 17.113220 1.578309 8.000000
20.817436 -6.491882 0.407279 9.000000
10.848725 -9.453947 -0.012558 1.000000
21.801500 30.609755 1.837973 19.000000
25.925920 15.412052 1.432907 7.000000
43.268719 -13.319462 0.829753 35.000000
9.828241 -8.501487 -0.020412 4.000000
21.782169 30.786842 1.877479 9.000000
28.794767 17.240139 1.612065 9.000000
84.467834 10.326455 3.150100 16.000000
43.303169 -13.156508 0.813680 34.000000
9.976920 -8.566369 -0.029836 6.000000
21.774395 31.016338 1.919749 5.000000
29.389071 17.742615 1.666983 17.000000
43.360813 -13.000619 0.805959 35.000000
9.985399 -8.510269 -0.038928 6.000000
27.123392 38.923885 2.444819 4.000000
29.237782 17.797823 1.680056 8.000000
10.119567 -8.560783 -0.048582 6.000000
26.948092 38.976097 2.483341 9.000000
29.515247 18.108231 1.717796 8.000000
43.455212 -12.682499 0.790158 35.000000
10.260386 -8.618645 -0.058468 6.000000
43.491928 -12.520414 0.782084 31.000000
10.372519 -8.648192 -0.068355 6.000000
20.913939 30.716232 2.019029 31.000000
24.630365 15.360889 1.470484 17.000000
43.583717 -12.382259 0.767132 29.000000
10.446497 -8.645165 -0.073366 6.000000
20.814194 30.811888 2.052834 33.000000
24.546347 15.427761 1.483893 26.000000
58.684780 8.467062 2.246696 24.000000
43.614620 -12.218458 0.751068 34.000000
10.570797 -8.682951 -0.083566 6.000000
20.677711 30.841396 2.082483 31.000000
24.412834 15.468958 1.499470 9.000000
58.805393 8.704601 2.283691 24.000000
43.678513 -12.063880 0.743491 33.000000
10.718760 -8.738893 -0.094137 6.000000
20.535872 30.873886 2.112042 29.000000
43.713036 -11.901149 0.727513 22.000000
10.793416 -8.734099 -0.104205 6.000000
20.402201 30.906336 2.141801 29.000000
35.803062 23.046976 2.268764 9.000000
58.082607 9.033188 2.278681 17.000000
43.756363 -11.740853 0.727513 21.000000
10.961734 -8.804014 -0.115334 10.000000
20.268614 30.950104 2.172066 37.000000
35.704784 23.169243 2.290252 9.000000
32.022667 5.094811 1.262662 17.000000
43.775059 -11.574042 0.719209 36.000000
10.966496 -8.741910 -0.124837 36.000000
20.124088 30.976542 2.201080 35.000000
35.706356 23.356686 2.318234 4.000000
32.026390 5.227305 1.269299 13.000000
43.590038 -11.354354 0.699753 184.000000
11.043938 -8.740770 -0.132746 32.000000
19.998352 31.019476 2.237945 32.000000
32.106785 5.349793 1.290250 8.000000
43.718643 -11.216907 0.693273 38.000000
11.178070 -8.780490 -0.141414 6.000000
19.851416 31.040792 2.260038 33.000000
58.027809 9.887608 2.323070 24.000000
11.529483 -8.988392 -0.155649 6.000000
19.760164 31.137037 2.307237 29.000000
57.789928 10.054779 2.345699 4.000000
7.184907 -5.559139 -0.101478 39.000000
19.594101 31.126953 2.339823 31.000000
57.796558 10.274322 2.357743 15.000000
7.209157 -5.535780 -0.106293 5.000000
19.481600 31.189188 2.371597 29.000000
21.517000 14.633920 1.500406 9.000000
29.930986 5.433986 1.227122 19.000000
11.901789 -9.070016 -0.182827 6.000000
19.324013 31.190748 2.398469 28.000000
21.448231 14.696909 1.521945 8.000000
29.870935 5.536251 1.241416 23.000000
12.022575 -9.092603 -0.194695 4.000000
19.190401 31.217966 2.427513 26.000000
25.710058 17.756056 1.845383 7.000000
29.841396 5.638591 1.246309 29.000000
19.084682 31.302572 2.473628 35.000000
25.770733 17.937820 1.876442 29.000000
29.952332 5.773332 1.267816 10.000000
18.976757 31.371408 2.505961 19.000000
25.604994 17.955463 1.885360 27.000000
12.571851 -9.292498 -0.226484 6.000000
19.111988 31.858049 2.571795 9.000000
23.198269 16.394915 1.737441 8.000000
12.581540 -9.228543 -0.234220 4.000000
19.211241 32.278370 2.633236 9.000000
69.256065 14.128073 2.974829 10.000000
12.732398 -9.267615 -0.244642 6.000000
19.626287 33.252430 2.747449 30.000000
12.928247 -9.337874 -0.258882 7.000000
19.560062 33.392712 2.787610 15.000000
27.934864 5.912264 1.226708 5.000000
12.986654 -9.307820 -0.267735 6.000000
19.677662 33.863964 2.855557 10.000000
27.874779 6.001283 1.229968 20.000000
6.323906 -4.469295 -0.136520 1.000000
19.808064 34.377819 2.941482 9.000000
22.983009 16.870350 1.848664 7.000000
27.829693 6.088210 1.243807 10.000000
6.419216 -4.524903 -0.141201 4.000000
20.003496 35.027233 3.025850 10.000000
25.522528 18.871893 2.080473 26.000000
27.794851 6.197607 1.253311 18.000000
6.378344 -4.461189 -0.144018 7.000000
20.101965 35.472298 3.101462 9.000000
27.797861 6.295115 1.269334 9.000000
6.374096 -4.423516 -0.144910 22.000000
20.288813 36.095169 3.200595 8.000000
20.919165 15.700845 1.760196 18.000000
48.477379 11.156242 2.241486 9.000000
6.390224 -4.400095 -0.147618 5.000000
20.499304 36.784641 3.299413 9.000000
20.919674 15.821425 1.792700 21.000000
48.527416 11.355200 2.271858 9.000000
6.491421 -4.438116 -0.150988 1.000000
20.602972 37.276073 3.381900 26.000000
48.449898 11.524524 2.305033 10.000000
6.413922 -4.347451 -0.154190 1.000000
48.497322 11.526861 2.376948 9.000000
6.511352 -4.426772 -0.147057 1.000000
20.502180 36.789803 3.351652 9.000000
23.871260 18.040596 2.097568 10.000000
48.362198 11.316539 2.368375 15.000000
6.474566 -4.436549 -0.139741 3.000000
20.393787 36.281925 3.282932 10.000000
20.939596 15.716180 1.826189 27.000000
48.412682 11.141354 2.377522 11.000000
6.415677 -4.434147 -0.132045 6.000000
20.150879 35.558613 3.180765 5.000000
20.907349 15.578181 1.800333 6.000000
27.950813 6.324623 1.366489 8.000000
6.358451 -4.429121 -0.124437 22.000000
20.023731 35.048462 3.113015 8.000000
25.535767 18.867899 2.181211 31.000000
27.783674 6.179845 1.357201 9.000000
6.391346 -4.486916 -0.119948 3.000000
19.834812 34.424244 3.029134 10.000000
25.736580 18.891571 2.176489 15.000000
27.858974 6.094616 1.354844 15.000000
6.383103 -4.516145 -0.113278 2.000000
19.715508 33.942734 2.965240 9.000000
27.793003 5.973526 1.355534 10.000000
19.566387 33.403511 2.890405 9.000000
27.785852 5.865528 1.344193 9.000000
12.961332 -9.293096 -0.211563 5.000000
19.644869 33.283913 2.865329 29.000000
22.050390 15.821482 1.816860 28.000000
27.785360 5.769246 1.348200 4.000000
12.777358 -9.232283 -0.198104 7.000000
19.327595 32.460972 2.761075 9.000000
69.049019 14.060733 3.335423 24.000000
12.647395 -9.215878 -0.183002 7.000000
19.151789 31.911766 2.693911 9.000000
23.151947 16.350063 1.872617 9.000000
12.516914 -9.191224 -0.170758 7.000000
19.026466 31.465988 2.629335 9.000000
25.592474 17.946684 2.048753 10.000000
12.410076 -9.176271 -0.158938 7.000000
19.067825 31.262644 2.586326 25.000000
25.709370 17.895107 2.031136 28.000000
30.041119 5.774133 1.442635 9.000000
12.321120 -9.187225 -0.147539 7.000000
19.208893 31.260271 2.565643 27.000000
25.730206 17.769972 2.016662 8.000000
29.903053 5.644835 1.435098 22.000000
12.223489 -9.184329 -0.136097 7.000000
19.340267 31.216986 2.535690 28.000000
21.548143 14.765373 1.670897 12.000000
29.922821 5.540465 1.429787 28.000000
12.033564 -9.104215 -0.121149 7.000000
19.474062 31.189236 2.506704 32.000000
21.459984 14.595143 1.646456 97.000000
29.938255 5.429908 1.424242 29.000000
11.908711 -9.078578 -0.112385 6.000000
19.597143 31.131786 2.482043 32.000000
29.938042 5.316606 1.428613 10.000000
7.241208 -5.560391 -0.062145 81.000000
19.746935 31.128201 2.454923 34.000000
7.181267 -5.556323 -0.055466 5.000000
19.859352 31.053204 2.422425 31.000000
58.129829 9.894550 2.749820 24.000000
11.613566 -9.060463 -0.077126 6.000000
19.998497 31.031591 2.393816 27.000000
31.970215 5.321303 1.505743 14.000000
11.206888 -8.809454 -0.064687 36.000000
20.128862 30.983891 2.382860 33.000000
32.092766 5.220889 1.516290 10.000000
43.837132 -11.451405 1.036098 37.000000
11.041302 -8.744954 -0.051624 36.000000
20.243940 30.924202 2.338349 33.000000
32.033024 5.090727 1.506903 21.000000
43.796715 -11.604307 1.044006 21.000000
10.953622 -8.734776 -0.044014 6.000000
20.391245 30.901468 2.309829 25.000000
32.021244 4.974320 1.499855 9.000000
43.748707 -11.763360 1.059704 21.000000
11.038489 -8.868831 -0.034599 6.000000
20.516676 30.856705 2.279362 28.000000
35.900387 22.932779 2.530899 9.000000
43.734051 -11.931472 1.068317 35.000000
16.170782 -13.090168 -0.036312 10.000000
20.669191 30.840326 2.264221 33.000000
43.650764 -12.080818 1.098995 22.000000
16.180832 -13.196764 -0.021865 8.000000
20.788990 30.786161 2.233021 34.000000
24.520857 15.417711 1.700553 24.000000
58.512318 8.431754 2.736172 24.000000
43.557880 -12.227163 1.105678 19.000000
20.914009 30.727865 2.201786 29.000000
24.650206 15.373262 1.685254 23.000000
59.664623 8.385317 2.778132 25.000000
43.550373 -12.381001 1.122338 31.000000
19.584637 -16.213339 0.013312 6.000000
21.174398 30.866611 2.184496 9.000000
43.466328 -12.545912 1.137262 30.000000
19.345629 -16.141066 0.026384 8.000000
26.950825 38.994598 2.724867 9.000000
43.429092 -12.691328 1.145285 35.000000
27.077528 38.872532 2.690073 5.000000
29.426310 17.912586 1.956185 11.000000
43.374470 -12.856339 1.176742 8.000000
43.360126 -13.008662 1.185423 28.000000
17.190283 -14.655963 0.070968 8.000000
21.782141 30.798203 2.082602 8.000000
28.750311 17.220339 1.867800 22.000000
84.687027 10.338250 3.904007 27.000000
43.311939 -13.183949 1.201358 31.000000
16.999863 -14.601552 0.086048 8.000000
21.884769 30.715321 2.049139 10.000000
25.942535 15.409675 1.665861 5.000000
84.908546 10.049589 3.897541 32.000000
43.258148 -13.341010 1.217027 36.000000
17.031776 -14.748185 0.102238 8.000000
21.907957 30.510616 2.007952 37.000000
28.920454 17.035450 1.835434 8.000000
85.024223 9.747419 3.901184 37.000000
20.845715 -6.504693 0.590892 9.000000
10.873302 -9.478703 0.078046 6.000000
22.035089 30.451469 1.983046 39.000000
28.846668 16.856632 1.815308 8.000000
88.611427 9.845414 4.079769 6.000000
20.702192 -6.543269 0.602669 10.000000
10.873921 -9.546250 0.088392 8.000000
22.154026 30.391895 1.951280 28.000000
29.146675 16.888941 1.812590 27.000000
88.460548 9.531792 4.055783 7.000000
20.615988 -6.599229 0.608421 10.000000
10.778887 -9.532999 0.097949 4.000000
22.558735 30.709995 1.950326 7.000000
29.083649 16.710333 1.787237 25.000000
88.329185 9.159097 4.048042 34.000000
20.571278 -6.672107 0.615408 10.000000
16.648092 -14.843337 0.171288 7.000000
29.159691 16.618908 1.776585 20.000000
88.402626 8.839338 4.034357 31.000000
20.522738 -6.739595 0.622237 18.000000
16.686476 -14.987698 0.187907 7.000000
20.459957 -6.802156 0.621086 15.000000
16.694355 -15.105692 0.204337 7.000000
22.919708 30.504005 1.852743 7.000000
27.701040 15.519680 1.647397 9.000000
20.456135 -6.876302 0.625428 27.000000
13.524479 -12.319280 0.175617 7.000000
23.045099 30.448984 1.820874 9.000000
27.747066 15.418456 1.630258 26.000000
20.454245 -6.959209 0.633694 11.000000
13.348662 -12.244659 0.186535 7.000000
23.013506 30.198612 1.783890 28.000000
27.843500 15.338751 1.615922 9.000000
20.503782 -7.060019 0.651179 20.000000
13.255857 -12.249299 0.198466 6.000000
23.163704 30.154819 1.753289 29.000000
27.462002 14.997650 1.574154 8.000000
20.551813 -7.164944 0.661177 39.000000
16.286732 -15.171689 0.264181 8.000000
23.332716 30.145487 1.737705 32.000000
27.308046 14.790052 1.556927 9.000000
16.139698 -15.145588 0.282012 8.000000
23.434937 30.049366 1.697117 30.000000
27.649252 14.844044 1.545814 9.000000
123.396294 9.234899 5.532500 10.000000
15.839528 -14.968227 0.289091 14.000000
23.605394 30.051029 1.668442 25.000000
27.545237 14.658398 1.526067 21.000000
123.407455 8.737717 5.531383 24.000000
15.795274 -15.036380 0.304515 10.000000
23.753471 30.012442 1.637658 23.000000
27.515551 14.513442 1.505138 10.000000
123.062943 8.303281 5.493106 24.000000
15.837326 -15.187450 0.321719 8.000000
23.885645 29.953182 1.619095 5.000000
15.677030 -15.144421 0.342420 8.000000
24.022219 29.909670 1.587730 33.000000
122.884865 7.408328 5.482651 10.000000
15.771723 -15.348045 0.361082 5.000000
24.115677 29.822927 1.560541 31.000000
13.225560 6.794096 0.698584 6.000000
122.632858 6.942127 5.448756 10.000000
14.710489 -5.546898 0.516043 9.000000
15.738412 -15.417574 0.376873 5.000000
24.307718 29.836088 1.532242 33.000000
13.182759 6.714054 0.687319 6.000000
14.540471 -5.543744 0.516226 8.000000
8.117972 -8.008204 0.203025 65.000000
24.453588 29.802088 1.507915 37.000000
13.229895 6.677105 0.680719 2.000000
14.417305 -5.557394 0.517973 8.000000
8.123924 -8.073040 0.211911 8.000000
24.596148 29.731634 1.475611 31.000000
14.353789 -5.596309 0.521843 15.000000
8.444553 -8.459304 0.227419 9.000000
24.721165 29.681795 1.436688 34.000000
14.288484 -5.625503 0.525510 16.000000
8.338900 -8.409054 0.233595 9.000000
24.831682 29.603739 1.410085 29.000000
62.354958 30.628389 3.093919 9.000000
14.276884 -5.681462 0.531216 16.000000
8.267290 -8.395251 0.240637 14.000000
24.893026 29.436071 1.373162 38.000000
63.123520 30.719238 3.101892 15.000000
49.406948 1.716695 2.184391 10.000000
14.225890 -5.727426 0.538209 5.000000
8.198442 -8.392459 0.249855 13.000000
25.013639 29.380537 1.354204 34.000000
63.015705 30.381613 3.078868 23.000000
51.494194 1.609274 2.285420 11.000000
11.549553 -4.694484 0.441899 8.000000
8.086862 -8.333344 0.257433 9.000000
25.152586 29.335661 1.322412 36.000000
63.095772 30.149227 3.040934 23.000000
51.464790 1.419563 2.283869 17.000000
11.486728 -4.715735 0.444462 3.000000
25.306265 29.296909 1.297779 39.000000
30.124710 14.259188 1.437692 5.000000
127.378273 3.046324 5.652170 10.000000
11.469223 -4.757745 0.448797 1.000000
7.594817 -7.939195 0.260839 9.000000
25.466694 29.265120 1.266606 27.000000
30.331230 14.221099 1.427478 3.000000
127.323662 2.578124 5.649290 10.000000
11.502253 -4.820935 0.455137 1.000000
7.999234 -8.423543 0.283902 8.000000
14.182826 16.183805 0.687541 6.000000
14.221927 -6.022208 0.571720 10.000000
8.057278 -8.547186 0.297329 12.000000
25.782585 29.203480 1.210636 9.000000
62.600273 28.806149 2.876137 17.000000
53.807468 0.704378 2.387127 6.000000
14.269547 -6.101201 0.579911 1.000000
8.070553 -8.630417 0.307349 8.000000
25.933184 29.157957 1.185413 35.000000
62.482742 28.501371 2.842365 21.000000
53.869450 0.526528 2.389786 18.000000
8.111300 -8.728798 0.318268 1.000000
26.060699 29.085953 1.145428 41.000000
62.347992 28.138100 2.783239 23.000000
56.084778 0.323029 2.468370 17.000000
21.693155 -9.463984 0.905084 9.000000
8.184195 -8.872232 0.328727 1.000000
26.182560 29.017509 1.125843 37.000000
46.833801 20.930155 2.078273 207.000000
56.224579 0.117757 2.494152 5.000000
35.305752 -15.556973 1.488887 9.000000
14.130427 -15.442285 0.591986 6.000000
26.363176 29.023592 1.102070 31.000000
46.785793 20.732611 2.055350 240.000000
20.510443 -9.123260 0.874136 10.000000
14.190359 -15.616890 0.615206 7.000000
26.544247 29.008593 1.070847 35.000000
46.780739 20.525572 2.007158 219.000000
58.018726 -0.253156 2.543322 1.000000
7.721813 -8.548900 0.339893 20.000000
26.662781 28.934683 1.044059 42.000000
60.873402 26.443245 2.607637 13.000000
57.986103 -0.465552 2.572371 6.000000
7.646814 -8.528502 0.349971 33.000000
26.827068 28.899696 1.011903 47.000000
35.428322 15.250517 1.488501 7.000000
58.104774 -0.679491 2.557405 8.000000
18.630354 -8.525709 0.822902 8.000000
7.618705 -8.560066 0.356124 26.000000
26.981085 28.852797 0.986121 32.000000
35.447685 15.105096 1.473509 8.000000
7.658110 -8.665056 0.367459 1.000000
27.162752 28.834496 0.947384 36.000000
35.510731 14.971115 1.453522 8.000000
8.716939 -9.936265 0.431556 1.000000
27.322058 28.801506 0.928629 22.000000
17.582260 -8.277332 0.807698 9.000000
8.594935 -9.869934 0.436451 1.000000
24.920620 26.077940 0.818559 33.000000
60.554813 25.033110 2.425601 21.000000
17.587645 -8.358752 0.816156 19.000000
8.460415 -9.787663 0.442742 1.000000
25.040882 26.012238 0.781543 9.000000
60.415459 24.692001 2.381809 15.000000
17.439655 -8.366913 0.814089 10.000000
8.581923 -10.005631 0.462625 1.000000
27.770826 28.637262 0.835603 26.000000
60.358459 24.423170 2.353428 16.000000
8.606813 -10.102250 0.475047 5.000000
27.898962 28.569172 0.808563 13.000000
35.505123 14.229796 1.369159 8.000000
8.682384 -10.266943 0.493041 3.000000
16.855671 17.134499 0.465701 7.000000
35.506386 14.079482 1.353858 28.000000
123.033043 -5.006043 5.440782 10.000000
16.777830 16.930798 0.445187 9.000000
35.641922 13.982271 1.343682 13.000000
122.864166 -5.450306 5.434160 10.000000
9.986695 -4.968306 0.488957 67.000000
9.353652 -11.222618 0.553580 6.000000
16.779945 16.809258 0.427018 10.000000
60.098385 23.298561 2.228343 16.000000
9.968188 -5.004760 0.494798 55.000000
9.313364 -11.261924 0.566523 1.000000
16.814541 16.732569 0.409918 10.000000
59.934101 23.018549 2.197122 14.000000
9.967367 -5.050174 0.501535 1.000000
16.875402 16.664661 0.384996 10.000000
59.921391 22.761999 2.148782 20.000000
24.113319 -12.328791 1.225064 32.000000
17.025810 16.690376 0.370380 7.000000
59.741608 22.419701 2.116792 19.000000
72.818253 -4.287940 3.210332 8.000000
14.512109 -7.483844 0.741458 10.000000
17.137209 16.676851 0.354773 7.000000
59.717941 22.185177 2.091074 15.000000
74.941597 -4.675532 3.304644 8.000000
14.289282 -7.435360 0.739912 6.000000
17.155287 16.572454 0.333068 7.000000
59.635353 21.906092 2.063156 19.000000
9.010254 -11.299079 0.618343 1.000000
29.364531 28.169413 0.539783 23.000000
59.627583 21.667316 2.038089 20.000000
77.201912 -5.384943 3.419497 11.000000
9.085147 -11.474939 0.639024 1.000000
29.511292 28.103222 0.512129 16.000000
59.651485 21.428825 1.991913 5.000000
8.360750 -10.639895 0.597910 6.000000
29.713537 28.108522 0.485459 30.000000
38.165588 13.552637 1.258627 6.000000
8.419669 -10.796091 0.616921 1.000000
29.924810 28.081617 0.458412 28.000000
59.320381 20.796953 1.931538 19.000000
81.571030 -6.577379 3.601649 17.000000
30.021650 27.985847 0.429814 31.000000
59.309383 20.572500 1.907015 19.000000
30.206175 27.941860 0.402187 31.000000
59.161625 20.267086 1.877898 8.000000
8.726450 -11.446813 0.683828 12.000000
30.361454 27.899237 0.374232 31.000000
54.628250 18.511900 1.711891 16.000000
20.035978 -11.174796 1.142100 8.000000
8.645877 -11.419464 0.693006 34.000000
30.552429 27.868881 0.332016 33.000000
54.743687 18.327606 1.693222 14.000000
20.179098 -11.337878 1.156332 6.000000
8.624743 -11.478732 0.702215 18.000000
30.654535 27.756865 0.303145 31.000000
60.500473 20.008619 1.846736 16.000000
20.384825 -11.561376 1.183073 8.000000
8.664870 -11.616350 0.721457 1.000000
30.867804 27.744757 0.268026 27.000000
60.992386 19.923601 1.825886 4.000000
34.738441 -3.565359 1.543000 13.000000
20.173086 -11.539212 1.177298 7.000000
9.575551 -12.935892 0.815305 1.000000
31.053671 27.687262 0.246888 32.000000
61.345650 19.790459 1.834278 12.000000
34.536121 -3.672558 1.540675 24.000000
11.670727 -6.729951 0.694256 61.000000
9.575033 -13.034829 0.830644 1.000000
31.189301 27.632803 0.210910 35.000000
61.795193 19.685717 1.800236 5.000000
34.707207 -3.807188 1.554968 34.000000
8.215938 -4.774114 0.491343 60.000000
11.829666 -16.222521 1.048710 19.000000
31.399353 27.614151 0.182452 39.000000
40.739365 12.821625 1.155681 9.000000
35.343048 -4.014335 1.571693 13.000000
8.196484 -4.806925 0.496318 46.000000
11.699447 -16.168091 1.056384 32.000000
31.613443 27.597603 0.153809 33.000000
40.819881 12.682722 1.141708 9.000000
35.438416 -4.144247 1.582776 25.000000
8.183728 -4.837916 0.501557 1.000000
11.595791 -16.143196 1.069501 22.000000
31.718231 27.484884 0.124527 35.000000
35.725220 -4.310574 1.602573 9.000000
17.262081 -10.290266 1.070799 6.000000
11.530315 -16.176847 1.082832 5.000000
31.936352 27.469597 0.080874 34.000000
45.768024 13.853053 1.252174 1.000000
35.530731 -4.419289 1.594565 14.000000
17.202694 -10.340508 1.072972 8.000000
11.386833 -16.094110 1.088432 27.000000
32.112896 27.417311 0.058957 31.000000
45.814117 13.683905 1.235353 8.000000
35.524719 -4.544520 1.601260 20.000000
16.951817 -10.262341 1.069735 16.000000
11.287061 -16.077751 1.101717 30.000000
32.255150 27.335007 0.029517 34.000000
45.744511 13.480695 1.215478 9.000000
35.656116 -4.694216 1.614237 9.000000
16.913607 -10.324110 1.080111 70.000000
11.164730 -16.028101 1.112604 23.000000
29.526991 24.846426 0.000000 29.000000
65.117928 18.930834 1.692864 17.000000
35.649128 -4.826287 1.602128 9.000000
17.117519 -10.534887 1.106147 10.000000
11.054222 -15.988160 1.124164 8.000000
29.640871 24.757254 -0.040443 33.000000
9.995431 -6.199845 0.649366 4.000000
10.969801 -15.991036 1.131720 33.000000
32.826160 27.214113 -0.066979 34.000000
65.594055 18.561247 1.666030 19.000000
9.946955 -6.220376 0.653855 1.000000
10.843128 -15.925266 1.141250 32.000000
32.975834 27.134882 -0.096894 28.000000
16.891405 -10.649441 1.126886 8.000000
10.756186 -15.922712 1.155063 30.000000
33.164036 27.086504 -0.141996 31.000000
23.167923 6.372809 0.562065 7.000000
10.669518 -15.913890 1.165139 24.000000
33.364017 27.046587 -0.164916 36.000000
23.099550 6.263023 0.555666 13.000000
41.889389 -6.447394 1.894937 40.000000
10.599495 -15.935413 1.180627 7.000000
33.595219 27.030561 -0.210723 33.000000
23.122723 6.178416 0.538957 27.000000
42.171387 -6.649116 1.908783 23.000000
13.482289 -20.423687 1.526810 19.000000
33.733009 26.938347 -0.241105 36.000000
23.169474 6.100014 0.535339 23.000000
16.032862 -10.431765 1.109604 6.000000
13.368334 -20.413401 1.543746 28.000000
33.921535 26.885878 -0.264411 29.000000
23.245255 6.028949 0.519802 6.000000
15.772820 -10.345051 1.104134 6.000000
13.406857 -20.636864 1.578481 34.000000
34.133575 26.850832 -0.310776 34.000000
47.459641 12.123778 1.051722 8.000000
15.578213 -10.295362 1.096290 6.000000
13.339698 -20.691227 1.592012 28.000000
34.277458 26.780487 -0.334053 39.000000
60.216812 -10.368782 2.753298 1.000000
15.394345 -10.255111 1.098947 6.000000
13.340971 -20.860695 1.622978 32.000000
34.537857 26.771006 -0.373723 27.000000
25.493109 6.318351 0.540989 9.000000
60.039288 -10.575742 2.736356 28.000000
6.487247 -4.377351 0.469060 1.000000
13.291522 -20.944088 1.643240 32.000000
34.722713 26.711138 -0.405247 36.000000
25.496763 6.220155 0.535997 27.000000
6.447956 -4.390257 0.473010 1.000000
13.259079 -21.063213 1.670579 33.000000
34.919434 26.659315 -0.444742 29.000000
25.558632 6.136085 0.518464 9.000000
68.336929 -12.529845 3.094141 136.000000
6.429109 -4.408699 0.475429 3.000000
13.330207 -21.341078 1.706562 11.000000
35.060493 26.564171 -0.476008 33.000000
68.201637 -12.763590 3.102247 152.000000
6.403718 -4.427534 0.478896 6.000000
13.159160 -21.240103 1.716526 32.000000
35.267895 26.537683 -0.516148 35.000000
68.129341 -13.008690 3.113236 132.000000
6.405314 -4.460104 0.481486 5.000000
13.128715 -21.357122 1.739854 36.000000
35.486038 26.479393 -0.548697 35.000000
87.872841 -17.096666 4.002481 249.000000
6.402469 -4.489721 0.487869 1.000000
13.098886 -21.484707 1.768391 13.000000
35.666828 26.411335 -0.588728 27.000000
87.755692 -17.407930 4.000025 252.000000
6.436361 -4.528587 0.488236 1.000000
13.095448 -21.648727 1.795869 19.000000
22.762280 16.726675 -0.399362 14.000000
87.612282 -17.713478 4.012052 255.000000
14.002639 -9.921761 1.073693 1.000000
13.061544 -21.772476 1.819968 32.000000
22.704254 16.568371 -0.421910 11.000000
27.748251 6.029807 0.485736 17.000000
87.439819 -18.012442 3.991538 196.000000
13.797180 -9.848701 1.063538 1.000000
13.028172 -21.889692 1.843829 25.000000
22.756422 16.478956 -0.446279 9.000000
27.789967 5.932292 0.471200 17.000000
113.924904 -23.883171 5.143261 255.000000
13.631062 -9.805737 1.059381 1.000000
12.939593 -21.923298 1.860519 12.000000
22.824463 16.401039 -0.470966 7.000000
113.798401 -24.292412 5.121187 255.000000
13.497768 -9.785123 1.057645 4.000000
12.958072 -22.130722 1.892272 10.000000
13.876127 9.894092 -0.303425 1.000000
13.262334 -9.685250 1.036084 1.000000
12.920313 -22.243948 1.911628 9.000000
13.859487 9.882227 -0.326836 1.000000
13.465000 -9.833254 1.028546 1.000000
12.931494 -22.263197 1.881657 15.000000
13.798769 9.915421 -0.329226 1.000000
113.842720 -24.322647 4.777345 245.000000
36.936779 -26.777088 2.758374 5.000000
12.992805 -22.190041 1.843204 24.000000
13.830704 10.008082 -0.324817 1.000000
27.765354 5.911839 0.356750 10.000000
114.012566 -23.922321 4.699298 141.000000
13.763634 -9.901105 1.010278 1.000000
12.933012 -21.903416 1.796549 17.000000
22.622162 16.508465 -0.518169 6.000000
27.765888 6.028565 0.352105 12.000000
87.722115 -18.070595 3.565949 17.000000
13.881936 -9.909202 0.998366 1.000000
13.020549 -21.876886 1.771299 14.000000
22.681353 16.673302 -0.511025 7.000000
87.644470 -17.735910 3.513361 169.000000
13.925294 -9.866957 0.984057 1.000000
13.068378 -21.775251 1.735762 10.000000
35.736633 26.463026 -0.791718 12.000000
87.754784 -17.423670 3.468283 206.000000
6.406396 -4.497481 0.443105 1.000000
13.079300 -21.613514 1.700102 29.000000
35.487976 26.471199 -0.772793 32.000000
88.089561 -17.154789 3.431946 27.000000
6.406467 -4.445982 0.431883 2.000000
