VERSION .7
FIELDS x y z intensity
SIZE 4 4 4 4
TYPE F F F F
COUNT 1 1 1 1
WIDTH 1217
HEIGHT 1
VIEWPOINT 0 0 0 1 0 0 0
POINTS 1217
DATA ascii
91.433441 38.416298 -3.116732 24.000000
38.352051 -17.900156 -1.174815 19.000000
6.708564 -7.655040 -0.167007 78.000000
91.311417 38.759396 -3.082735 35.000000
22.596174 -0.362859 -0.702309 6.000000
38.571274 -17.830601 -1.194365 28.000000
6.845623 -7.753915 -0.182350 52.000000
91.551453 39.257919 -3.043468 17.000000
22.552132 -0.279477 -0.708784 7.000000
38.763035 -17.747103 -1.220621 17.000000
6.962224 -7.830724 -0.193874 44.000000
22.562998 -0.196904 -0.709098 8.000000
38.964855 -17.675243 -1.262396 27.000000
6.857351 -7.656073 -0.199144 87.000000
22.498562 -0.121730 -0.707056 7.000000
39.186951 -17.619535 -1.282703 20.000000
6.915387 -7.664160 -0.209024 7.000000
18.385958 20.184662 -0.610061 10.000000
91.836227 40.542900 -2.926819 19.000000
22.393785 -0.039085 -0.707667 8.000000
39.357159 -17.531168 -1.308843 14.000000
6.964875 -7.673109 -0.217068 10.000000
18.308552 20.262476 -0.581575 7.000000
92.035316 41.034519 -2.885131 26.000000
22.413904 0.035208 -0.704386 8.000000
39.620190 -17.466328 -1.338043 28.000000
6.919930 -7.565022 -0.223712 6.000000
92.140427 41.486893 -2.857872 31.000000
22.383640 0.117202 -0.703444 8.000000
39.843819 -17.390776 -1.358623 16.000000
92.192055 41.897800 -2.810927 21.000000
22.263054 0.205945 -0.699675 8.000000
22.042131 0.277004 -0.700459 12.000000
7.086236 -7.580469 -0.257228 12.000000
22.126160 0.359174 -0.695434 10.000000
7.237240 -7.685345 -0.267216 6.000000
22.299572 0.443748 -0.700931 7.000000
27.122828 -11.367980 -0.975591 10.000000
7.179198 -7.567941 -0.273156 9.000000
28.583868 33.021404 -0.701341 1.000000
22.412708 0.528185 -0.704543 7.000000
27.353245 -11.346868 -0.992725 22.000000
7.098375 -7.430622 -0.278067 32.000000
28.363773 32.987572 -0.660646 1.000000
22.345678 0.608559 -0.702502 8.000000
7.218964 -7.501614 -0.290804 34.000000
22.403362 0.692312 -0.700474 9.000000
31.092236 -12.631569 -1.154353 7.000000
85.443581 41.507607 -2.304966 1.000000
22.440630 0.775801 -0.701724 7.000000
31.768303 -12.770777 -1.195657 6.000000
85.308220 41.810532 -2.255466 175.000000
22.622412 0.865111 -0.707502 7.000000
32.399681 -12.899950 -1.229991 7.000000
50.517525 60.482613 -0.921560 19.000000
85.348114 42.218742 -2.210712 25.000000
32.966839 -12.985983 -1.268283 6.000000
7.354210 -7.423851 -0.330223 29.000000
50.222702 60.579540 -0.837811 7.000000
85.395081 42.632259 -2.165960 17.000000
33.674919 -13.122532 -1.306296 7.000000
7.395284 -7.410789 -0.339991 125.000000
80.443550 97.794312 -1.237691 58.000000
85.600182 43.127312 -2.158419 21.000000
33.796619 -13.013929 -1.327968 8.000000
7.282791 -7.247288 -0.340835 37.000000
80.204994 98.166016 -1.106263 10.000000
85.630341 43.536751 -2.079317 26.000000
30.925854 -11.790885 -1.225193 10.000000
7.341129 -7.251985 -0.349531 54.000000
33.434486 -12.600507 -1.335140 29.000000
7.367440 -7.224813 -0.358536 74.000000
33.533779 -12.504423 -1.356120 36.000000
7.608518 -7.406715 -0.376367 79.000000
86.161613 44.967636 -1.967962 15.000000
33.693970 -12.430361 -1.373390 36.000000
7.639934 -7.388113 -0.387851 31.000000
53.074162 66.890945 -0.432196 31.000000
86.476318 45.555218 -1.893801 1.000000
33.621506 -12.263816 -1.381106 31.000000
7.650023 -7.341236 -0.394341 31.000000
86.300232 45.867329 -1.876550 1.000000
33.703373 -12.153898 -1.395154 30.000000
95.045219 50.962803 -2.014264 1.000000
33.972885 -12.110564 -1.423378 20.000000
7.957227 -7.524776 -0.426465 1.000000
20.926226 26.968206 -0.083407 8.000000
95.531456 51.675217 -1.971681 14.000000
34.143803 -12.030630 -1.441338 13.000000
20.784569 26.989311 -0.053509 8.000000
95.000610 51.839039 -1.870160 29.000000
33.814461 -11.775442 -1.438123 31.000000
16.363373 -15.248417 -0.902254 8.000000
20.672035 27.037899 -0.017821 8.000000
95.210014 52.385437 -1.801983 26.000000
33.786057 -11.626877 -1.447585 34.000000
9.049471 -8.374036 -0.508138 43.000000
20.563728 27.101536 0.011875 8.000000
69.494713 38.537407 -1.276078 1.000000
33.988781 -11.557487 -1.466999 33.000000
9.039303 -8.303334 -0.516585 26.000000
20.571268 27.308908 0.047738 8.000000
69.161179 38.716263 -1.231285 1.000000
34.091743 -11.453271 -1.488483 20.000000
9.087863 -8.286732 -0.526222 26.000000
20.521898 27.452160 0.077767 1.000000
68.924095 38.884293 -1.187909 5.000000
36.987293 -12.275362 -1.626558 19.000000
9.169609 -8.299924 -0.542167 1.000000
78.241173 105.428688 0.412459 157.000000
68.490112 39.002724 -1.128081 17.000000
36.984024 -12.123975 -1.638059 37.000000
16.593485 -14.909406 -0.997382 7.000000
77.868706 105.734406 0.572968 34.000000
33.969208 19.485855 -0.539994 9.000000
37.175549 -12.036042 -1.644577 28.000000
16.602896 -14.808242 -1.006351 6.000000
51.153362 69.969048 0.468955 1.000000
67.384476 38.982891 -1.032677 11.000000
37.342014 -11.938906 -1.677413 27.000000
16.597868 -14.700053 -1.018441 8.000000
67.176979 39.192169 -0.977387 26.000000
16.658464 -14.645124 -1.038256 7.000000
66.835091 39.321758 -0.933894 22.000000
51.293781 -15.976234 -2.336256 171.000000
16.730293 -14.599908 -1.054927 6.000000
66.282448 39.324352 -0.887821 22.000000
28.273195 3.366370 -0.830135 1.000000
51.394188 -15.801097 -2.356980 22.000000
16.760340 -14.518261 -1.072855 7.000000
27.418242 38.638313 0.430001 1.000000
66.149590 39.558357 -0.834070 22.000000
28.087189 3.448673 -0.820096 1.000000
12.652425 -3.839277 -0.584226 1.000000
16.796463 -14.452339 -1.087600 7.000000
27.220484 38.673409 0.478755 29.000000
65.682648 39.637943 -0.763227 20.000000
28.074642 3.551630 -0.810218 5.000000
12.599419 -3.772817 -0.581136 1.000000
16.758656 -14.303129 -1.100699 7.000000
27.155548 38.883163 0.529787 10.000000
65.350487 39.733719 -0.707495 21.000000
28.200346 3.672596 -0.809261 1.000000
12.742305 -3.764769 -0.591733 1.000000
16.859907 -14.283072 -1.119369 8.000000
64.977234 39.818100 -0.665049 16.000000
28.008223 3.752022 -0.809073 4.000000
12.693480 -3.699812 -0.593456 1.000000
16.842751 -14.162827 -1.130179 7.000000
64.571770 39.895912 -0.609398 12.000000
28.296450 3.896259 -0.812817 4.000000
12.413928 -3.569018 -0.584289 1.000000
16.889013 -14.106388 -1.145542 7.000000
64.544205 40.206493 -0.570706 3.000000
28.430859 4.021001 -0.802049 1.000000
12.532547 -3.553442 -0.591533 1.000000
16.865545 -13.977201 -1.155635 8.000000
46.966694 69.317390 1.271490 26.000000
63.880161 40.118576 -0.513466 12.000000
28.519941 4.140277 -0.799951 1.000000
12.530856 -3.503394 -0.595395 1.000000
16.912178 -13.911604 -1.170660 7.000000
46.895626 69.761757 1.364527 11.000000
63.565426 40.262077 -0.459643 10.000000
12.543412 -3.457387 -0.599937 1.000000
16.981752 -13.864791 -1.187300 7.000000
46.195312 69.188438 1.423088 1.000000
29.804426 19.016779 -0.185117 6.000000
12.671678 -3.442819 -0.605464 1.000000
16.953310 -13.748128 -1.197401 8.000000
45.885998 69.326187 1.509208 10.000000
29.789270 19.161102 -0.166912 8.000000
12.346282 -3.305867 -0.593804 1.000000
17.015322 -13.685560 -1.217005 8.000000
29.689522 19.251144 -0.154396 14.000000
12.338898 -3.255470 -0.595103 1.000000
17.067745 -13.634759 -1.232813 7.000000
25.731205 39.456539 0.953817 14.000000
29.768761 19.450462 -0.117921 8.000000
12.244200 -3.182530 -0.594395 1.000000
17.121008 -13.574809 -1.244535 7.000000
25.829151 39.910515 1.004109 14.000000
29.739103 19.586992 -0.087012 17.000000
17.103273 -13.458948 -1.254896 7.000000
25.549793 39.797890 1.048462 13.000000
29.708792 19.723530 -0.074686 10.000000
17.159660 -13.401773 -1.270672 7.000000
21.408306 33.604309 0.925066 8.000000
29.789413 19.927219 -0.050042 6.000000
9.258844 -7.176721 -0.691871 12.000000
21.190920 33.533676 0.969469 8.000000
61.223331 41.280109 -0.038663 10.000000
12.434578 -3.038122 -0.612606 1.000000
9.265018 -7.127300 -0.696518 20.000000
21.077375 33.639328 1.011773 9.000000
61.129513 41.543575 0.038699 10.000000
12.343760 -2.968032 -0.605370 1.000000
9.340781 -7.126080 -0.708289 20.000000
19.695738 31.654842 0.982776 189.000000
61.145012 41.866863 0.064669 21.000000
12.276587 -2.904325 -0.605964 1.000000
9.414088 -7.127571 -0.722204 1.000000
19.560659 31.696148 1.020858 193.000000
29.090212 20.075487 0.055520 5.000000
12.330323 -2.871625 -0.610332 1.000000
17.363003 -13.055477 -1.340096 7.000000
19.436186 31.741838 1.065647 183.000000
29.069750 20.219055 0.086523 1.000000
12.287991 -2.809812 -0.612084 1.000000
17.358177 -12.952531 -1.347434 7.000000
22.297400 36.716076 1.267410 191.000000
61.834644 43.329258 0.237206 2.000000
38.274796 7.557789 -0.933038 10.000000
12.385806 -2.784448 -0.618665 1.000000
17.376701 -12.867472 -1.360357 7.000000
22.142612 36.749722 1.310866 251.000000
61.503735 43.434357 0.289111 8.000000
12.444693 -2.749808 -0.621099 1.000000
17.346579 -12.746991 -1.369420 8.000000
22.000536 36.803936 1.362489 243.000000
61.547474 43.804211 0.382366 1.000000
12.498716 -2.713737 -0.621057 4.000000
17.401060 -12.679769 -1.381011 7.000000
21.857113 36.870186 1.406898 120.000000
31.667871 6.615763 -0.739809 3.000000
12.591396 -2.685573 -0.629673 1.000000
17.438543 -12.609491 -1.395395 7.000000
31.667980 6.737014 -0.734729 12.000000
12.894323 -2.700811 -0.646628 1.000000
17.422728 -12.510282 -1.405840 7.000000
61.262798 44.591763 0.542230 7.000000
31.595787 6.837023 -0.716669 15.000000
13.054726 -2.689250 -0.656553 1.000000
17.484318 -12.457635 -1.414642 7.000000
60.997761 44.741779 0.607351 1.000000
31.658628 6.972187 -0.707348 32.000000
17.504604 -12.375613 -1.427636 8.000000
37.179302 27.481121 0.403471 10.000000
31.764921 7.117766 -0.693248 5.000000
9.789507 -6.867425 -0.802641 6.000000
46.962326 82.534431 3.647993 1.000000
60.161785 44.794231 0.733124 3.000000
31.885305 7.267577 -0.673611 4.000000
9.765248 -6.797139 -0.802776 8.000000
46.730976 82.798912 3.752166 1.000000
32.126637 7.446555 -0.662007 30.000000
13.470470 -2.569630 -0.675494 1.000000
9.728062 -6.718461 -0.805981 8.000000
46.590691 83.227737 3.880923 1.000000
32.196888 7.587292 -0.640921 4.000000
13.534355 -2.527996 -0.675797 1.000000
9.723583 -6.662863 -0.807715 9.000000
46.399361 83.603401 4.007500 1.000000
32.446293 7.771700 -0.628972 3.000000
13.911961 -2.545794 -0.694181 1.000000
9.747586 -6.626941 -0.813887 17.000000
46.414619 83.630890 4.092436 1.000000
13.848359 -2.536653 -0.676252 1.000000
9.753570 -6.628519 -0.801882 19.000000
46.512699 83.088417 3.990959 1.000000
32.252972 7.594567 -0.572590 5.000000
13.756084 -2.571896 -0.659961 1.000000
9.746360 -6.675971 -0.790869 10.000000
46.836060 82.985100 3.910526 1.000000
32.149097 7.445848 -0.570257 27.000000
13.521223 -2.579311 -0.641920 1.000000
9.758166 -6.739251 -0.783526 8.000000
60.035717 44.700367 0.927567 10.000000
32.005463 7.289088 -0.572962 5.000000
13.452956 -2.617427 -0.636733 1.000000
9.766718 -6.798162 -0.775779 6.000000
37.146702 27.447002 0.548181 9.000000
33.718388 7.555492 -0.615217 7.000000
17.576765 -12.330256 -1.384665 7.000000
60.954979 44.694042 0.883907 1.000000
31.671009 6.974914 -0.571729 32.000000
13.179579 -2.664651 -0.608239 1.000000
17.585600 -12.432876 -1.366296 7.000000
61.224285 44.563728 0.832678 12.000000
33.802078 7.314444 -0.621787 23.000000
12.983923 -2.674664 -0.597339 1.000000
17.585390 -12.529650 -1.354704 7.000000
33.862995 7.197802 -0.616374 19.000000
12.788370 -2.683279 -0.586506 2.000000
17.463280 -12.539399 -1.329995 7.000000
21.865217 36.883854 1.527298 52.000000
33.864677 7.068532 -0.615929 10.000000
12.602992 -2.692646 -0.569438 9.000000
17.401779 -12.592160 -1.313765 8.000000
21.990675 36.787441 1.489185 218.000000
89.516853 63.686886 1.016264 1.000000
33.831486 6.932301 -0.620888 8.000000
12.631897 -2.749580 -0.564435 2.000000
17.396757 -12.685933 -1.298028 7.000000
22.137667 36.741512 1.452967 255.000000
90.019806 63.549057 0.942389 1.000000
38.159695 7.673553 -0.706596 1.000000
12.529166 -2.775355 -0.558051 1.000000
17.395111 -12.782655 -1.286268 8.000000
22.285936 36.682762 1.408867 248.000000
61.541492 43.107826 0.616370 16.000000
38.197369 7.535574 -0.706778 10.000000
12.728644 -2.868524 -0.562837 1.000000
17.375528 -12.861908 -1.265415 7.000000
19.431730 31.734562 1.182412 88.000000
29.130018 20.253431 0.266272 8.000000
12.586674 -2.885045 -0.554766 1.000000
17.336977 -12.932001 -1.250900 7.000000
19.550970 31.668077 1.156589 128.000000
29.195932 20.140924 0.247625 8.000000
12.576389 -2.931246 -0.545750 1.000000
17.365974 -13.052966 -1.241218 7.000000
19.664661 31.604895 1.117764 130.000000
61.163506 41.863850 0.465707 1.000000
12.604543 -2.986557 -0.545179 1.000000
9.411473 -7.128175 -0.666271 10.000000
21.094860 33.641132 1.164631 7.000000
61.081936 41.495659 0.438203 5.000000
12.700545 -3.058511 -0.545244 2.000000
9.330182 -7.120570 -0.652085 24.000000
21.242701 33.602627 1.124321 7.000000
61.233849 41.271660 0.386650 15.000000
12.621408 -3.088439 -0.540057 3.000000
9.300511 -7.152020 -0.641569 27.000000
21.414196 33.613552 1.085412 9.000000
29.759359 19.899599 0.162455 9.000000
12.576247 -3.126286 -0.534080 2.000000
9.266694 -7.180216 -0.632839 8.000000
25.629768 39.907143 1.250243 8.000000
29.782839 19.765200 0.155966 8.000000
12.608568 -3.183434 -0.529124 1.000000
17.143234 -13.384129 -1.158857 7.000000
25.704432 39.717804 1.197539 14.000000
29.779993 19.606472 0.130682 7.000000
12.776052 -3.275579 -0.532042 1.000000
17.165335 -13.502936 -1.148399 7.000000
29.801489 19.464426 0.105612 8.000000
12.822248 -3.337556 -0.527523 2.000000
17.046223 -13.510670 -1.120896 8.000000
25.835434 39.300789 1.100160 12.000000
29.692238 19.238188 0.086450 17.000000
12.698832 -3.355176 -0.522948 1.000000
17.055426 -13.620041 -1.117137 7.000000
25.979723 39.206463 1.067325 14.000000
29.704580 19.099300 0.061636 21.000000
12.749533 -3.418612 -0.516318 1.000000
17.052980 -13.720752 -1.097284 7.000000
29.782846 18.995695 0.036992 31.000000
12.838332 -3.492910 -0.515778 1.000000
16.972134 -13.758484 -1.080029 7.000000
46.914257 69.710602 1.745440 14.000000
29.848047 18.883738 0.030823 25.000000
12.878509 -3.554588 -0.515577 3.000000
16.914722 -13.814986 -1.056665 8.000000
47.214413 69.630638 1.659419 1.000000
29.850273 18.739563 0.006151 27.000000
13.000284 -3.639530 -0.516263 1.000000
16.957094 -13.953514 -1.047134 8.000000
47.566010 69.598618 1.589206 1.000000
64.625183 40.241283 -0.026574 1.000000
12.996643 -3.689932 -0.511929 2.000000
16.894865 -14.006474 -1.031098 8.000000
47.738705 69.330551 1.498701 1.000000
64.691391 39.954212 -0.079624 15.000000
13.084033 -3.766619 -0.511152 2.000000
16.851767 -14.075277 -1.012407 8.000000
65.144325 39.904854 -0.120001 14.000000
13.065430 -3.813174 -0.508589 1.000000
16.856579 -14.179480 -1.000254 8.000000
27.245789 38.968895 0.755260 5.000000
65.442284 39.742615 -0.173720 17.000000
13.031695 -3.857690 -0.503098 5.000000
16.815422 -14.260515 -0.981921 8.000000
27.250505 38.673023 0.718421 24.000000
65.672157 39.584721 -0.200748 22.000000
12.955585 -3.886862 -0.491251 1.000000
16.722971 -14.277719 -0.963901 8.000000
66.190071 39.566887 -0.242264 20.000000
84.260239 -25.616280 -3.167745 15.000000
16.697544 -14.362154 -0.950058 9.000000
66.472168 39.405544 -0.283227 17.000000
84.309608 -25.937021 -3.141986 19.000000
16.660389 -14.436771 -0.935529 9.000000
66.876335 39.330311 -0.338527 24.000000
84.501587 -26.367859 -3.122122 5.000000
16.585394 -14.478559 -0.915045 20.000000
67.274704 39.233448 -0.380592 11.000000
84.349030 -26.627520 -3.057904 13.000000
16.581696 -14.582767 -0.894621 23.000000
51.178684 69.952423 0.907694 1.000000
37.283066 -11.934403 -1.353348 38.000000
16.547180 -14.660316 -0.884057 25.000000
51.301754 69.584007 0.814807 1.000000
33.905804 19.441622 -0.238755 8.000000
36.982830 -11.987911 -1.330449 36.000000
16.492634 -14.715068 -0.868427 24.000000
36.934250 -12.107658 -1.302972 27.000000
16.472700 -14.806077 -0.847000 32.000000
69.015274 38.919857 -0.566989 1.000000
34.025360 -11.292355 -1.189276 18.000000
9.170564 -8.303700 -0.462286 23.000000
20.607407 27.337023 0.239003 8.000000
69.226921 38.705479 -0.622932 1.000000
33.856995 -11.387560 -1.172497 39.000000
9.092313 -8.293696 -0.451267 23.000000
20.592258 27.129299 0.208059 8.000000
69.481720 38.514347 -0.665549 1.000000
33.653835 -11.443594 -1.154348 31.000000
9.073179 -8.337373 -0.441064 12.000000
20.682547 27.041864 0.178258 8.000000
95.110916 52.266056 -0.966032 21.000000
93.615997 8.009263 -2.033764 17.000000
33.591125 -11.566353 -1.141298 30.000000
20.807699 26.990103 0.142754 8.000000
95.305489 51.940666 -1.022997 13.000000
33.756527 -11.761873 -1.135884 32.000000
16.298643 -15.193413 -0.762529 24.000000
20.989134 27.039534 0.113511 8.000000
95.116447 51.386368 -1.075551 21.000000
33.519733 -11.804162 -1.116809 39.000000
7.813798 -7.337646 -0.359331 41.000000
94.840843 50.789299 -1.126659 29.000000
33.566765 -11.972395 -1.101291 40.000000
7.732623 -7.314935 -0.347529 11.000000
94.650276 50.241711 -1.197020 31.000000
33.381493 -12.031241 -1.084117 22.000000
7.814468 -7.446820 -0.344888 1.000000
94.581009 49.761475 -1.249795 30.000000
33.567596 -12.237515 -1.079128 18.000000
7.902703 -7.586367 -0.340438 8.000000
94.775703 49.442276 -1.306059 1.000000
33.640457 -12.417291 -1.070535 38.000000
7.818893 -7.558533 -0.328463 255.000000
33.730564 -12.577802 -1.062147 40.000000
33.750458 -12.739774 -1.045470 22.000000
30.818176 -11.762155 -0.944443 10.000000
7.302138 -7.215986 -0.284963 68.000000
93.696831 47.145084 -1.501246 12.000000
30.793295 -11.869796 -0.933353 8.000000
7.656131 -7.618807 -0.292268 82.000000
50.264248 60.608124 -0.384795 27.000000
33.618732 -13.100636 -1.001534 7.000000
7.593034 -7.611610 -0.281533 26.000000
50.495438 60.434719 -0.453594 16.000000
33.087181 -13.033386 -0.974692 6.000000
7.586358 -7.660870 -0.272910 9.000000
32.338463 -12.875576 -0.935782 7.000000
7.645995 -7.777905 -0.266555 8.000000
94.816689 45.999619 -1.729125 37.000000
31.609732 -12.719850 -0.904135 7.000000
7.241821 -7.418379 -0.246124 48.000000
93.191025 44.789730 -1.714524 31.000000
31.146626 -12.666334 -0.874593 6.000000
7.193857 -7.423485 -0.236391 30.000000
7.107854 -7.388734 -0.223712 10.000000
27.346771 -11.355372 -0.744353 19.000000
7.084284 -7.418462 -0.216660 5.000000
27.130053 -11.382143 -0.729309 10.000000
7.082552 -7.468672 -0.208416 20.000000
82.196892 93.496918 -1.499289 10.000000
40.520695 -17.166639 -1.067824 10.000000
7.171779 -7.618495 -0.200901 8.000000
82.388954 93.025581 -1.605021 10.000000
92.570656 42.440800 -1.973129 6.000000
40.260242 -17.230614 -1.047322 14.000000
7.137052 -7.637500 -0.195236 10.000000
82.548660 92.520454 -1.709739 10.000000
92.401459 41.954056 -2.019387 36.000000
40.041313 -17.310833 -1.020417 20.000000
7.049252 -7.596528 -0.184512 8.000000
92.116264 41.418018 -2.045093 29.000000
39.807098 -17.399569 -0.993460 18.000000
7.001146 -7.600367 -0.174960 255.000000
18.290968 20.221720 -0.418821 7.000000
92.069473 41.030483 -2.093822 29.000000
39.593990 -17.463030 -0.974469 20.000000
7.003706 -7.659291 -0.166665 247.000000
18.378124 20.168989 -0.447702 12.000000
92.456375 40.797398 -2.134498 1.000000
39.351795 -17.528778 -0.962560 27.000000
6.968960 -7.677610 -0.157456 127.000000
91.774879 40.133614 -2.168151 25.000000
39.175205 -17.606035 -0.944664 20.000000
91.594604 39.655506 -2.212729 30.000000
38.997055 -17.698057 -0.919492 11.000000
91.444466 39.155369 -2.240028 31.000000
93.788239 -1.195012 -2.128525 1.000000
38.746037 -17.755682 -0.892775 9.000000
6.885094 -7.746694 -0.132056 43.000000
91.464439 38.786678 -2.289233 35.000000
94.013130 -1.542527 -2.133744 1.000000
38.549412 -17.836828 -0.874912 17.000000
25.640360 27.161362 -0.775890 9.000000
91.333748 38.374416 -2.317364 10.000000
93.966873 -1.886289 -2.132836 1.000000
38.392204 -17.927057 -0.850564 18.000000
6.635246 -7.574044 -0.110723 22.000000
25.746248 27.074047 -0.802181 9.000000
37.725243 -17.784332 -0.815380 10.000000
6.623917 -7.617260 -0.100427 15.000000
25.812616 26.926554 -0.839954 9.000000
36.035393 -17.149416 -0.745370 8.000000
6.656160 -7.708515 -0.092435 30.000000
25.966078 26.916851 -0.868316 9.000000
79.031487 -2.456050 -1.794341 13.000000
34.332394 -16.493557 -0.691441 8.000000
6.598629 -7.698752 -0.083178 19.000000
26.008284 26.763590 -0.899026 5.000000
78.781532 -2.737345 -1.816413 1.000000
32.850388 -15.930041 -0.656391 10.000000
6.534756 -7.681028 -0.077446 29.000000
90.896294 36.208782 -2.510839 31.000000
31.490017 -15.413173 -0.605850 11.000000
6.466015 -7.654205 -0.064706 38.000000
30.747553 31.179895 -1.131396 9.000000
90.730591 35.794617 -2.571108 35.000000
30.448099 -15.028557 -0.580831 10.000000
6.575602 -7.836496 -0.060706 186.000000
56.449512 56.844994 -2.125785 10.000000
90.692284 35.395920 -2.617340 26.000000
29.195759 -14.550107 -0.540918 10.000000
6.510310 -7.819465 -0.049724 113.000000
30.187248 30.176710 -1.177355 1.000000
84.615257 -4.167984 -1.937311 11.000000
26.909344 -13.533990 -0.483697 7.000000
6.386078 -7.727677 -0.040243 223.000000
30.297056 30.065281 -1.207153 24.000000
90.526909 34.568867 -2.689811 7.000000
26.195530 -13.295500 -0.456354 21.000000
6.383100 -7.781983 -0.031620 22.000000
30.413250 29.960144 -1.252143 12.000000
90.207932 34.068745 -2.710291 27.000000
86.983299 -4.924040 -1.977087 31.000000
26.111235 -13.373297 -0.440372 33.000000
6.305393 -7.742205 -0.022655 16.000000
90.117409 33.621826 -2.770698 32.000000
25.347048 -13.099399 -0.423310 10.000000
56.923393 55.278313 -2.451997 1.000000
90.035263 33.251472 -2.798298 27.000000
24.585346 -12.820144 -0.396850 10.000000
6.092038 -7.593237 -0.006796 40.000000
57.080883 55.026184 -2.519334 9.000000
89.822861 32.781643 -2.837873 32.000000
23.708740 -12.468490 -0.369372 10.000000
6.165186 -7.739605 0.001727 37.000000
57.384949 54.914948 -2.607117 1.000000
23.018311 -12.213298 -0.341115 11.000000
22.347635 -11.962617 -0.318549 9.000000
78.387672 -6.169244 -1.770635 1.000000
21.714294 -11.726186 -0.297208 9.000000
56.752773 53.145473 -2.742321 1.000000
78.401031 -6.431962 -1.798882 10.000000
21.131191 -11.511532 -0.285602 9.000000
78.071098 -6.720507 -1.778233 34.000000
20.585093 -11.312073 -0.266480 9.000000
20.003315 -11.083455 -0.247472 9.000000
6.217344 -8.161430 0.057302 29.000000
19.569908 -10.937253 -0.226952 9.000000
6.203858 -8.202971 0.068212 30.000000
19.002783 -10.711888 -0.209406 9.000000
6.176722 -8.229612 0.075429 26.000000
18.524498 -10.531935 -0.193401 10.000000
6.192716 -8.311193 0.086833 25.000000
39.200584 35.135643 -2.123531 17.000000
18.171021 -10.415067 -0.182777 18.000000
6.185946 -8.365932 0.096247 24.000000
22.453619 19.977341 -1.243883 6.000000
18.145124 -10.480315 -0.171893 37.000000
6.192167 -8.435784 0.104108 28.000000
22.694525 20.043142 -1.274326 7.000000
18.098661 -10.550594 -0.160883 21.000000
6.064009 -8.324986 0.111455 34.000000
22.819580 20.005190 -1.303753 6.000000
18.064249 -10.619432 -0.149950 21.000000
6.043629 -8.358156 0.122418 30.000000
23.092033 20.101919 -1.336716 8.000000
18.076302 -10.707335 -0.143009 18.000000
6.114902 -8.522335 0.133648 27.000000
79.160614 -9.719701 -1.782043 7.000000
18.021706 -10.760151 -0.131883 16.000000
6.243053 -8.768614 0.144667 37.000000
17.999336 -10.836481 -0.121008 12.000000
5.990139 -8.475850 0.150362 16.000000
17.963840 -10.905015 -0.106366 19.000000
5.959049 -8.491465 0.159342 18.000000
17.932741 -10.984892 -0.099101 13.000000
5.969142 -8.575689 0.171436 64.000000
76.098404 -10.478313 -1.689554 19.000000
17.902836 -11.052701 -0.088132 21.000000
5.903510 -8.548045 0.177704 19.000000
17.883478 -11.131485 -0.073531 36.000000
5.947036 -8.675679 0.189107 36.000000
75.238228 -10.922431 -1.658913 27.000000
17.850714 -11.193391 -0.069871 22.000000
5.926329 -8.713783 0.200502 17.000000
17.809605 -11.258765 -0.055161 10.000000
5.870605 -8.696979 0.208803 10.000000
84.816879 -12.948508 -1.872153 37.000000
17.799999 -11.348587 -0.040528 18.000000
5.846930 -8.730743 0.218271 7.000000
85.119827 -13.314188 -1.864861 12.000000
17.762274 -11.407556 -0.036844 10.000000
86.368279 -13.833956 -1.908584 17.000000
17.737150 -11.483462 -0.022127 17.000000
5.656252 -8.574901 0.231319 75.000000
76.717178 -12.549172 -1.682649 11.000000
17.707514 -11.556598 -0.011071 11.000000
5.649307 -8.633046 0.241336 45.000000
38.967888 -6.527980 -0.848332 9.000000
17.671362 -11.630003 -0.003692 11.000000
11.435439 2.889364 -0.490225 1.000000
38.950806 -6.657983 -0.855337 7.000000
17.632696 -11.688539 0.011077 9.000000
5.727911 -8.891386 0.265876 27.000000
38.992989 -6.826406 -0.843033 9.000000
9.900490 -6.620296 0.010393 6.000000
39.172050 -6.991714 -0.840453 9.000000
9.895063 -6.664258 0.016657 1.000000
5.701329 -8.990792 0.288075 65.000000
39.155556 -7.136951 -0.861504 8.000000
9.884148 -6.707177 0.020848 1.000000
5.656465 -8.989271 0.296667 8.000000
39.104713 -7.275872 -0.854021 6.000000
9.913134 -6.780043 0.029346 1.000000
5.721282 -9.166641 0.309377 3.000000
85.719009 -16.274261 -1.858101 16.000000
17.545172 -12.094566 0.066947 10.000000
84.269592 -16.319304 -1.842955 39.000000
17.502827 -12.155723 0.074386 11.000000
5.608136 -9.130171 0.327373 8.000000
11.957298 2.696887 -0.550186 1.000000
84.219025 -16.629995 -1.843170 37.000000
17.478613 -12.234112 0.081920 12.000000
5.600092 -9.181629 0.337980 13.000000
12.186453 2.701672 -0.562453 1.000000
84.275436 -16.962297 -1.830742 26.000000
17.466291 -12.321113 0.096996 10.000000
5.545587 -9.167682 0.344204 10.000000
12.395979 2.700494 -0.580539 1.000000
17.423149 -12.381987 0.104458 14.000000
5.490252 -9.148159 0.352069 14.000000
17.402006 -12.463208 0.112076 16.000000
5.697650 -9.576889 0.377460 1.000000
36.470116 -7.758615 -0.807078 6.000000
17.392664 -12.553218 0.119799 24.000000
13.455381 -22.788101 0.919520 15.000000
13.040685 2.688730 -0.632577 33.000000
36.387554 -7.880565 -0.812386 1.000000
17.354591 -12.622738 0.127345 10.000000
13.408258 -22.890425 0.940297 9.000000
13.138016 2.658635 -0.648546 1.000000
17.330572 -12.698001 0.131244 10.000000
13.195504 2.670269 -0.677293 5.000000
17.280136 -12.665682 0.089745 10.000000
13.136603 2.708507 -0.677122 1.000000
36.564411 -7.925548 -0.927434 1.000000
17.318409 -12.596421 0.071015 10.000000
13.414198 -22.900564 0.889700 9.000000
36.504246 -7.772536 -0.964288 7.000000
17.325851 -12.509595 0.041027 14.000000
13.459099 -22.794399 0.850395 10.000000
12.656203 2.710944 -0.657944 1.000000
17.351280 -12.431459 0.029803 10.000000
5.446796 -9.151607 0.330964 17.000000
12.172818 2.654104 -0.635496 1.000000
17.400820 -12.370690 0.000000 17.000000
5.457388 -9.093400 0.314759 16.000000
11.959186 2.649098 -0.624798 1.000000
84.122345 -16.946762 -2.366979 22.000000
17.423462 -12.295455 -0.018610 10.000000
5.551348 -9.177207 0.307087 14.000000
12.037187 2.712697 -0.627229 1.000000
84.149155 -16.631458 -2.380985 37.000000
17.452013 -12.220031 -0.033466 11.000000
5.674577 -9.307405 0.300680 1.000000
84.345703 -16.349318 -2.429855 34.000000
17.484327 -12.147398 -0.055737 13.000000
5.632906 -9.163324 0.285419 30.000000
85.637085 -16.274195 -2.480549 17.000000
17.497772 -12.066399 -0.070484 13.000000
5.651875 -9.122650 0.271645 31.000000
9.895388 -6.770442 -0.050223 1.000000
5.756943 -9.216614 0.261785 8.000000
11.355119 2.736605 -0.587607 1.000000
39.042156 -7.130363 -1.164044 7.000000
9.899421 -6.720065 -0.058472 1.000000
5.751942 -9.137465 0.248792 9.000000
11.417666 2.795998 -0.593427 1.000000
39.077663 -6.988943 -1.171266 7.000000
9.877160 -6.654706 -0.068596 1.000000
11.397851 2.835465 -0.588823 1.000000
81.217621 -14.218569 -2.475950 141.000000
9.943008 -6.646216 -0.077234 33.000000
11.276027 2.849086 -0.583065 1.000000
81.356567 -13.935764 -2.521870 32.000000
17.651018 -11.705118 -0.155256 15.000000
5.697642 -8.841009 0.209300 76.000000
39.022552 -6.537138 -1.215773 6.000000
17.674969 -11.632377 -0.169882 17.000000
76.799927 -12.576470 -2.404894 14.000000
17.692261 -11.551048 -0.184392 24.000000
5.558385 -8.490868 0.178913 22.000000
86.373299 -13.819299 -2.748912 16.000000
17.742729 -11.491469 -0.202926 22.000000
5.619841 -8.516465 0.170978 16.000000
17.765787 -11.418574 -0.217478 27.000000
5.705007 -8.580226 0.160066 34.000000
82.592743 -12.623713 -2.684113 177.000000
17.790491 -11.342525 -0.235684 18.000000
5.739305 -8.563568 0.147549 32.000000
81.768059 -12.191140 -2.670287 92.000000
17.831800 -11.277154 -0.250414 11.000000
5.800010 -8.589163 0.139291 27.000000
75.189850 -10.928807 -2.467413 25.000000
17.845455 -11.198773 -0.268444 22.000000
5.866594 -8.622717 0.129244 36.000000
82.977493 -11.750350 -2.736182 23.000000
17.881973 -11.130548 -0.283085 27.000000
5.872785 -8.564155 0.117812 21.000000
17.926773 -11.067479 -0.294183 16.000000
5.874291 -8.502564 0.106422 36.000000
99.189796 -13.305231 -3.372395 176.000000
17.949890 -10.991090 -0.315945 16.000000
5.914047 -8.493373 0.095739 179.000000
17.983732 -10.925684 -0.326888 11.000000
18.014891 -10.854416 -0.341416 10.000000
6.110435 -8.642863 0.075744 12.000000
18.028648 -10.772836 -0.351926 20.000000
6.201521 -8.707064 0.065301 7.000000
18.072041 -10.709073 -0.370341 16.000000
6.099309 -8.497473 0.054768 25.000000
22.773350 19.978725 -1.561175 7.000000
27.505350 -3.177613 -0.962058 1.000000
18.087538 -10.633123 -0.384549 13.000000
6.140687 -8.492385 0.042069 9.000000
22.599957 19.973667 -1.527907 7.000000
27.725216 -3.100082 -0.974219 4.000000
18.113256 -10.559102 -0.395252 11.000000
6.204184 -8.514302 0.031258 60.000000
22.445337 19.984015 -1.501361 8.000000
27.727499 -2.987690 -0.973870 3.000000
18.125685 -10.477526 -0.405648 16.000000
6.251633 -8.516796 0.022127 29.000000
22.201895 19.913626 -1.463859 7.000000
27.920973 -2.914906 -0.985226 3.000000
18.198412 -10.430767 -0.421067 14.000000
6.235242 -8.429523 0.010980 16.000000
22.051279 19.917870 -1.442908 7.000000
18.540421 -10.536705 -0.446702 9.000000
6.219820 -8.347570 0.001817 37.000000
21.864540 19.895199 -1.409594 7.000000
19.003635 -10.712369 -0.468386 10.000000
6.319421 -8.416678 -0.007348 37.000000
21.704424 19.909357 -1.378653 7.000000
19.509455 -10.903465 -0.491572 10.000000
6.197950 -8.195160 -0.019727 37.000000
21.455511 19.812447 -1.346575 6.000000
32.936668 -2.951108 -1.189454 2.000000
20.047436 -11.107902 -0.520107 9.000000
6.258235 -8.212135 -0.030635 10.000000
21.270229 19.786283 -1.314085 7.000000
32.698341 -2.808986 -1.180468 3.000000
20.578465 -11.303754 -0.545105 8.000000
6.454295 -8.408362 -0.038851 9.000000
21.260025 19.922638 -1.302671 5.000000
32.459217 -2.668633 -1.177166 1.000000
21.137339 -11.510098 -0.579803 9.000000
20.994991 19.812370 -1.265420 7.000000
32.483311 -2.550787 -1.189081 1.000000
21.691702 -11.713984 -0.606800 9.000000
20.850618 19.821108 -1.235936 8.000000
32.537495 -2.435085 -1.185028 3.000000
22.351154 -11.964501 -0.637299 10.000000
20.634127 19.759781 -1.207407 7.000000
32.904633 -2.341317 -1.209609 2.000000
23.061274 -12.236094 -0.669942 16.000000
20.458048 19.735416 -1.176479 7.000000
23.707186 -12.467671 -0.706086 16.000000
20.310776 19.737577 -1.157308 7.000000
24.510073 -12.775452 -0.752737 13.000000
6.205745 -7.732198 -0.095176 24.000000
20.228186 19.795076 -1.131793 6.000000
25.417849 -13.130368 -0.794124 26.000000
6.204344 -7.675413 -0.105079 28.000000
30.435324 30.002827 -1.671683 11.000000
26.152672 -13.394519 -0.831013 28.000000
6.254475 -7.679684 -0.114095 8.000000
30.301016 30.069210 -1.639927 26.000000
26.223421 -13.321171 -0.842129 27.000000
6.371773 -7.770940 -0.124535 35.000000
30.230719 30.241276 -1.597837 8.000000
26.887848 -13.523179 -0.882745 7.000000
6.315502 -7.642274 -0.131514 30.000000
79.841415 -3.625577 -3.000511 1.000000
29.101475 -14.503119 -0.982068 9.000000
6.372152 -7.653526 -0.144278 24.000000
30.744974 31.199055 -1.560225 8.000000
79.819221 -3.331461 -2.999199 22.000000
30.395235 -15.009062 -1.041630 10.000000
6.363412 -7.588997 -0.152124 29.000000
31.751383 -15.534232 -1.104672 9.000000
6.471751 -7.660995 -0.162795 53.000000
26.088741 26.865143 -1.281541 7.000000
7.236514 -0.219831 -0.273065 1.000000
33.165688 -16.075790 -1.171137 9.000000
6.512633 -7.652318 -0.173643 29.000000
25.989719 26.941359 -1.254894 9.000000
7.232208 -0.195698 -0.272877 1.000000
34.475117 -16.569527 -1.228794 9.000000
25.847868 26.982174 -1.219942 9.000000
7.282828 -0.170358 -0.274761 1.000000
36.139801 -17.199102 -1.306743 12.000000
25.694420 27.019547 -1.184794 9.000000
7.288302 -0.143760 -0.277494 1.000000
37.786850 -17.829496 -1.386052 10.000000
25.620882 27.159712 -1.147283 9.000000
7.293816 -0.114580 -0.277685 1.000000
38.387211 -17.924726 -1.427631 21.000000
7.233680 -8.257149 -0.231864 33.000000
7.279169 -0.090207 -0.277114 2.000000
38.577263 -17.857891 -1.454773 26.000000
6.833755 -7.743196 -0.227150 58.000000
7.134561 -0.062262 -0.271598 1.000000
38.720631 -17.735865 -1.479809 21.000000
86.071228 37.282021 -3.390266 1.000000
7.159688 -0.033739 -0.273799 1.000000
39.003094 -17.692589 -1.510568 17.000000
6.755341 -7.544831 -0.240428 39.000000
86.179306 37.704563 -3.317751 1.000000
7.179841 -0.010025 -0.272057 1.000000
6.846445 -7.590416 -0.249819 15.000000
18.340254 20.141546 -0.718076 10.000000
86.237602 38.107250 -3.308874 1.000000
7.134819 0.013698 -0.271598 1.000000
7.062923 -7.778399 -0.267785 5.000000
18.310293 20.257294 -0.695960 7.000000
7.174692 0.040071 -0.273120 1.000000
26.696651 -11.780192 -1.075089 6.000000
15.616605 -17.078405 -0.610035 24.000000
54.486233 60.683273 -2.021645 14.000000
7.194481 0.066553 -0.273881 1.000000
27.302298 -11.928081 -1.113333 6.000000
7.101144 -7.708923 -0.285441 14.000000
7.059298 0.091179 -0.268746 1.000000
27.684828 -11.974559 -1.137678 7.000000
7.105381 -7.657013 -0.293604 9.000000
7.078899 0.117383 -0.269506 1.000000
7.097764 -7.595457 -0.301271 92.000000
7.108394 0.143935 -0.270647 1.000000
28.713417 -12.158561 -1.208776 7.000000
7.180182 -7.627422 -0.312731 31.000000
7.092739 0.169627 -0.272553 1.000000
27.195160 -11.398296 -1.158557 9.000000
7.087501 -7.473890 -0.318295 68.000000
28.829613 33.293556 -0.891767 1.000000
7.042219 0.194247 -0.268175 1.000000
27.292416 -11.332802 -1.171425 20.000000
7.141003 -7.477856 -0.326749 33.000000
28.678461 33.365337 -0.860141 1.000000
7.101434 0.221931 -0.269217 1.000000
30.496147 -12.526038 -1.324148 7.000000
7.192414 -7.476635 -0.336908 53.000000
6.995619 0.244292 -0.267685 1.000000
31.018349 -12.620478 -1.356707 7.000000
7.449878 -7.693049 -0.357127 9.000000
7.064668 0.272632 -0.267892 1.000000
31.791321 -12.799369 -1.406428 7.000000
7.118532 0.300844 -0.269975 1.000000
32.348076 -12.885943 -1.441135 6.000000
50.481628 60.461071 -1.251091 18.000000
7.057534 0.324184 -0.266470 1.000000
32.979992 -12.997814 -1.485748 5.000000
7.358817 -7.431094 -0.378001 183.000000
80.751541 97.438591 -1.899648 30.000000
7.111315 0.350290 -0.268543 1.000000
33.678524 -13.130709 -1.527679 6.000000
7.372648 -7.395846 -0.384749 107.000000
80.675606 98.041527 -1.795078 19.000000
7.114841 0.379099 -0.268731 1.000000
30.933844 -11.930175 -1.418577 7.000000
7.278078 -7.242597 -0.387267 29.000000
80.104980 98.078537 -1.657732 10.000000
7.118486 0.402971 -0.270164 1.000000
30.897085 -11.786094 -1.438030 10.000000
7.343184 -7.261614 -0.398540 81.000000
92.729866 114.389328 -1.799137 75.000000
7.201747 0.434170 -0.273382 1.000000
33.706924 -12.716620 -1.566627 9.000000
7.512162 -7.374454 -0.413602 171.000000
92.556206 114.911209 -1.648227 10.000000
7.125454 0.455787 -0.266804 2.000000
33.630852 -12.547307 -1.579774 10.000000
7.606915 -7.412917 -0.424747 28.000000
7.133612 0.482569 -0.269673 1.000000
33.910416 -12.510212 -1.603383 10.000000
7.640891 -7.391620 -0.436280 40.000000
53.029819 66.859024 -0.789405 29.000000
7.146709 0.512282 -0.266487 2.000000
33.767807 -12.317182 -1.607067 16.000000
7.647371 -7.341256 -0.442450 37.000000
52.704334 66.951218 -0.728717 1.000000
7.254397 0.545461 -0.273115 1.000000
33.699158 -12.152379 -1.620464 31.000000
7.673887 -7.312853 -0.453551 21.000000
7.242629 0.570007 -0.268936 1.000000
34.142849 -12.171152 -1.652322 15.000000
7.810380 -7.393660 -0.465809 1.000000
20.967089 27.030607 -0.226888 8.000000
7.215394 0.595749 -0.270538 1.000000
34.205524 -12.052378 -1.665893 12.000000
16.383947 -15.396317 -0.997351 7.000000
20.798132 26.997177 -0.190338 8.000000
95.134544 51.869038 -2.515702 21.000000
7.337756 0.632938 -0.271350 2.000000
33.956474 -11.824896 -1.664219 16.000000
16.436232 -15.332397 -1.008898 7.000000
20.673504 27.030043 -0.154423 8.000000
7.275669 0.654456 -0.269140 1.000000
9.048426 -8.378935 -0.564311 37.000000
20.610245 27.172684 -0.119049 9.000000
7.203619 0.674600 -0.265300 1.000000
9.058101 -8.323517 -0.573675 29.000000
20.602545 27.360365 -0.089666 8.000000
7.221036 0.702939 -0.264767 1.000000
9.091863 -8.293286 -0.584647 27.000000
78.857033 105.525513 -0.206929 200.000000
68.761940 38.808632 -1.653928 13.000000
9.151510 -8.286448 -0.595164 1.000000
78.518074 105.840408 -0.092003 186.000000
68.537682 39.013973 -1.596881 22.000000
16.609772 -14.929280 -1.096179 7.000000
77.827271 105.716774 0.045824 36.000000
33.875710 19.440081 -0.770399 9.000000
16.589279 -14.801298 -1.106798 8.000000
67.410355 39.013565 -1.481887 13.000000
28.341259 3.063832 -1.030336 1.000000
16.665117 -14.759613 -1.127717 7.000000
67.125092 39.177601 -1.438053 27.000000
16.705875 -14.697147 -1.142745 7.000000
35.144867 48.783382 0.188888 1.000000
66.761955 39.294415 -1.392774 10.000000
12.468164 -3.883401 -0.647828 1.000000
16.684872 -14.575666 -1.157206 7.000000
35.073311 49.062210 0.242099 1.000000
66.328537 39.351700 -1.332731 16.000000
12.443912 -3.825870 -0.650390 1.000000
16.677214 -14.461546 -1.168444 7.000000
65.991776 39.479622 -1.261736 16.000000
28.249542 3.473613 -1.003873 1.000000
12.347943 -3.746885 -0.644652 1.000000
16.778519 -14.441997 -1.191200 7.000000
27.233908 38.678143 0.280712 20.000000
65.813126 39.701015 -1.207421 16.000000
28.256277 3.579619 -1.009549 1.000000
12.342241 -3.695807 -0.648152 1.000000
16.777561 -14.334457 -1.202845 7.000000
27.121426 38.805439 0.338791 9.000000
65.257660 39.692879 -1.159889 25.000000
12.306326 -3.640628 -0.650119 1.000000
16.791428 -14.240166 -1.211651 6.000000
50.578480 72.935753 0.728094 1.000000
64.933418 39.822433 -1.103523 15.000000
12.315828 -3.589737 -0.654344 1.000000
16.832357 -14.159104 -1.229748 7.000000
50.311859 73.094841 0.805368 1.000000
64.620140 39.941380 -1.060777 27.000000
12.237502 -3.518295 -0.653950 1.000000
16.898806 -14.109562 -1.246234 8.000000
64.495140 40.191559 -1.008073 2.000000
12.101171 -3.431131 -0.650390 1.000000
16.922659 -14.024534 -1.263436 8.000000
47.149590 69.561172 0.938716 11.000000
12.147329 -3.396167 -0.652198 1.000000
16.959261 -13.955297 -1.277908 8.000000
46.687382 69.425789 1.007594 13.000000
63.645329 40.297127 -0.880925 4.000000
28.275719 4.215744 -0.978342 1.000000
12.087268 -3.331658 -0.652701 1.000000
17.024076 -13.914208 -1.294711 7.000000
46.433048 69.570801 1.094945 16.000000
29.799597 19.021015 -0.401081 6.000000
27.965353 4.264316 -0.963144 1.000000
12.610050 -3.426075 -0.682535 1.000000
16.973475 -13.769391 -1.302328 8.000000
45.884510 69.297646 1.175042 1.000000
29.809742 19.181625 -0.383598 7.000000
12.511127 -3.350006 -0.685579 1.000000
17.026823 -13.709499 -1.321702 7.000000
46.023270 70.037086 1.272629 13.000000
29.689222 19.258312 -0.345891 20.000000
12.300110 -3.249829 -0.673422 1.000000
17.080311 -13.649683 -1.333452 7.000000
26.003448 39.873997 0.772751 8.000000
29.818661 19.490496 -0.329535 8.000000
12.282720 -3.197120 -0.676266 1.000000
17.109758 -13.570754 -1.350988 7.000000
25.938137 40.094257 0.825192 9.000000
12.150233 -3.110610 -0.670474 1.000000
17.174509 -13.519860 -1.363668 8.000000
25.797546 40.183804 0.875199 14.000000
61.478989 40.831074 -0.579657 1.000000
12.151108 -3.065678 -0.674315 1.000000
17.105227 -13.364067 -1.369482 7.000000
21.406878 33.615013 0.772166 7.000000
61.153645 40.923340 -0.513716 12.000000
12.123497 -3.011492 -0.672165 1.000000
9.254809 -7.176179 -0.749111 15.000000
21.246237 33.621216 0.812265 10.000000
61.243942 41.309559 -0.464167 15.000000
12.174177 -2.972247 -0.676502 1.000000
9.272933 -7.135965 -0.752557 29.000000
21.063993 33.604939 0.851552 9.000000
61.199879 41.607014 -0.413320 26.000000
12.141068 -2.917054 -0.678435 1.000000
9.322291 -7.119699 -0.764719 22.000000
19.695265 31.641768 0.832774 192.000000
61.057667 41.807056 -0.361631 23.000000
79.915268 14.883565 -2.568825 33.000000
12.135984 -2.873299 -0.679798 1.000000
9.403562 -7.127350 -0.777511 1.000000
19.562494 31.699121 0.884338 199.000000
29.072941 20.056078 -0.141783 6.000000
79.744080 15.154307 -2.508367 3.000000
12.209645 -2.843520 -0.683335 1.000000
17.339334 -13.042418 -1.444913 7.000000
19.437941 31.757149 0.916475 193.000000
79.467644 15.403769 -2.487289 127.000000
12.167194 -2.782190 -0.684699 1.000000
17.346231 -12.948331 -1.456702 8.000000
19.308300 31.794064 0.954568 109.000000
61.498978 43.094048 -0.196598 2.000000
79.509140 15.714394 -2.476215 31.000000
12.224941 -2.752768 -0.689625 1.000000
17.413000 -12.899057 -1.469728 7.000000
22.137205 36.740746 1.153199 234.000000
12.239822 -2.709021 -0.689900 1.000000
17.419138 -12.804993 -1.481438 8.000000
22.004354 36.795742 1.197559 255.000000
61.804398 43.970821 -0.079430 3.000000
31.538233 6.473869 -0.955550 5.000000
12.351997 -2.686397 -0.697875 1.000000
17.424816 -12.711053 -1.493078 7.000000
21.846966 36.853065 1.241586 202.000000
61.553879 44.149551 -0.013221 4.000000
31.475319 6.581270 -0.948751 10.000000
12.503689 -2.669148 -0.708100 1.000000
17.462358 -12.640639 -1.507437 7.000000
21.746531 36.992069 1.288551 8.000000
61.318699 44.322128 0.039615 5.000000
12.806309 -2.684709 -0.729257 1.000000
17.532232 -12.593547 -1.520833 7.000000
61.159206 44.516361 0.105620 15.000000
12.723280 -2.618658 -0.721703 1.000000
17.508362 -12.479376 -1.529870 7.000000
60.854172 44.620129 0.158043 11.000000
13.099548 -2.646091 -0.747171 1.000000
9.800832 -6.931674 -0.858377 1.000000
47.086220 82.017899 3.137309 1.000000
37.185368 27.475573 0.129112 10.000000
9.727708 -6.826607 -0.858115 8.000000
46.819962 82.217445 3.254396 1.000000
59.927593 44.619862 0.286884 10.000000
12.509295 2.851228 -0.353896 1.000000
9.699214 -6.753690 -0.857559 9.000000
46.725140 82.788574 3.402775 1.000000
59.923149 44.942532 0.379127 1.000000
13.711420 -2.613113 -0.780385 1.000000
9.687775 -6.690638 -0.860467 11.000000
46.490086 83.014023 3.505454 1.000000
12.182476 2.868592 -0.329920 1.000000
13.824094 -2.582115 -0.783791 1.000000
9.695281 -6.643469 -0.867215 25.000000
46.302238 83.359802 3.629871 1.000000
12.186685 2.916768 -0.321567 1.000000
13.622569 -2.492837 -0.766993 1.000000
9.723563 -6.610609 -0.869635 28.000000
46.281273 83.322060 3.711527 1.000000
12.298918 2.943629 -0.306860 1.000000
13.800150 -2.525333 -0.762256 1.000000
9.724188 -6.611032 -0.859374 28.000000
46.392746 82.840210 3.614275 1.000000
12.314489 2.899677 -0.306981 1.000000
13.658936 -2.551266 -0.742806 1.000000
9.708979 -6.652856 -0.845724 17.000000
12.446775 2.882719 -0.310013 1.000000
9.693341 -6.694481 -0.836161 12.000000
46.834385 82.242775 3.420788 1.000000
60.018669 44.671391 0.509280 8.000000
12.588902 2.867061 -0.311035 1.000000
9.730620 -6.773036 -0.833194 8.000000
47.211922 82.236855 3.361089 1.000000
37.165482 27.450850 0.282249 9.000000
31.759008 7.110620 -0.795390 7.000000
9.767574 -6.852039 -0.828040 6.000000
61.111416 44.808746 0.423233 1.000000
31.682474 6.971641 -0.787162 22.000000
13.175334 -2.663793 -0.697404 1.000000
17.518419 -12.385380 -1.473902 7.000000
61.214825 44.540504 0.369963 9.000000
31.649050 6.842766 -0.791358 10.000000
13.033789 -2.684937 -0.683441 1.000000
17.547283 -12.502499 -1.457509 8.000000
21.769304 36.986462 1.393722 4.000000
61.333168 44.283714 0.343288 1.000000
31.654087 6.722509 -0.802165 30.000000
13.082737 -2.745044 -0.681853 1.000000
17.514320 -12.576049 -1.443469 8.000000
21.865622 36.855202 1.361695 135.000000
61.353443 43.973358 0.289841 1.000000
31.656771 6.613444 -0.796025 8.000000
12.642971 -2.701187 -0.657182 1.000000
17.408497 -12.597020 -1.419708 7.000000
22.010246 36.805592 1.317740 249.000000
61.677265 43.864159 0.264190 7.000000
31.484934 6.457202 -0.791104 1.000000
12.452775 -2.708314 -0.641117 1.000000
17.407351 -12.693659 -1.408293 7.000000
22.150745 36.734203 1.280614 249.000000
61.604900 43.473583 0.210556 10.000000
12.423480 -2.749670 -0.635671 1.000000
17.361889 -12.758242 -1.385732 7.000000
22.295147 36.712364 1.244773 129.000000
61.621235 43.163681 0.157572 15.000000
12.345221 -2.779852 -0.629970 1.000000
17.351875 -12.849087 -1.373547 7.000000
19.450258 31.739939 1.039802 188.000000
29.138437 20.251741 0.061933 1.000000
12.437601 -2.848591 -0.626283 1.000000
17.333424 -12.934059 -1.360671 7.000000
19.572001 31.689770 1.001356 186.000000
29.134287 20.090895 0.037060 5.000000
12.451502 -2.899846 -0.625277 1.000000
17.306044 -13.022106 -1.347434 7.000000
19.704174 31.656078 0.963384 180.000000
61.123451 41.836433 0.038783 9.000000
12.324367 -2.917900 -0.614994 1.000000
9.387531 -7.112621 -0.724484 14.000000
21.081337 33.619564 0.997539 8.000000
61.094383 41.488533 -0.012889 13.000000
12.371650 -2.979307 -0.611241 1.000000
9.330162 -7.123132 -0.711785 20.000000
21.212461 33.567764 0.956585 9.000000
61.279194 41.286671 -0.064481 9.000000
12.375407 -3.028243 -0.607514 1.000000
9.276789 -7.136354 -0.699453 12.000000
21.453878 33.675842 0.934008 10.000000
29.702147 19.868843 -0.043659 7.000000
12.514580 -3.110957 -0.612646 1.000000
9.266830 -7.182910 -0.690414 9.000000
25.623024 39.881332 1.059173 14.000000
29.694870 19.699356 -0.055975 9.000000
12.300117 -3.105556 -0.593824 1.000000
17.171635 -13.411126 -1.267743 8.000000
25.790934 39.851463 1.019201 14.000000
29.758469 19.584856 -0.087048 19.000000
12.206306 -3.129505 -0.592049 1.000000
17.162458 -13.505523 -1.251590 6.000000
29.777182 19.455963 -0.099330 8.000000
12.746180 -3.317756 -0.609605 1.000000
17.035290 -13.506845 -1.230691 7.000000
29.684595 19.240591 -0.123482 17.000000
12.318843 -3.254779 -0.585276 1.000000
17.025341 -13.600884 -1.218304 8.000000
45.918186 69.322227 1.538505 1.000000
29.844028 19.196325 -0.142446 8.000000
12.437186 -3.334861 -0.589224 1.000000
17.026596 -13.704418 -1.206674 7.000000
46.304150 69.325249 1.469732 7.000000
29.785845 18.990295 -0.166465 7.000000
12.400980 -3.373920 -0.583595 1.000000
16.984047 -13.782883 -1.184596 7.000000
46.749352 69.491753 1.403430 1.000000
63.602219 40.223194 -0.407167 9.000000
28.007660 4.160789 -0.751346 1.000000
12.485220 -3.446037 -0.579089 2.000000
16.962084 -13.858603 -1.170927 8.000000
47.125183 69.499039 1.319100 18.000000
63.965199 40.171982 -0.448231 16.000000
28.299603 4.098204 -0.763764 1.000000
12.616906 -3.532200 -0.583502 1.000000
16.902821 -13.908854 -1.151025 7.000000
64.779358 40.321598 -0.506070 3.000000
28.170771 3.974186 -0.764858 3.000000
12.680953 -3.600303 -0.582460 1.000000
16.921535 -14.028584 -1.140406 7.000000
64.580711 39.901432 -0.543232 7.000000
28.284050 3.884492 -0.772528 7.000000
12.624665 -3.634376 -0.575888 1.000000
16.882111 -14.100621 -1.125827 7.000000
65.030151 39.819309 -0.572282 27.000000
28.263552 3.776184 -0.766605 8.000000
12.568294 -3.668084 -0.569347 1.000000
16.861774 -14.188875 -1.104795 7.000000
27.207142 38.913620 0.571837 9.000000
65.279488 39.659344 -0.626583 23.000000
28.019329 3.639076 -0.764549 4.000000
12.789673 -3.783618 -0.575335 1.000000
16.882618 -14.312435 -1.094100 7.000000
27.227921 38.655304 0.528168 14.000000
65.641556 39.581898 -0.668933 19.000000
28.131521 3.548849 -0.772202 20.000000
12.809404 -3.840569 -0.572176 1.000000
16.788992 -14.339153 -1.072117 7.000000
66.151443 39.528122 -0.726310 23.000000
28.412106 3.478501 -0.784549 1.000000
12.718956 -3.864314 -0.564116 1.000000
16.740671 -14.404334 -1.056942 8.000000
66.446091 39.374413 -0.768400 25.000000
28.504078 3.383770 -0.786740 1.000000
51.406845 -15.824632 -2.263763 38.000000
16.679634 -14.468745 -1.037434 7.000000
66.780258 39.289494 -0.811406 14.000000
28.446634 3.271264 -0.789820 1.000000
51.277714 -15.990866 -2.241860 169.000000
16.662199 -14.550735 -1.023868 8.000000
67.225594 39.220531 -0.869407 20.000000
28.403654 3.160884 -0.793292 1.000000
