VERSION .7
FIELDS x y z intensity
SIZE 4 4 4 4
TYPE F F F F
COUNT 1 1 1 1
WIDTH 1219
HEIGHT 1
VIEWPOINT 0 0 0 1 0 0 0
POINTS 1219
DATA ascii
20.622421 12.921378 -2.304725 9.000000
20.329733 -5.817939 -2.945513 6.000000
16.929697 -14.185572 -2.727623 35.000000
20.841944 12.952788 -2.336902 25.000000
20.386345 -5.915065 -2.941732 32.000000
16.920643 -14.293989 -2.707917 8.000000
18.052795 26.110476 -1.519205 1.000000
20.998043 12.943355 -2.366447 21.000000
20.468998 -6.024354 -2.949383 7.000000
17.123192 -14.572978 -2.728948 8.000000
18.177006 26.094933 -1.560927 1.000000
21.167065 12.940723 -2.397615 20.000000
20.447765 -6.099629 -2.941936 9.000000
17.663124 -15.144477 -2.803225 8.000000
18.490622 26.348576 -1.619374 1.000000
21.421431 12.988615 -2.438673 10.000000
22.678450 -6.855667 -3.258044 10.000000
17.909908 -15.470330 -2.830420 6.000000
18.389845 26.001768 -1.641202 1.000000
21.625486 12.993903 -2.473727 9.000000
22.682007 -6.951904 -3.249709 9.000000
17.918617 -15.592896 -2.819786 8.000000
18.459209 25.907539 -1.672714 1.000000
21.872377 13.033379 -2.514434 7.000000
27.366610 3.272959 -3.516059 2.000000
22.747347 -7.063239 -3.254288 10.000000
18.078789 -15.843511 -2.832407 8.000000
18.739559 26.098074 -1.717556 1.000000
29.314259 17.336405 -3.387330 8.000000
26.904846 3.117755 -3.460045 6.000000
22.755470 -7.157311 -3.250699 15.000000
18.312828 -16.167665 -2.856726 8.000000
27.839184 16.326622 -3.232702 8.000000
26.654793 2.985103 -3.431146 8.000000
20.430048 -6.512203 -2.914432 9.000000
18.571131 -16.517225 -2.880065 7.000000
27.875378 16.210833 -3.252723 8.000000
26.906561 2.913485 -3.466958 6.000000
22.854692 -7.377460 -3.251347 14.000000
18.645515 -16.706181 -2.878939 8.000000
28.057606 16.179483 -3.289888 14.000000
26.709293 2.793121 -3.444961 8.000000
22.961535 -7.504986 -3.253265 32.000000
18.707710 -16.885929 -2.875798 3.000000
28.236122 16.144812 -3.321067 17.000000
26.783367 2.696943 -3.457930 6.000000
22.994780 -7.613702 -3.253485 10.000000
19.081291 -17.350468 -2.920185 5.000000
40.061134 53.746132 -3.947325 96.000000
28.488810 16.151030 -3.355353 17.000000
26.842432 2.603547 -3.464301 8.000000
23.010622 -7.712646 -3.246769 8.000000
18.807671 -17.228018 -2.856399 6.000000
40.185635 53.522240 -4.023219 173.000000
28.740870 16.155018 -3.401304 10.000000
26.806755 2.500945 -3.463266 8.000000
23.105297 -7.838695 -3.255491 7.000000
19.103556 -17.622082 -2.887697 7.000000
28.974865 16.147081 -3.457079 13.000000
26.988434 2.413402 -3.490323 7.000000
23.142265 -7.950454 -3.251937 7.000000
19.229624 -17.869270 -2.898083 4.000000
29.192778 16.128578 -3.499541 9.000000
26.783234 2.305551 -3.467547 8.000000
23.079384 -8.014516 -3.238140 7.000000
19.302773 -18.056894 -2.894770 1.000000
29.402723 16.104191 -3.535357 10.000000
26.559603 2.183597 -3.437483 8.000000
23.226315 -8.170165 -3.250213 8.000000
29.271486 15.893120 -3.536063 8.000000
26.571774 2.086577 -3.442775 8.000000
23.067945 -8.205054 -3.223344 9.000000
29.402878 15.825200 -3.556692 8.000000
26.841326 2.008787 -3.476722 8.000000
23.118605 -8.318651 -3.221575 7.000000
11.027846 -10.545806 -1.625296 7.000000
29.001766 15.472494 -3.530302 8.000000
26.388885 1.863805 -3.421772 7.000000
23.100582 -8.417057 -3.210652 7.000000
11.034835 -10.633906 -1.618808 5.000000
28.947321 15.307417 -3.528384 8.000000
25.950232 1.746359 -3.359507 3.000000
23.175955 -8.531684 -3.216275 6.000000
10.918627 -10.591977 -1.590798 1.000000
29.418196 15.418709 -3.614055 2.000000
25.797218 1.636585 -3.348034 1.000000
23.139954 -8.619467 -3.202701 6.000000
16.632614 -16.253775 -2.407348 5.000000
28.087841 14.590465 -3.460797 1.000000
26.471210 1.572680 -3.439366 8.000000
23.301609 -8.786360 -3.216672 7.000000
16.710758 -16.461796 -2.403379 34.000000
28.015245 14.422614 -3.467579 1.000000
26.674828 1.486684 -3.465091 6.000000
23.358337 -8.905670 -3.220117 6.000000
16.778280 -16.644112 -2.400592 8.000000
28.266052 14.420920 -3.503268 2.000000
26.531301 1.385803 -3.445797 8.000000
23.368757 -9.007882 -3.212753 6.000000
16.993418 -16.981556 -2.414848 9.000000
28.919107 14.620764 -3.606167 1.000000
26.327599 1.278423 -3.423387 8.000000
23.418736 -9.130584 -3.211043 6.000000
16.932541 -17.045216 -2.393882 9.000000
27.953430 14.004138 -3.495899 2.000000
26.203318 1.176138 -3.406643 8.000000
23.418976 -9.229702 -3.202299 6.000000
16.850742 -17.087681 -2.365777 10.000000
27.900019 13.849689 -3.504867 3.000000
26.122829 1.072035 -3.400259 8.000000
23.695293 -9.439085 -3.231221 6.000000
27.766153 13.656622 -3.498147 5.000000
26.067127 0.974061 -3.392521 8.000000
23.776625 -9.572606 -3.237984 6.000000
17.351835 -17.849514 -2.410137 14.000000
9.233693 10.942086 -1.104184 1.000000
26.169783 0.877286 -3.405418 8.000000
23.814777 -9.694395 -3.234548 6.000000
17.322601 -17.950615 -2.388833 31.000000
9.312916 10.958131 -1.126753 1.000000
26.242207 0.783435 -3.414445 8.000000
24.128227 -9.915390 -3.267695 6.000000
17.413368 -18.177534 -2.383922 19.000000
26.741713 12.783801 -3.403285 4.000000
26.343433 0.689827 -3.431942 8.000000
24.094387 -10.014727 -3.254655 6.000000
17.499063 -18.395103 -2.377607 9.000000
26.476492 12.538001 -3.384384 7.000000
27.000198 0.603291 -3.517175 6.000000
23.944717 -10.055598 -3.225585 6.000000
26.426231 12.395828 -3.387617 8.000000
27.131119 0.506733 -3.533964 4.000000
24.180557 -10.254078 -3.248194 6.000000
17.818989 -18.995218 -2.397770 5.000000
26.451859 12.289769 -3.400584 17.000000
26.969263 0.400126 -3.512655 6.000000
24.217356 -10.374570 -3.244218 6.000000
18.009117 -19.332697 -2.399871 7.000000
26.394775 12.145823 -3.413202 10.000000
26.984194 0.301429 -3.524013 8.000000
24.380087 -10.550205 -3.266469 6.000000
17.912502 -19.384422 -2.374125 74.000000
9.232189 10.398465 -1.175005 1.000000
26.378201 12.021237 -3.425857 11.000000
26.300945 0.197390 -3.434666 7.000000
24.503025 -10.710202 -3.264492 6.000000
17.846149 -19.441565 -2.350648 39.000000
9.124822 10.205559 -1.171239 1.000000
26.382881 11.901242 -3.425627 9.000000
26.134130 0.095787 -3.403531 4.000000
24.665693 -10.899443 -3.277637 6.000000
18.175777 -19.953918 -2.370907 33.000000
9.091275 10.100429 -1.174574 1.000000
26.461355 11.831194 -3.446094 7.000000
26.025227 0.000000 -3.389325 4.000000
24.740465 -11.041044 -3.278534 6.000000
18.151222 -20.074265 -2.343969 9.000000
8.906579 9.822588 -1.160043 1.000000
26.451847 11.710800 -3.464847 7.000000
26.960321 -0.089404 -3.525481 8.000000
23.773699 -10.699290 -3.150244 17.000000
18.201731 -20.279041 -2.340909 27.000000
8.876180 9.720657 -1.165549 2.000000
16.865231 7.399808 -2.215681 169.000000
27.074493 -0.184293 -3.535667 7.000000
23.695147 -10.768548 -3.131217 35.000000
8.931006 9.708995 -1.184312 5.000000
16.872963 7.329570 -2.222925 223.000000
27.058762 -0.283369 -3.533724 8.000000
23.702127 -10.876711 -3.123535 29.000000
8.891222 9.594926 -1.188176 5.000000
16.873816 7.249564 -2.228942 6.000000
26.764921 -0.387750 -3.495525 8.000000
25.178143 -11.676624 -3.304547 6.000000
8.876392 9.512106 -1.193198 5.000000
25.877504 11.005676 -3.437835 7.000000
26.421364 -0.475025 -3.450852 27.000000
25.163336 -11.771305 -3.292957 6.000000
8.855775 9.420553 -1.199432 6.000000
25.892344 10.905416 -3.439705 7.000000
26.345095 -0.570252 -3.441140 9.000000
25.406843 -12.004335 -3.315912 6.000000
8.875684 9.372657 -1.211103 7.000000
25.938826 10.802604 -3.455025 7.000000
26.501312 -0.675448 -3.461859 34.000000
25.449919 -12.138988 -3.307361 6.000000
8.869825 9.301223 -1.217181 18.000000
25.655418 10.574400 -3.426840 7.000000
26.434233 -0.770697 -3.453442 99.000000
25.523153 -12.288950 -3.307674 6.000000
8.882280 9.246191 -1.227780 9.000000
25.930126 10.576610 -3.483146 2.000000
26.539032 -0.871116 -3.476954 88.000000
25.609035 -12.446129 -3.309582 6.000000
8.935976 9.234103 -1.244097 9.000000
25.522537 10.296233 -3.437694 7.000000
26.557127 -0.973806 -3.465637 30.000000
25.890846 -12.700608 -3.331592 6.000000
8.974340 9.209202 -1.256283 9.000000
25.051592 9.999641 -3.383646 5.000000
27.073166 -1.101569 -3.533527 9.000000
25.934681 -12.851527 -3.328488 6.000000
9.038322 9.207101 -1.276422 9.000000
25.137180 9.927147 -3.404643 6.000000
27.077827 -1.196449 -3.544282 8.000000
26.364508 -13.173598 -3.373605 6.000000
9.106361 9.208653 -1.290386 9.000000
24.968433 9.754871 -3.391182 7.000000
27.034262 -1.293820 -3.534372 9.000000
26.202810 -13.213040 -3.338335 6.000000
28.523949 -34.626938 -3.318111 1.000000
9.151373 9.189786 -1.308215 9.000000
24.938139 9.637832 -3.391730 3.000000
27.153120 -1.399275 -3.550558 9.000000
26.369865 -13.424524 -3.355699 6.000000
28.279713 -34.600315 -3.250241 1.000000
9.212201 9.183306 -1.325852 19.000000
24.635321 9.422097 -3.369441 7.000000
27.146307 -1.503456 -3.560048 35.000000
26.512077 -13.619508 -3.364320 6.000000
30.461544 -37.523048 -3.464409 1.000000
9.283861 9.187146 -1.342827 11.000000
24.565687 9.282599 -3.359452 7.000000
27.206816 -1.606852 -3.554217 10.000000
26.504280 -13.738514 -3.343316 6.000000
30.320118 -37.616417 -3.412386 1.000000
9.338263 9.179889 -1.357835 21.000000
27.235083 -1.713486 -3.558743 8.000000
26.670544 -13.948951 -3.360078 8.000000
30.321363 -37.901443 -3.377059 1.000000
9.386847 9.163439 -1.376441 9.000000
17.226591 6.372310 -2.372472 160.000000
27.539656 -1.834010 -3.604295 8.000000
26.876223 -14.182217 -3.371038 9.000000
9.472520 9.173101 -1.397555 9.000000
17.224016 6.289463 -2.378230 249.000000
27.532749 -1.934935 -3.604295 8.000000
26.996702 -14.372539 -3.376525 7.000000
9.522938 9.154530 -1.414024 9.000000
17.245779 6.225869 -2.387831 8.000000
27.056023 -2.005862 -3.538053 34.000000
27.251371 -14.636562 -3.404134 7.000000
9.595091 9.156461 -1.431453 14.000000
23.510777 8.390310 -3.259857 9.000000
27.004000 -2.101551 -3.532234 35.000000
27.226885 -14.752242 -3.374990 7.000000
9.678196 9.168227 -1.450598 17.000000
23.534004 8.301484 -3.280989 9.000000
26.962135 -2.197742 -3.522987 39.000000
27.378147 -14.964265 -3.395005 7.000000
9.742216 9.170974 -1.467683 18.000000
23.543034 8.212377 -3.287086 10.000000
26.830605 -2.290760 -3.502144 113.000000
27.508020 -15.166456 -3.395793 7.000000
9.810132 9.160909 -1.491333 10.000000
23.517941 8.097877 -3.292268 9.000000
26.707226 -2.378858 -3.496672 62.000000
28.109251 -15.645408 -3.455019 7.000000
9.894337 9.178308 -1.509037 9.000000
23.518219 8.001674 -3.297003 10.000000
26.777493 -2.488786 -3.502324 96.000000
27.851173 -15.622959 -3.407097 7.000000
9.951868 9.157625 -1.526534 9.000000
23.608204 7.931280 -3.318595 9.000000
26.818151 -2.591743 -3.504079 8.000000
28.327555 -16.026958 -3.455302 7.000000
10.015395 9.151726 -1.548158 16.000000
23.597282 7.831479 -3.330670 7.000000
27.310444 -2.740388 -3.579434 8.000000
28.239439 -16.114025 -3.440258 7.000000
10.114295 9.174299 -1.567895 22.000000
23.341639 7.651775 -3.303699 7.000000
27.202948 -2.835146 -3.552182 8.000000
28.419306 -16.355028 -3.446303 7.000000
10.180336 9.172852 -1.587950 9.000000
23.268116 7.537826 -3.298242 7.000000
27.265699 -2.942745 -3.566628 8.000000
28.636517 -16.620047 -3.456638 7.000000
10.257270 9.174280 -1.606866 9.000000
23.072681 7.381185 -3.275292 7.000000
26.915859 -3.000072 -3.517408 8.000000
10.345475 9.185143 -1.627638 9.000000
22.950392 7.249444 -3.275529 7.000000
27.057383 -3.116290 -3.537371 8.000000
30.239918 -17.848238 -3.616319 6.000000
10.407370 9.172103 -1.649261 15.000000
23.019531 7.174193 -3.290014 7.000000
26.927000 -3.201318 -3.526648 8.000000
28.162264 -16.761442 -3.363621 6.000000
10.492142 9.178708 -1.669691 28.000000
22.811478 7.017726 -3.273554 7.000000
26.988941 -3.313825 -3.531575 9.000000
28.025877 -16.819679 -3.331614 2.000000
10.592074 9.197818 -1.692637 9.000000
22.791513 6.911558 -3.270916 7.000000
26.513639 -3.363557 -3.466377 8.000000
27.842600 -16.848797 -3.294192 5.000000
10.652840 9.185555 -1.712160 9.000000
22.651981 6.782994 -3.264294 6.000000
26.537361 -3.456021 -3.466208 7.000000
27.717939 -16.912464 -3.275304 4.000000
10.745622 9.197107 -1.734169 17.000000
22.397665 6.608985 -3.232104 7.000000
26.365986 -3.546080 -3.441013 7.000000
27.629007 -16.997478 -3.237824 6.000000
10.827031 9.198246 -1.756958 18.000000
22.375582 6.521887 -3.234070 15.000000
26.382963 -3.637475 -3.449509 7.000000
27.482922 -17.046776 -3.216603 7.000000
10.908805 9.199091 -1.777389 9.000000
26.344849 -3.735355 -3.441654 8.000000
27.409500 -17.140663 -3.192550 7.000000
18.947001 -27.702499 -1.594492 6.000000
10.997837 9.205408 -1.804183 9.000000
15.274230 4.327930 -2.219862 230.000000
26.227339 -3.816806 -3.432811 10.000000
18.848156 -27.765480 -1.564970 10.000000
11.106595 9.227424 -1.829266 10.000000
15.288493 4.271501 -2.230945 34.000000
26.228479 -3.915192 -3.430110 10.000000
18.730427 -27.810862 -1.528461 10.000000
11.165891 9.207724 -1.846295 20.000000
15.356917 4.227116 -2.241379 1.000000
26.150713 -4.006293 -3.412537 9.000000
27.494619 -17.603832 -3.160835 3.000000
18.606501 -27.836077 -1.485279 9.000000
11.282742 9.234818 -1.872939 9.000000
15.217897 4.128907 -2.230093 1.000000
26.141342 -4.102974 -3.408558 9.000000
27.346144 -17.663946 -3.128953 4.000000
16.491444 -24.859251 -1.292062 62.000000
11.368865 9.235932 -1.897198 9.000000
15.409127 4.120216 -2.261567 1.000000
25.997511 -4.182744 -3.396545 9.000000
27.261734 -17.751368 -3.109529 5.000000
16.395460 -24.912298 -1.260399 250.000000
11.439943 9.224279 -1.916445 14.000000
15.375817 4.048115 -2.262874 1.000000
25.879835 -4.261179 -3.378535 9.000000
27.497911 -18.049015 -3.120821 6.000000
16.303652 -24.962107 -1.228755 255.000000
11.514413 9.214890 -1.941577 24.000000
15.332290 3.976622 -2.259949 1.000000
25.843903 -4.352612 -3.380554 8.000000
16.199043 -25.001617 -1.201729 254.000000
11.632436 9.239606 -1.966306 7.000000
14.986993 3.825708 -2.212381 1.000000
25.868416 -4.458953 -3.367346 8.000000
16.082733 -25.013002 -1.163182 250.000000
15.273002 3.839147 -2.263729 1.000000
25.787827 -4.542449 -3.363646 8.000000
30.405107 -20.431385 -3.404707 6.000000
15.979845 -25.044731 -1.130899 255.000000
11.901804 9.315446 -2.032738 5.000000
15.218946 3.766308 -2.259242 1.000000
26.342655 -4.739792 -3.433510 7.000000
22.664476 -15.350774 -2.524935 29.000000
15.868997 -25.063513 -1.092946 240.000000
12.032001 9.346437 -2.065356 8.000000
15.222143 3.705130 -2.268754 1.000000
26.138916 -4.806821 -3.409335 8.000000
22.679056 -15.482207 -2.518364 7.000000
15.769556 -25.109610 -1.066519 22.000000
12.119673 9.343518 -2.088115 6.000000
15.061618 3.607635 -2.248363 1.000000
25.940191 -4.868634 -3.390402 8.000000
30.109152 -20.716667 -3.338974 6.000000
20.904572 -33.545433 -1.380275 9.000000
12.234707 9.360909 -2.118443 5.000000
15.107539 3.557353 -2.264227 1.000000
25.906696 -4.965401 -3.388491 8.000000
33.914635 -23.518654 -3.734205 6.000000
20.808998 -33.653217 -1.347143 11.000000
12.306903 9.344833 -2.138741 1.000000
15.090402 3.494992 -2.268007 1.000000
25.879169 -5.058531 -3.382615 8.000000
20.688971 -33.734894 -1.298965 11.000000
12.438147 9.372816 -2.172189 5.000000
15.135324 3.446996 -2.283915 1.000000
25.825830 -5.146449 -3.382758 8.000000
12.486756 9.337889 -2.188559 6.000000
15.239386 3.409199 -2.303195 1.000000
25.680672 -5.220124 -3.357047 8.000000
35.840313 -25.423340 -3.906233 5.000000
12.558805 9.320191 -2.211888 9.000000
15.178139 3.337130 -2.300389 1.000000
25.957607 -5.375562 -3.395802 8.000000
35.812538 -25.620356 -3.891147 5.000000
12.678696 9.337297 -2.243782 6.000000
15.233564 3.288048 -2.312419 1.000000
25.731533 -5.417794 -3.363894 8.000000
35.794792 -25.787537 -3.859692 8.000000
16.443092 12.016904 -2.923927 106.000000
15.166920 3.215529 -2.308795 1.000000
25.689219 -5.521362 -3.361356 8.000000
36.087540 -26.219131 -3.879043 8.000000
16.540203 11.995123 -2.958839 43.000000
15.124318 3.145863 -2.311479 1.000000
25.461847 -5.560892 -3.338623 8.000000
35.985405 -26.327692 -3.861746 8.000000
24.609430 -42.097122 -1.302444 8.000000
15.032033 3.069232 -2.309330 1.000000
25.400438 -5.649749 -3.342623 8.000000
35.906326 -26.472429 -3.840115 8.000000
24.470682 -42.214142 -1.252149 9.000000
15.278314 3.061228 -2.362116 5.000000
25.286526 -5.721756 -3.339569 8.000000
36.425419 -27.061769 -3.898234 8.000000
24.283743 -42.230724 -1.216087 7.000000
15.896315 11.355484 -2.902189 6.000000
15.159161 3.037354 -2.363021 1.000000
24.815599 -5.619750 -3.322659 8.000000
24.310703 -42.294689 -1.260406 6.000000
15.848200 11.409072 -2.887087 6.000000
15.306918 3.125358 -2.393404 3.000000
24.404036 -5.428122 -3.282491 8.000000
34.851902 -25.704430 -3.834447 5.000000
24.397146 -42.104221 -1.325253 8.000000
15.807498 11.467967 -2.876862 6.000000
15.203279 3.165055 -2.376307 1.000000
24.185345 -5.286525 -3.259239 8.000000
32.909153 -24.085861 -3.654013 2.000000
24.714430 -42.310627 -1.402927 2.000000
16.002193 11.698973 -2.909476 8.000000
15.225421 3.227932 -2.381602 3.000000
24.017612 -5.157700 -3.255877 8.000000
32.345417 -23.491697 -3.624038 3.000000
20.878330 -35.444370 -1.235274 1.000000
15.241900 3.292631 -2.386139 1.000000
24.014961 -5.069502 -3.261817 8.000000
32.339310 -23.315266 -3.656309 4.000000
20.914276 -35.223656 -1.287370 1.000000
12.560238 9.328056 -2.276810 7.000000
15.413162 3.388803 -2.414879 1.000000
23.774498 -4.927789 -3.239620 8.000000
32.692177 -23.388042 -3.736016 3.000000
21.231199 -35.474747 -1.357033 1.000000
12.451960 9.318646 -2.252272 5.000000
15.516204 3.473970 -2.430255 1.000000
23.540430 -4.780798 -3.213619 7.000000
31.573965 -22.413578 -3.626084 8.000000
12.375821 9.332624 -2.230864 1.000000
15.431081 3.514353 -2.418924 1.000000
23.420063 -4.667039 -3.207559 7.000000
31.217569 -21.997103 -3.616660 7.000000
12.232426 9.295015 -2.200195 6.000000
23.352932 -4.560503 -3.212855 7.000000
20.690100 -33.763176 -1.452007 7.000000
12.217206 9.357665 -2.195682 4.000000
23.368940 -4.474774 -3.217008 7.000000
30.116837 -20.892794 -3.542315 7.000000
20.814758 -33.701965 -1.500952 12.000000
12.129472 9.361201 -2.172424 3.000000
23.114731 -4.346686 -3.188372 7.000000
30.055380 -20.687397 -3.558285 7.000000
20.881701 -33.534805 -1.545242 10.000000
12.034038 9.358127 -2.147891 6.000000
15.094872 3.676942 -2.363507 1.000000
23.353741 -4.298854 -3.231703 8.000000
30.035492 -20.534946 -3.580331 7.000000
15.766132 -25.123627 -1.196489 38.000000
15.220596 3.769536 -2.379841 5.000000
23.318914 -4.204139 -3.237367 10.000000
22.672016 -15.367428 -2.728996 26.000000
15.863508 -25.083893 -1.238736 253.000000
11.761457 9.285307 -2.089998 1.000000
15.254619 3.837357 -2.387344 2.000000
23.376959 -4.126196 -3.251745 9.000000
15.960883 -25.043921 -1.275854 255.000000
11.577604 9.209243 -2.050152 28.000000
15.259735 3.901005 -2.384847 3.000000
23.426241 -4.042204 -3.260644 10.000000
16.079744 -25.037161 -1.314784 245.000000
11.506236 9.221531 -2.032995 17.000000
15.284423 3.967054 -2.385323 1.000000
23.488054 -3.964274 -3.279912 9.000000
16.190580 -25.017252 -1.353178 242.000000
11.446758 9.242970 -2.015376 10.000000
15.341596 4.044832 -2.390988 1.000000
23.623468 -3.898133 -3.305320 10.000000
27.486410 -18.055197 -3.386842 7.000000
16.292166 -24.973072 -1.390515 255.000000
11.360360 9.242195 -1.993097 9.000000
15.321891 4.099756 -2.390242 1.000000
23.755049 -3.826208 -3.325930 9.000000
27.337912 -17.814560 -3.383500 7.000000
16.383780 -24.922958 -1.427421 246.000000
11.265904 9.234178 -1.974682 9.000000
15.315578 4.161150 -2.391733 5.000000
23.845467 -3.751158 -3.349523 9.000000
27.187042 -17.574627 -3.391101 7.000000
16.475218 -24.872469 -1.464350 37.000000
11.183637 9.235482 -1.953294 13.000000
15.324860 4.224048 -2.389909 108.000000
24.000435 -3.685444 -3.373691 10.000000
27.060919 -17.352798 -3.390104 7.000000
18.587385 -27.849546 -1.684441 14.000000
11.066946 9.207549 -1.928562 9.000000
15.335384 4.281716 -2.388068 255.000000
24.110611 -3.607657 -3.400218 9.000000
18.697088 -27.803234 -1.732481 10.000000
10.977433 9.201370 -1.906105 9.000000
15.288774 4.337817 -2.383619 44.000000
24.230888 -3.534904 -3.419687 9.000000
18.817450 -27.761934 -1.769410 13.000000
10.910817 9.213829 -1.887707 18.000000
15.321491 4.407841 -2.382688 6.000000
24.165245 -3.430618 -3.412882 8.000000
25.999382 -16.271467 -3.315721 7.000000
19.008743 -27.834457 -1.819548 9.000000
10.817810 9.203423 -1.864830 10.000000
19.838911 5.790030 -3.081264 33.000000
24.181379 -3.342539 -3.422096 8.000000
25.909060 -16.083086 -3.318202 7.000000
10.725250 9.192651 -1.839624 9.000000
24.124176 -3.244568 -3.416626 8.000000
25.732262 -15.855369 -3.304822 7.000000
10.651411 9.197296 -1.820241 9.000000
19.237961 5.771665 -2.980239 29.000000
23.890381 -3.119780 -3.386082 9.000000
25.496861 -15.575569 -3.303828 6.000000
10.547496 9.175263 -1.798296 19.000000
19.103603 5.807760 -2.959141 87.000000
23.924450 -3.035089 -3.402189 8.000000
25.041782 -15.171818 -3.258325 6.000000
10.488862 9.192010 -1.781660 19.000000
18.851545 5.806696 -2.916338 119.000000
23.985067 -2.949245 -3.409173 7.000000
24.946194 -14.989184 -3.259288 6.000000
10.396768 9.178891 -1.759421 9.000000
18.688911 5.835264 -2.884149 163.000000
23.847645 -2.843659 -3.392411 7.000000
24.857174 -14.811969 -3.271228 6.000000
10.308370 9.168299 -1.740351 9.000000
18.583460 5.877177 -2.864229 164.000000
23.438129 -2.707739 -3.345323 9.000000
24.678038 -14.594551 -3.256471 6.000000
10.227790 9.163990 -1.720232 9.000000
18.622952 5.968421 -2.866853 115.000000
23.373974 -2.609420 -3.338899 125.000000
24.553953 -14.388444 -3.257608 6.000000
10.161612 9.165626 -1.702076 15.000000
18.627064 6.037926 -2.867062 37.000000
23.313019 -2.524371 -3.333153 177.000000
24.401552 -14.190641 -3.256086 6.000000
10.070977 9.157460 -1.678566 9.000000
18.692932 6.142308 -2.873957 8.000000
23.308041 -2.425099 -3.335132 166.000000
24.322348 -14.025538 -3.258499 6.000000
10.008683 9.161633 -1.661218 10.000000
19.036816 6.336396 -2.919819 6.000000
23.232460 -2.331194 -3.327230 165.000000
24.337120 -13.915445 -3.273460 6.000000
9.917717 9.145398 -1.639724 9.000000
19.169168 6.458588 -2.936519 6.000000
23.113138 -2.229614 -3.308891 193.000000
24.208849 -13.724610 -3.269114 7.000000
9.859509 9.158814 -1.626106 9.000000
19.287506 6.573516 -2.954513 6.000000
23.232025 -2.163349 -3.337332 155.000000
24.152611 -13.575994 -3.279293 8.000000
9.781789 9.150434 -1.601945 18.000000
21.225433 7.320937 -3.239456 6.000000
23.465992 -2.098412 -3.374010 119.000000
24.088440 -13.423979 -3.273640 9.000000
9.705636 9.146129 -1.585510 10.000000
21.222355 7.407022 -3.239103 6.000000
23.414698 -2.003231 -3.365504 13.000000
24.025829 -13.273915 -3.287650 9.000000
9.626840 9.145114 -1.564523 10.000000
21.220734 7.506320 -3.231597 6.000000
23.505823 -1.916010 -3.381670 7.000000
23.937553 -13.099998 -3.287673 9.000000
9.558555 9.147129 -1.544818 9.000000
21.209179 7.589809 -3.218003 6.000000
23.566698 -1.829910 -3.393603 7.000000
23.913574 -12.973206 -3.297098 9.000000
9.493750 9.152010 -1.528092 9.000000
21.316721 7.716545 -3.234552 6.000000
23.290739 -1.722626 -3.361254 7.000000
23.854527 -12.828233 -3.296844 10.000000
9.415990 9.134294 -1.508587 8.000000
17.200350 6.294435 -2.603476 8.000000
23.355265 -1.645448 -3.373887 7.000000
23.796404 -12.690089 -3.301776 9.000000
9.347856 9.134940 -1.491470 17.000000
21.212526 7.850961 -3.207046 10.000000
23.163626 -1.546648 -3.345362 7.000000
23.785355 -12.577757 -3.317966 8.000000
9.272748 9.128224 -1.473312 14.000000
21.034571 7.881246 -3.168904 51.000000
23.242636 -1.466375 -3.360124 7.000000
23.699558 -12.416176 -3.318287 9.000000
9.212095 9.135241 -1.455227 9.000000
21.142248 8.005861 -3.181267 16.000000
23.080133 -1.367170 -3.335847 7.000000
23.637682 -12.273554 -3.317464 9.000000
9.151821 9.148626 -1.437775 9.000000
21.128950 8.097953 -3.180105 56.000000
23.040382 -1.272022 -3.333448 7.000000
23.534679 -12.100375 -3.314927 9.000000
9.088877 9.142972 -1.421004 9.000000
21.197641 8.213511 -3.182816 32.000000
22.609783 -1.169101 -3.270540 39.000000
23.453041 -11.949921 -3.315902 9.000000
9.014451 9.134823 -1.400992 22.000000
21.274994 8.333296 -3.186798 10.000000
22.628746 -1.086937 -3.272684 142.000000
23.176649 -11.712445 -3.285130 8.000000
8.953933 9.140264 -1.385485 16.000000
21.344028 8.446389 -3.189284 10.000000
22.626095 -0.999747 -3.283829 179.000000
23.177450 -11.606402 -3.297579 9.000000
8.900583 9.152670 -1.368887 10.000000
21.388052 8.554610 -3.188232 8.000000
22.698826 -0.919615 -3.293873 171.000000
23.057312 -11.440734 -3.297327 9.000000
8.838487 9.152520 -1.350767 24.000000
21.566294 8.726486 -3.207584 7.000000
22.529118 -0.826105 -3.268762 168.000000
22.843866 -11.230673 -3.274442 9.000000
23.077473 -27.463699 -3.087958 3.000000
8.802252 9.182111 -1.339139 23.000000
21.587692 8.822963 -3.202885 6.000000
22.536369 -0.743671 -3.273415 156.000000
22.829319 -11.119810 -3.284516 9.000000
22.397017 -26.456423 -3.020484 1.000000
8.752200 9.197142 -1.325443 29.000000
21.657488 8.944266 -3.205584 6.000000
22.539059 -0.657132 -3.273415 156.000000
22.655928 -10.927922 -3.266900 10.000000
22.819998 -26.766047 -3.102026 3.000000
8.710900 9.217962 -1.308391 1.000000
21.690115 9.050940 -3.202766 6.000000
22.803480 -0.581200 -3.311486 101.000000
22.555088 -10.777560 -3.264390 9.000000
21.838493 -25.425474 -2.991293 1.000000
8.670873 9.243236 -1.298518 16.000000
21.598989 9.106006 -3.181717 6.000000
23.003336 -0.501935 -3.340219 7.000000
22.431578 -10.617731 -3.254076 48.000000
21.745872 -25.139566 -3.001657 6.000000
8.631079 9.268662 -1.284236 35.000000
22.634045 -0.406934 -3.286345 7.000000
22.316191 -10.463168 -3.244881 29.000000
21.260044 -24.396622 -2.956402 1.000000
8.586070 9.285107 -1.268976 24.000000
16.857918 7.256679 -2.478221 220.000000
22.803604 -0.326381 -3.310768 7.000000
22.162489 -10.292186 -3.243062 52.000000
8.573211 9.339642 -1.256483 1.000000
16.828640 7.317301 -2.461539 37.000000
22.779947 -0.238560 -3.307176 7.000000
22.129276 -10.173652 -3.236787 36.000000
8.576524 9.412268 -1.250796 1.000000
16.843725 7.397385 -2.457889 1.000000
22.666864 -0.154291 -3.290654 7.000000
21.997982 -10.015785 -3.225072 115.000000
8.587897 9.491085 -1.243747 7.000000
22.603279 10.025835 -3.290504 4.000000
22.597445 -0.067048 -3.284542 7.000000
21.892950 -9.871249 -3.217147 33.000000
8.593828 9.567895 -1.236082 7.000000
22.721466 10.192370 -3.296204 6.000000
22.746559 0.007940 -3.302148 7.000000
21.812780 -9.739059 -3.225568 128.000000
18.090357 -20.035048 -2.613471 6.000000
8.582650 9.619426 -1.227703 8.000000
22.538082 10.190544 -3.269580 6.000000
22.799679 0.083566 -3.318008 7.000000
21.617378 -9.565965 -3.200366 28.000000
18.084988 -19.889086 -2.626331 9.000000
8.592723 9.691836 -1.222088 6.000000
22.538210 10.290263 -3.261849 7.000000
22.561699 0.169327 -3.283446 7.000000
21.533903 -9.430318 -3.199338 95.000000
18.125647 -19.787605 -2.650058 3.000000
8.567880 9.742319 -1.208117 5.000000
22.624485 10.430031 -3.257731 7.000000
22.750000 0.262073 -3.302866 7.000000
21.426903 -9.290014 -3.182512 9.000000
18.321318 -19.854622 -2.691816 2.000000
8.614799 9.868375 -1.205990 5.000000
22.549343 10.500561 -3.243862 10.000000
22.623989 0.347507 -3.292806 7.000000
21.303478 -9.143889 -3.179790 129.000000
18.313757 -19.707949 -2.713781 3.000000
8.623523 9.948249 -1.198163 5.000000
22.445948 10.552692 -3.212520 32.000000
22.608871 0.430165 -3.282753 7.000000
21.248699 -9.028293 -3.178970 153.000000
18.302332 -19.551456 -2.729784 1.000000
8.639769 10.034026 -1.195716 5.000000
22.407120 10.634891 -3.212520 42.000000
22.283419 0.501790 -3.251623 101.000000
21.064508 -8.859031 -3.166857 106.000000
8.663721 10.140329 -1.185639 5.000000
22.486788 10.773864 -3.207460 9.000000
22.223209 0.581935 -3.235202 173.000000
21.074995 -8.768358 -3.167409 37.000000
8.678840 10.233736 -1.178672 4.000000
22.520094 10.891488 -3.204570 7.000000
22.295326 0.677289 -3.242110 140.000000
21.000134 -8.647057 -3.163495 166.000000
22.634579 11.049403 -3.199796 7.000000
22.289143 0.751091 -3.233606 152.000000
20.979706 -8.548848 -3.167770 49.000000
22.305727 0.841305 -3.236476 128.000000
20.964909 -8.449099 -3.172681 27.000000
9.036876 10.881105 -1.197682 5.000000
23.536095 11.709030 -3.306940 7.000000
22.350962 0.921152 -3.251459 123.000000
20.906809 -8.336742 -3.171262 28.000000
9.019260 10.949022 -1.186203 1.000000
23.506838 11.802154 -3.304222 6.000000
22.357889 1.003535 -3.248992 122.000000
20.885019 -8.239462 -3.175344 124.000000
8.972303 10.969823 -1.170112 1.000000
23.744297 12.030541 -3.324901 6.000000
22.343985 1.088894 -3.247555 119.000000
20.770567 -8.106460 -3.165313 38.000000
23.786562 12.161723 -3.313364 7.000000
22.692400 1.189258 -3.286659 7.000000
20.657345 -7.971006 -3.151256 17.000000
23.831051 12.294855 -3.316312 7.000000
22.770510 1.281043 -3.306787 7.000000
20.712622 -7.905240 -3.167092 11.000000
16.808439 -16.703159 -2.657977 6.000000
23.687138 12.330744 -3.278894 7.000000
22.761297 1.364230 -3.302090 7.000000
20.739902 -7.828684 -3.178699 105.000000
16.815166 -16.587795 -2.666107 2.000000
23.831730 12.517244 -3.295700 7.000000
22.746012 1.450987 -3.300657 7.000000
20.476130 -7.639422 -3.145433 27.000000
16.685728 -16.339872 -2.660841 5.000000
22.657185 1.528721 -3.284511 7.000000
20.349745 -7.507417 -3.129499 10.000000
10.975481 -10.673189 -1.757822 6.000000
24.366726 13.021552 -3.348230 6.000000
22.730688 1.613406 -3.295963 7.000000
20.484543 -7.480066 -3.158054 99.000000
11.019978 -10.645586 -1.778254 7.000000
24.808983 13.380611 -3.386088 7.000000
22.755358 1.706990 -3.288310 7.000000
20.123125 -7.252707 -3.109060 10.000000
11.004129 -10.545210 -1.782332 1.000000
25.042934 13.631179 -3.404946 7.000000
22.846466 1.798056 -3.310573 7.000000
20.153210 -7.180199 -3.117247 10.000000
25.006901 13.730615 -3.396767 7.000000
22.933680 1.893551 -3.320139 7.000000
20.084518 -7.072876 -3.113978 81.000000
25.133259 13.920126 -3.390328 8.000000
22.760666 1.963283 -3.283901 7.000000
20.306227 -7.063430 -3.155623 92.000000
15.705789 -14.728098 -2.578864 8.000000
25.178991 14.066295 -3.388118 10.000000
22.762817 2.051551 -3.285324 7.000000
20.555485 -7.065784 -3.198064 27.000000
15.808879 -14.716247 -2.606038 8.000000
25.090380 14.137703 -3.362763 9.000000
22.696583 2.129473 -3.272809 7.000000
15.671142 -14.481182 -2.597238 9.000000
25.264969 14.358334 -3.372630 8.000000
22.619844 2.209924 -3.258894 121.000000
19.695534 -6.605327 -3.074995 9.000000
15.609063 -14.318114 -2.596995 10.000000
25.274540 14.486585 -3.360363 7.000000
22.464432 2.277893 -3.233663 150.000000
19.718081 -6.532588 -3.085872 11.000000
15.721789 -14.315763 -2.629607 8.000000
25.296412 14.622555 -3.349706 7.000000
22.450600 2.363615 -3.232954 162.000000
19.582178 -6.404225 -3.068083 9.000000
15.650979 -14.146708 -2.627767 8.000000
25.472130 14.848949 -3.359305 7.000000
22.565355 2.459352 -3.246713 124.000000
19.627516 -6.339515 -3.082565 9.000000
15.505301 -13.912111 -2.613193 8.000000
18.786295 26.028683 -2.042068 1.000000
25.432398 14.950947 -3.340408 7.000000
22.523207 2.530363 -3.237801 121.000000
19.562614 -6.246989 -3.076431 9.000000
15.418385 -13.737279 -2.612415 8.000000
18.583612 25.938183 -1.985137 1.000000
25.709541 15.240943 -3.352428 7.000000
22.563057 2.622608 -3.240908 136.000000
19.562878 -6.164398 -3.072727 10.000000
15.229136 -13.468863 -2.589996 8.000000
18.444786 25.935158 -1.952087 1.000000
21.808250 13.036465 -2.831966 7.000000
22.583342 2.708892 -3.241176 98.000000
19.523516 -6.065949 -3.080939 10.000000
15.127619 -13.280584 -2.582290 8.000000
18.411205 26.089878 -1.925078 1.000000
21.553457 12.991617 -2.787257 9.000000
22.637197 2.803565 -3.246364 7.000000
19.451096 -5.961649 -3.073139 10.000000
15.006258 -13.076962 -2.571032 8.000000
21.375156 12.980974 -2.760915 6.000000
22.941599 2.926678 -3.287416 7.000000
19.356178 -5.862411 -3.062275 9.000000
14.894545 -12.883869 -2.564755 8.000000
18.097317 26.028933 -1.833479 1.000000
21.147617 12.949124 -2.711356 7.000000
23.079678 3.030302 -3.296338 7.000000
19.590683 -5.855132 -3.095960 32.000000
14.917025 -12.817082 -2.575257 8.000000
18.042740 26.154442 -1.798702 1.000000
21.002073 12.971145 -2.681624 7.000000
22.993711 3.108872 -3.289872 7.000000
19.325937 -5.695264 -3.068630 9.000000
14.871977 -12.674958 -2.579492 8.000000
17.989054 26.272352 -1.769033 1.000000
20.723883 12.904499 -2.634881 17.000000
23.106461 3.210397 -3.295205 7.000000
19.190046 -5.578856 -3.043787 9.000000
14.966148 -12.660814 -2.601685 8.000000
20.589876 12.916006 -2.606110 23.000000
19.207867 2.743946 -2.737257 4.000000
19.058256 -5.461267 -3.026616 9.000000
13.052296 -10.959942 -2.277123 6.000000
20.367903 12.890986 -2.559014 23.000000
19.010540 -5.372274 -3.022947 9.000000
13.014713 -10.847299 -2.278666 7.000000
20.213404 12.897206 -2.524366 31.000000
19.059917 -5.300115 -3.037844 198.000000
12.949767 -10.712979 -2.275339 6.000000
20.071602 12.900586 -2.495145 20.000000
19.072113 -5.235433 -3.040537 9.000000
12.750018 -10.469256 -2.248147 7.000000
19.875063 12.887298 -2.460407 18.000000
19.323885 -5.228460 -3.084753 19.000000
19.721241 12.890476 -2.426417 24.000000
16.301502 2.640267 -2.312065 5.000000
19.337481 -5.152534 -3.094471 10.000000
12.650060 -10.232855 -2.246168 7.000000
13.183024 20.315598 -1.142096 7.000000
19.567276 12.882650 -2.400321 22.000000
16.156115 2.677525 -2.284079 1.000000
19.327560 -5.074096 -3.089886 10.000000
12.608710 -10.123179 -2.246604 7.000000
44.592266 69.246727 -3.797679 30.000000
19.412340 12.887762 -2.358605 26.000000
15.824721 2.682234 -2.232892 1.000000
19.250175 -4.974850 -3.081545 10.000000
12.629011 -10.063576 -2.255126 7.000000
44.336258 69.326675 -3.708051 212.000000
19.263336 12.881079 -2.329335 22.000000
19.458761 -4.952743 -3.119186 30.000000
12.668145 -10.019066 -2.269913 7.000000
14.619596 23.054581 -1.187135 4.000000
19.122448 12.888544 -2.301735 24.000000
15.341640 2.718951 -2.162003 106.000000
19.132040 -4.791439 -3.067367 39.000000
12.683747 -9.956057 -2.280506 7.000000
14.503735 23.058306 -1.156003 6.000000
18.965225 12.893594 -2.268812 22.000000
15.303810 2.770138 -2.147022 6.000000
19.154270 -4.722467 -3.068135 9.000000
12.805124 -9.975698 -2.304410 7.000000
14.455637 23.160830 -1.125192 5.000000
18.857893 12.921940 -2.241479 26.000000
15.351874 2.839759 -2.152503 1.000000
19.108805 -4.633499 -3.065010 8.000000
13.846026 -10.705287 -2.503353 7.000000
18.742815 12.934629 -2.212825 19.000000
15.220416 2.873176 -2.130023 1.000000
19.119812 -4.562035 -3.071102 7.000000
13.903412 -10.668464 -2.519128 7.000000
28.095795 45.722687 -2.070983 13.000000
18.641920 12.961298 -2.186242 22.000000
15.327106 2.954310 -2.138199 3.000000
19.006292 -4.457885 -3.057077 7.000000
13.733835 -10.454804 -2.496486 7.000000
27.900721 45.762581 -2.012158 18.000000
18.497564 12.971389 -2.155504 17.000000
15.205104 2.988635 -2.117182 7.000000
19.040712 -4.392395 -3.066993 6.000000
13.679515 -10.334481 -2.494987 7.000000
27.853367 46.027626 -1.963324 5.000000
18.407488 12.999494 -2.126209 10.000000
15.336350 3.067289 -2.134082 1.000000
19.038170 -4.314885 -3.063892 7.000000
13.494658 -10.124712 -2.467162 7.000000
26.652210 44.391815 -1.817180 17.000000
18.332533 13.047524 -2.107212 9.000000
15.334898 3.128283 -2.129971 1.000000
18.947269 -4.221330 -3.050224 7.000000
13.467152 -10.027141 -2.464378 13.000000
26.447063 44.400597 -1.750534 17.000000
18.306303 13.130204 -2.089885 8.000000
15.343096 3.188575 -2.129932 1.000000
19.063622 -4.170485 -3.073334 7.000000
13.414557 -9.911764 -2.462960 10.000000
26.287895 44.485840 -1.687067 15.000000
18.427000 13.314432 -2.092950 6.000000
15.239933 3.225450 -2.111700 1.000000
19.034271 -4.091020 -3.073130 7.000000
13.376698 -9.801023 -2.463554 35.000000
26.211969 44.712975 -1.619759 17.000000
18.416361 13.409756 -2.069244 4.000000
15.223672 3.283132 -2.102875 3.000000
19.045532 -4.016995 -3.068953 7.000000
13.431484 -9.765709 -2.475923 37.000000
26.117004 44.909561 -1.560038 17.000000
12.839705 9.421354 -1.435318 9.000000
15.217806 3.340283 -2.092667 1.000000
18.947847 -3.923911 -3.057797 7.000000
13.374885 -9.646271 -2.473356 36.000000
25.981127 45.036934 -1.488643 5.000000
12.752070 9.425707 -1.409662 9.000000
15.186828 3.391875 -2.084573 7.000000
19.190250 -3.897325 -3.094478 6.000000
13.349118 -9.560555 -2.474437 72.000000
27.074842 47.332790 -1.504091 19.000000
12.630346 9.407514 -1.388927 12.000000
15.223685 3.458736 -2.083038 10.000000
19.218405 -3.829753 -3.100240 7.000000
13.325517 -9.462953 -2.474672 58.000000
27.043537 47.663326 -1.444585 15.000000
12.537371 9.409903 -1.363188 6.000000
15.191685 3.512863 -2.074950 38.000000
19.222212 -3.753831 -3.105514 7.000000
13.285963 -9.361802 -2.472545 64.000000
26.691647 47.428089 -1.358584 18.000000
12.457893 9.418413 -1.341636 5.000000
15.180113 3.568850 -2.064064 45.000000
19.066612 -3.650948 -3.074719 7.000000
13.251521 -9.261592 -2.471049 45.000000
26.439119 47.365456 -1.278353 18.000000
15.177972 3.627102 -2.054482 47.000000
19.284353 -3.615936 -3.107571 6.000000
13.257090 -9.200198 -2.472149 53.000000
26.347099 47.590176 -1.205936 18.000000
15.155984 3.680622 -2.045011 39.000000
19.381203 -3.557116 -3.117428 6.000000
13.216387 -9.100362 -2.466922 44.000000
26.329163 47.538193 -1.166779 18.000000
15.172512 3.684635 -2.030612 69.000000
19.796812 -3.633395 -3.166276 7.000000
13.345600 -9.185901 -2.479165 21.000000
26.438377 47.344707 -1.211632 18.000000
15.157666 3.622250 -2.021303 78.000000
19.858252 -3.723546 -3.160301 8.000000
13.497456 -9.363519 -2.490264 10.000000
26.826115 47.647568 -1.269514 19.000000
12.529694 9.469259 -1.310540 1.000000
15.181461 3.566371 -2.019867 110.000000
20.022409 -3.830345 -3.166772 7.000000
13.574584 -9.490910 -2.493154 9.000000
26.954592 47.487251 -1.324955 19.000000
12.647470 9.485639 -1.327549 7.000000
15.194430 3.510704 -2.019867 71.000000
20.163273 -3.937607 -3.187747 9.000000
13.638848 -9.610458 -2.493545 7.000000
27.030907 47.217731 -1.377201 18.000000
12.671577 9.434786 -1.340499 9.000000
15.173262 3.444496 -2.020803 85.000000
20.252657 -4.032178 -3.189431 8.000000
13.702435 -9.730617 -2.493684 7.000000
27.197201 47.125927 -1.443804 9.000000
12.805294 9.461592 -1.364962 7.000000
15.180945 3.387780 -2.020159 10.000000
20.290838 -4.120842 -3.194212 7.000000
13.784740 -9.865267 -2.503133 7.000000
25.973490 44.644848 -1.415667 17.000000
12.911619 9.467192 -1.381033 1.000000
15.221975 3.338413 -2.026742 1.000000
20.285990 -4.204719 -3.181274 7.000000
13.895058 -10.021431 -2.511488 7.000000
26.161148 44.608437 -1.480629 17.000000
15.316387 3.297532 -2.043174 1.000000
20.291079 -4.279699 -3.180691 9.000000
14.078340 -10.236022 -2.536188 7.000000
26.201416 44.304173 -1.536647 17.000000
15.187698 3.211626 -2.024423 1.000000
20.504551 -4.403282 -3.201678 8.000000
14.202172 -10.405843 -2.549661 7.000000
26.403545 44.292358 -1.602482 17.000000
15.281546 3.173002 -2.038139 5.000000
20.430092 -4.469424 -3.188973 7.000000
14.345245 -10.591694 -2.563236 7.000000
26.626755 44.314362 -1.651791 17.000000
15.235318 3.102430 -2.030370 10.000000
20.546026 -4.573759 -3.194629 7.000000
14.300176 -10.639623 -2.546260 5.000000
26.909649 44.433113 -1.723240 17.000000
15.187900 3.034842 -2.025304 6.000000
20.625824 -4.674716 -3.202252 7.000000
14.420931 -10.811807 -2.561961 4.000000
27.917412 45.754013 -1.834242 18.000000
18.535711 12.978845 -2.043375 5.000000
15.260425 2.996742 -2.039161 6.000000
20.686174 -4.768175 -3.210524 7.000000
14.486404 -10.944063 -2.558076 5.000000
18.708452 12.997871 -2.077196 9.000000
15.321879 2.942210 -2.042938 5.000000
20.539684 -4.813757 -3.182972 8.000000
14.747046 -11.226106 -2.598155 1.000000
14.462017 23.315758 -1.001264 2.000000
18.820358 12.973602 -2.100420 25.000000
15.214934 2.863892 -2.032762 1.000000
20.460678 -4.878195 -3.158592 107.000000
14.632936 -11.224190 -2.568874 7.000000
14.460649 23.132891 -1.024181 6.000000
18.973106 12.976570 -2.132375 6.000000
15.488734 2.853894 -2.070660 1.000000
20.338007 -4.927797 -3.134952 97.000000
14.761973 -11.409349 -2.582256 1.000000
14.573962 23.125154 -1.059640 7.000000
18.973991 12.875356 -2.143303 24.000000
15.371542 2.774087 -2.059166 1.000000
20.391487 -5.023727 -3.142398 140.000000
14.894144 -11.598950 -2.592650 1.000000
14.640600 23.052105 -1.087270 1.000000
19.036638 12.816218 -2.157181 31.000000
15.532331 2.749951 -2.076672 1.000000
20.442226 -5.115772 -3.138046 143.000000
15.017000 -11.783299 -2.604566 8.000000
44.381588 69.344215 -3.378708 163.000000
19.253834 12.865001 -2.193001 34.000000
20.465567 -5.205197 -3.144675 144.000000
15.049335 -11.898048 -2.600669 8.000000
44.659336 69.244629 -3.467866 39.000000
19.486263 12.917251 -2.230536 18.000000
16.089062 2.724150 -2.157006 1.000000
20.458048 -5.283193 -3.131397 132.000000
15.135655 -12.056705 -2.602571 8.000000
13.222199 20.337082 -1.046378 7.000000
19.610855 12.896627 -2.260043 10.000000
15.815848 2.612625 -2.121800 1.000000
20.485575 -5.378111 -3.131334 146.000000
15.363685 -12.330660 -2.632034 8.000000
13.200606 20.164959 -1.064937 1.000000
19.773371 12.899936 -2.289944 13.000000
16.480190 2.663305 -2.212630 1.000000
21.146482 -5.630596 -3.227537 7.000000
15.428083 -12.475591 -2.633261 8.000000
19.928133 12.897020 -2.314924 19.000000
21.246178 -5.740616 -3.238094 7.000000
15.726068 -12.812162 -2.674106 8.000000
20.116274 12.914419 -2.348114 24.000000
15.849412 -13.009592 -2.684967 8.000000
20.254417 12.898519 -2.375631 23.000000
20.332462 -5.657804 -3.090168 8.000000
15.849274 -13.107002 -2.674810 8.000000
20.405312 12.889735 -2.404788 10.000000
20.098389 -5.675907 -3.042992 27.000000
20.606976 12.911700 -2.440108 23.000000
19.042616 2.713556 -2.563078 4.000000
21.415134 -6.132602 -3.237795 8.000000
18.063789 26.351891 -1.624044 1.000000
20.779911 12.924294 -2.464125 25.000000
24.957569 3.463149 -3.361957 7.000000
20.409929 -5.925770 -3.081504 188.000000
16.381245 -13.843225 -2.728421 8.000000
18.066725 26.159893 -1.649469 1.000000
20.956079 12.917488 -2.509231 10.000000
24.807436 3.349688 -3.344504 7.000000
20.340586 -5.990417 -3.066928 163.000000
16.418333 -13.987928 -2.720980 18.000000
18.267456 26.224781 -1.697325 1.000000
21.156542 12.939363 -2.545305 14.000000
24.716347 3.240804 -3.334950 8.000000
20.343740 -6.072465 -3.059391 166.000000
16.502987 -14.159766 -2.723908 11.000000
18.371653 26.198492 -1.732955 1.000000
21.315239 12.934404 -2.572143 10.000000
24.884794 3.170159 -3.360544 7.000000
20.591297 -6.232568 -3.092530 6.000000
16.592909 -14.332726 -2.727148 9.000000
18.398384 26.042753 -1.765965 1.000000
21.609983 12.999992 -2.623912 11.000000
24.861773 3.070262 -3.360270 8.000000
20.417927 -6.261875 -3.062310 3.000000
16.668009 -14.514834 -2.729461 8.000000
18.634502 26.172892 -1.813159 1.000000
21.887314 13.057817 -2.660750 9.000000
24.857515 2.977280 -3.362645 7.000000
20.480938 -6.363420 -3.067599 6.000000
16.963797 -14.882090 -2.762822 8.000000
18.669355 26.029058 -1.841351 1.000000
27.308714 16.156763 -3.334980 19.000000
24.409899 2.832957 -3.305032 115.000000
20.373909 -6.416051 -3.036216 236.000000
17.115492 -15.126539 -2.776309 8.000000
27.563009 16.171122 -3.381333 13.000000
24.479115 2.745773 -3.317329 163.000000
20.313536 -6.478970 -3.023144 171.000000
17.314209 -15.415560 -2.793057 8.000000
27.736084 16.136305 -3.417941 20.000000
24.509295 2.658233 -3.315696 122.000000
17.289328 -15.507380 -2.773522 8.000000
27.934271 16.127859 -3.452836 14.000000
24.474390 2.559407 -3.313993 161.000000
22.177294 -7.257227 -3.287760 14.000000
17.433104 -15.752018 -2.785036 8.000000
28.099194 16.073029 -3.499510 8.000000
24.402998 2.461555 -3.316158 153.000000
22.306740 -7.390209 -3.302578 11.000000
17.571312 -15.994269 -2.799641 7.000000
28.082108 15.939895 -3.502183 8.000000
24.416786 2.372576 -3.316828 156.000000
22.257668 -7.464594 -3.286807 10.000000
17.736818 -16.258497 -2.813751 8.000000
28.263821 15.906353 -3.540461 8.000000
24.691545 2.303606 -3.357333 75.000000
22.398726 -7.607703 -3.303508 9.000000
17.894915 -16.524519 -2.818259 8.000000
28.264505 15.757677 -3.555457 7.000000
24.926243 2.233378 -3.392557 8.000000
22.306755 -7.667770 -3.281476 9.000000
18.003328 -16.747301 -2.823238 9.000000
27.870811 15.404560 -3.532562 4.000000
25.106445 2.156796 -3.420463 6.000000
22.382490 -7.785649 -3.288361 8.000000
18.399994 -17.242521 -2.877499 8.000000
27.105642 14.852206 -3.450501 1.000000
24.867641 2.040123 -3.386837 8.000000
22.368067 -7.877039 -3.278006 8.000000
27.878744 15.143224 -3.558646 2.000000
24.879301 1.949306 -3.391865 7.000000
22.424109 -7.989276 -3.282020 8.000000
26.902363 14.491488 -3.438336 1.000000
25.011309 1.863051 -3.399945 8.000000
22.461533 -8.095508 -3.279080 6.000000
11.061914 -10.593180 -1.699025 7.000000
27.418453 14.627794 -3.518736 3.000000
25.031013 1.772291 -3.415100 6.000000
22.477894 -8.199060 -3.277531 6.000000
11.006192 -10.617425 -1.682924 4.000000
27.192944 14.391847 -3.499968 4.000000
25.043173 1.676537 -3.411393 7.000000
22.305212 -8.228827 -3.244047 8.000000
11.164517 -10.849439 -1.696704 1.000000
26.230505 13.759646 -3.401004 1.000000
25.141344 1.599382 -3.432981 7.000000
22.346121 -8.337095 -3.241699 7.000000
16.839993 -16.473675 -2.546710 2.000000
26.490717 13.772570 -3.444014 4.000000
25.003550 1.489864 -3.417775 7.000000
22.312363 -8.417790 -3.228540 8.000000
16.764341 -16.526115 -2.519911 9.000000
26.561308 13.674108 -3.467163 2.000000
25.014032 1.394122 -3.418451 8.000000
22.313335 -8.516171 -3.224899 8.000000
16.818110 -16.701103 -2.516258 10.000000
26.477156 13.519902 -3.460824 2.000000
24.949255 1.307535 -3.408988 7.000000
22.348267 -8.623478 -3.221724 9.000000
25.585070 12.935160 -3.357693 7.000000
24.558815 1.192533 -3.350617 124.000000
22.424267 -8.747366 -3.224450 9.000000
25.585243 12.828896 -3.377437 7.000000
24.517309 1.100461 -3.353108 149.000000
22.415133 -8.843116 -3.215153 9.000000
9.167544 11.026688 -1.138645 2.000000
25.323629 12.570759 -3.351224 7.000000
24.511047 1.001605 -3.356036 167.000000
22.457794 -8.955209 -3.213074 8.000000
9.171925 10.950066 -1.149251 1.000000
25.501156 12.553654 -3.389314 7.000000
24.534195 0.916780 -3.358747 157.000000
22.513206 -9.073081 -3.217117 9.000000
20.104019 -20.702312 -2.921065 1.000000
9.347481 11.080851 -1.181675 1.000000
25.723795 12.535220 -3.427386 7.000000
24.537390 0.826851 -3.358747 177.000000
22.563993 -9.189824 -3.216186 7.000000
20.682711 -21.455013 -2.985029 1.000000
25.467888 12.295211 -3.407290 7.000000
24.520580 0.732037 -3.356036 157.000000
22.608025 -9.309124 -3.214509 8.000000
20.565115 -21.482597 -2.947410 1.000000
25.495382 12.187996 -3.419695 7.000000
24.596792 0.644090 -3.370496 150.000000
22.607344 -9.405900 -3.206250 8.000000
25.287052 11.974740 -3.400707 7.000000
25.010143 0.558825 -3.426818 5.000000
22.693098 -9.539300 -3.210240 9.000000
8.894370 10.242629 -1.160584 1.000000
25.419352 11.934356 -3.428080 7.000000
25.031834 0.467524 -3.429532 5.000000
22.737112 -9.656015 -3.208298 8.000000
17.880661 -19.087648 -2.513782 1.000000
8.881579 10.152494 -1.173026 1.000000
25.172749 11.706168 -3.408685 5.000000
24.973940 0.374883 -3.421390 8.000000
22.817034 -9.788822 -3.211398 8.000000
18.103571 -19.468130 -2.531723 7.000000
8.855615 10.048258 -1.174147 5.000000
24.993002 11.511355 -3.393235 6.000000
25.143610 0.280869 -3.444461 6.000000
22.853617 -9.908591 -3.208618 7.000000
17.929211 -19.422897 -2.489349 9.000000
8.760740 9.877872 -1.171381 3.000000
25.015348 11.410698 -3.405185 3.000000
24.931467 0.187112 -3.415282 8.000000
22.894865 -10.016800 -3.205754 6.000000
17.842871 -19.465256 -2.458885 18.000000
8.749572 9.785864 -1.180791 5.000000
24.576817 11.086532 -3.358252 7.000000
25.164825 0.092234 -3.447176 7.000000
22.978983 -10.163696 -3.205391 7.000000
18.161833 -19.959595 -2.484404 22.000000
8.786101 9.764807 -1.195444 5.000000
24.648750 11.031082 -3.377954 7.000000
25.244255 0.000000 -3.458033 7.000000
23.006510 -10.276855 -3.201056 6.000000
18.103642 -20.042728 -2.457955 14.000000
8.717327 9.617245 -1.194989 6.000000
25.148190 -0.083395 -3.458308 7.000000
23.084049 -10.408301 -3.212390 6.000000
8.745098 9.577105 -1.205390 6.000000
16.827845 7.376400 -2.324378 211.000000
25.163145 -0.180067 -3.455960 8.000000
23.165676 -10.547442 -3.206539 7.000000
