VERSION .7
FIELDS x y z intensity
SIZE 4 4 4 4
TYPE F F F F
COUNT 1 1 1 1
WIDTH 1221
HEIGHT 1
VIEWPOINT 0 0 0 1 0 0 0
POINTS 1221
DATA ascii
14.905782 9.350380 -1.871130 12.000000
21.591982 3.084529 -3.061481 6.000000
10.535191 -3.018927 -1.665251 192.000000
12.366364 -10.391333 -2.149480 10.000000
15.019041 9.344893 -1.893525 18.000000
21.512051 2.981217 -3.044486 7.000000
10.543623 -3.065201 -1.660590 255.000000
12.371523 -10.473268 -2.139762 10.000000
15.149363 9.349133 -1.918194 6.000000
21.462410 2.901832 -3.039936 7.000000
10.532873 -3.103989 -1.656757 226.000000
12.374313 -10.550000 -2.129277 8.000000
15.424046 9.440763 -1.961352 1.000000
21.576948 2.825336 -3.058329 7.000000
10.501935 -3.140744 -1.649947 6.000000
12.404672 -10.654643 -2.126693 7.000000
15.568433 9.450875 -1.981727 1.000000
21.001211 2.679141 -2.979216 15.000000
17.240587 -5.221661 -2.698637 6.000000
12.487211 -10.805323 -2.130037 7.000000
15.792789 9.508032 -2.025371 1.000000
21.129210 2.609315 -2.999654 160.000000
17.371197 -5.337441 -2.719170 6.000000
12.833977 -11.187905 -2.181064 7.000000
15.835461 9.454819 -2.032901 8.000000
21.095348 2.522937 -2.989667 164.000000
17.433598 -5.426623 -2.719002 6.000000
9.290819 12.958158 -0.983599 1.000000
15.864196 9.393274 -2.048443 7.000000
21.029125 2.436872 -2.990301 154.000000
17.474400 -5.513010 -2.725378 7.000000
14.667808 -12.976980 -2.474078 9.000000
9.185567 12.712705 -0.986753 1.000000
16.051540 9.424915 -2.081316 6.000000
21.100941 2.370579 -3.003098 138.000000
17.486103 -5.580527 -2.716978 9.000000
14.673923 -13.078583 -2.462268 13.000000
9.446677 12.978403 -1.023994 1.000000
16.261084 9.467977 -2.113948 1.000000
21.000690 2.281405 -2.991381 157.000000
17.620758 -5.698143 -2.734674 8.000000
14.668411 -13.170458 -2.448462 10.000000
9.420261 12.847614 -1.038600 1.000000
23.358534 13.486056 -3.058779 5.000000
21.107248 2.211012 -3.009106 126.000000
17.703173 -5.796550 -2.750743 8.000000
14.775872 -13.365085 -2.460437 30.000000
9.389550 12.707793 -1.046690 1.000000
23.401636 13.396821 -3.077042 6.000000
21.085657 2.130649 -3.004894 137.000000
17.748911 -5.883640 -2.751179 10.000000
14.901099 -13.577986 -2.468129 24.000000
9.370642 12.590014 -1.056185 1.000000
23.255239 13.200080 -3.060866 7.000000
21.443352 2.079870 -3.058491 9.000000
17.894743 -6.015294 -2.764201 8.000000
15.074619 -13.832718 -2.486733 14.000000
9.429733 12.582079 -1.071921 1.000000
22.578699 12.706871 -2.983996 7.000000
21.510160 2.010584 -3.063154 7.000000
15.069782 -13.930365 -2.468902 10.000000
9.641098 12.770966 -1.110516 1.000000
22.419443 12.509270 -2.975031 29.000000
21.279131 1.910343 -3.040649 7.000000
15.365363 -14.308391 -2.507316 10.000000
9.762743 12.834009 -1.133242 1.000000
22.385092 12.382734 -2.982532 117.000000
21.134468 1.815579 -3.011404 7.000000
9.439493 -3.287180 -1.449275 255.000000
15.285437 -14.338925 -2.484285 8.000000
22.398016 12.282887 -2.996313 140.000000
21.268730 1.748608 -3.033402 7.000000
9.441860 -3.326856 -1.447933 235.000000
15.476480 -14.625150 -2.501420 11.000000
9.891416 12.807233 -1.176993 1.000000
22.493855 12.228421 -3.016709 102.000000
21.412939 1.677714 -3.056852 7.000000
9.415746 -3.358352 -1.440552 28.000000
15.581612 -14.827799 -2.507735 22.000000
10.116731 13.009562 -1.216014 1.000000
22.536663 12.144893 -3.034582 107.000000
21.403072 1.598036 -3.062231 7.000000
18.528835 -6.685407 -2.828002 105.000000
15.668885 -15.020672 -2.507588 9.000000
22.701773 12.126709 -3.069031 15.000000
21.335518 1.510636 -3.047904 7.000000
18.514433 -6.757006 -2.822544 114.000000
15.836839 -15.293458 -2.523954 8.000000
22.660805 11.998278 -3.075684 7.000000
21.340380 1.432391 -3.051637 7.000000
18.610462 -6.873143 -2.830586 141.000000
16.046082 -15.609583 -2.542654 8.000000
22.465837 11.789826 -3.056813 7.000000
21.434404 1.359806 -3.064349 7.000000
18.614355 -6.952217 -2.824420 43.000000
16.068411 -15.746343 -2.535437 8.000000
22.131754 11.511244 -3.032101 7.000000
21.190826 1.262679 -3.040153 7.000000
18.793905 -7.097877 -2.844862 115.000000
16.259277 -16.045023 -2.550153 8.000000
22.108669 11.391595 -3.031734 7.000000
21.343565 1.193291 -3.061418 7.000000
18.805693 -7.181196 -2.843443 114.000000
16.547651 -16.449745 -2.580086 8.000000
28.719614 35.339478 -3.663888 1.000000
21.578667 11.018611 -2.966373 7.000000
21.294292 1.115987 -3.046178 7.000000
18.820938 -7.269944 -2.839173 118.000000
16.488831 -16.511869 -2.559723 8.000000
28.786694 35.170464 -3.704667 4.000000
21.586060 10.922826 -2.979010 9.000000
20.897619 1.011096 -2.992555 148.000000
19.007715 -7.422266 -2.860539 96.000000
16.605055 -16.750595 -2.562285 8.000000
21.495914 10.778434 -2.973880 42.000000
20.807398 0.926664 -2.979103 195.000000
18.954140 -7.481524 -2.845705 101.000000
16.872379 -17.139513 -2.591517 8.000000
21.470268 10.667276 -2.990396 138.000000
20.779423 0.849118 -2.985745 195.000000
19.060036 -7.608040 -2.855015 103.000000
17.089323 -17.487637 -2.608766 8.000000
21.498909 10.583437 -3.001705 116.000000
20.742962 0.767860 -2.980061 170.000000
19.088522 -7.700640 -2.852505 106.000000
17.224350 -17.755537 -2.613098 9.000000
21.563368 10.517157 -3.013809 97.000000
20.766464 0.692523 -2.975650 176.000000
19.157869 -7.810382 -2.856086 101.000000
17.281143 -17.938955 -2.609221 9.000000
21.689674 10.480529 -3.038886 31.000000
20.788435 0.624249 -2.978486 164.000000
19.143774 -7.886586 -2.850911 122.000000
17.567755 -18.370762 -2.635736 10.000000
21.641394 10.368818 -3.048564 17.000000
20.754486 0.543475 -2.984395 151.000000
19.247341 -8.015837 -2.859773 112.000000
17.810392 -18.761679 -2.655061 9.000000
21.515745 24.961443 -2.935316 1.000000
21.431730 10.158204 -3.029836 6.000000
20.815876 0.461474 -2.992932 134.000000
19.269436 -8.108041 -2.856301 92.000000
18.060612 -19.158754 -2.674455 9.000000
22.063444 25.425869 -3.028130 2.000000
21.332705 10.015679 -3.023168 6.000000
21.188478 0.395741 -3.046288 7.000000
19.355410 -8.227847 -2.858541 107.000000
18.273989 -19.528009 -2.693055 9.000000
21.917324 25.080086 -3.031207 6.000000
21.421309 9.961623 -3.047296 6.000000
21.105770 0.309449 -3.034194 7.000000
19.385681 -8.324739 -2.856248 129.000000
18.752766 -20.187445 -2.745355 9.000000
21.258057 9.791102 -3.031406 6.000000
21.151260 0.236272 -3.040597 7.000000
19.495855 -8.460860 -2.865915 159.000000
18.889925 -20.477985 -2.746421 9.000000
21.166039 9.654844 -3.025605 6.000000
21.142086 0.158673 -3.039174 7.000000
19.502394 -8.548776 -2.860112 132.000000
19.028074 -20.780060 -2.752737 9.000000
21.064289 9.515318 -3.018363 6.000000
21.167286 0.077583 -3.042731 7.000000
19.535740 -8.648891 -2.858244 156.000000
19.342352 -21.279341 -2.774003 9.000000
18.969923 21.097836 -2.696943 7.000000
20.675097 9.252748 -2.970011 8.000000
21.083292 0.000000 -3.030637 7.000000
19.622910 -8.773643 -2.864228 154.000000
19.456656 -21.555786 -2.770481 10.000000
18.934645 20.911322 -2.711345 7.000000
19.093557 8.461101 -2.753179 7.000000
21.196474 -0.070290 -3.050699 7.000000
19.688400 -8.885517 -2.866787 183.000000
19.987005 -22.307192 -2.831249 8.000000
18.827814 20.640779 -2.719648 7.000000
18.765760 8.241500 -2.716516 131.000000
21.142139 -0.151293 -3.039174 7.000000
19.706682 -8.980852 -2.862684 142.000000
20.053238 -22.531002 -2.829955 8.000000
18.716038 20.374939 -2.722462 7.000000
18.603638 8.089092 -2.699546 152.000000
21.160177 -0.228984 -3.049407 7.000000
19.782618 -9.103171 -2.870809 28.000000
20.042358 -22.677681 -2.807604 10.000000
18.653471 20.158028 -2.731638 7.000000
18.524429 7.970215 -2.690756 162.000000
21.160204 -0.310247 -3.042020 7.000000
19.949213 -9.268581 -2.880367 10.000000
20.024063 -22.825029 -2.773986 28.000000
18.589579 19.941860 -2.740395 7.000000
18.421871 7.838600 -2.689051 147.000000
21.118280 -0.387056 -3.043702 7.000000
20.023289 -9.392382 -2.892087 10.000000
20.137747 -23.125040 -2.779873 25.000000
18.384737 19.584604 -2.728520 7.000000
18.346014 7.734571 -2.684833 122.000000
20.914913 -0.460017 -3.007160 7.000000
20.213396 -9.576418 -2.904985 8.000000
20.065939 -23.205641 -2.737944 40.000000
18.314302 19.366831 -2.735718 5.000000
18.275002 7.618378 -2.680500 94.000000
20.931730 -0.540805 -3.017315 7.000000
20.241699 -9.680828 -2.906168 17.000000
19.956039 -23.250240 -2.712998 46.000000
18.095356 18.995356 -2.715732 7.000000
18.221016 7.525047 -2.679419 47.000000
20.919716 -0.617228 -3.015889 7.000000
20.354816 -9.826758 -2.915528 9.000000
19.818436 -23.253672 -2.673067 40.000000
18.272842 19.048088 -2.764972 4.000000
18.191446 7.423791 -2.680953 37.000000
20.982018 -0.699711 -3.021496 128.000000
20.476526 -9.978223 -2.922014 9.000000
19.747738 -23.343489 -2.642792 79.000000
16.937679 17.527231 -2.579010 5.000000
18.180481 7.341701 -2.685811 90.000000
20.756758 -0.768371 -2.989443 148.000000
20.614756 -10.139249 -2.934797 6.000000
19.616634 -23.353352 -2.603966 35.000000
16.892406 17.352654 -2.588061 7.000000
18.168287 7.259441 -2.697457 102.000000
20.816893 -0.850650 -3.005975 134.000000
20.725901 -10.288426 -2.939552 7.000000
19.564550 -23.465443 -2.576227 94.000000
16.181894 16.507107 -2.494848 6.000000
18.144894 7.180408 -2.700846 32.000000
20.809738 -0.926768 -2.997991 134.000000
20.930746 -10.481337 -2.961323 7.000000
19.496941 -23.551008 -2.545892 69.000000
16.139463 16.343563 -2.499334 6.000000
18.215004 7.120052 -2.717256 26.000000
20.815390 -1.007118 -3.003052 134.000000
21.031076 -10.637387 -2.973177 6.000000
19.392912 -23.600920 -2.516747 12.000000
16.148331 16.233107 -2.515741 6.000000
18.170366 7.025939 -2.717135 32.000000
20.742365 -1.079801 -2.993068 136.000000
21.104725 -10.771960 -2.968146 6.000000
19.411877 -23.801313 -2.498133 10.000000
16.148155 16.131252 -2.532000 8.000000
18.155682 6.951141 -2.718396 31.000000
20.866945 -1.159337 -3.011610 119.000000
21.321266 -10.971759 -2.995200 8.000000
19.496820 -24.076569 -2.481768 10.000000
16.242651 16.095901 -2.560909 9.000000
18.190166 6.884378 -2.729965 26.000000
20.783604 -1.238414 -2.996566 98.000000
21.455015 -11.149744 -3.003110 6.000000
19.775406 -24.604437 -2.495426 10.000000
16.345659 16.079666 -2.592156 10.000000
18.190752 6.808482 -2.736660 38.000000
20.897463 -1.322081 -3.013660 7.000000
21.744999 -11.401860 -3.036475 8.000000
19.666145 -24.644175 -2.459258 9.000000
16.487835 16.101046 -2.629771 6.000000
18.224976 6.738008 -2.755013 12.000000
21.070524 -1.414278 -3.035617 7.000000
21.731249 -11.496394 -3.022994 9.000000
19.561798 -24.698553 -2.424321 10.000000
16.577944 16.076368 -2.655593 8.000000
18.257946 6.674233 -2.763203 9.000000
21.162872 -1.498412 -3.057251 7.000000
21.918503 -11.698476 -3.037381 8.000000
19.473944 -24.764751 -2.390948 9.000000
16.462990 15.848225 -2.652106 8.000000
18.282076 6.603587 -2.773381 26.000000
20.984760 -1.566803 -3.028619 7.000000
21.929321 -11.807723 -3.031622 8.000000
19.352089 -24.787374 -2.353477 15.000000
16.278069 15.555659 -2.640996 10.000000
18.318769 6.541039 -2.785685 36.000000
21.004074 -1.645679 -3.028503 7.000000
22.312151 -12.124597 -3.081964 10.000000
19.228765 -24.816395 -2.321977 10.000000
11.678989 11.079074 -1.902472 6.000000
18.339439 6.479931 -2.792475 28.000000
20.830492 -1.705258 -3.004314 7.000000
22.321678 -12.235957 -3.071423 92.000000
19.127234 -24.873121 -2.282169 10.000000
11.541012 10.875700 -1.888144 1.000000
18.330097 6.397567 -2.797667 32.000000
20.947905 -1.792186 -3.018431 7.000000
22.630949 -12.503264 -3.096777 21.000000
19.129736 -25.056892 -2.254175 14.000000
11.570358 10.819777 -1.902960 1.000000
18.320566 6.311854 -2.809586 10.000000
21.142321 -1.898061 -3.047563 7.000000
22.581989 -12.594798 -3.083239 22.000000
19.073462 -25.164820 -2.230186 11.000000
11.557784 10.728883 -1.908374 1.000000
18.389486 6.260292 -2.823541 21.000000
21.100199 -1.972265 -3.046288 8.000000
22.727486 -12.785383 -3.095635 64.000000
19.099661 -25.392179 -2.205107 11.000000
11.442260 10.543834 -1.899440 1.000000
18.353552 6.176653 -2.825051 30.000000
21.049377 -2.041657 -3.036195 8.000000
22.911242 -12.999534 -3.108484 7.000000
19.367456 -25.936169 -2.212406 12.000000
11.545238 10.568146 -1.927343 5.000000
18.210817 6.054403 -2.806488 11.000000
20.948717 -2.109425 -3.019019 140.000000
23.249256 -13.293428 -3.141352 7.000000
19.285515 -26.024860 -2.179850 12.000000
11.362057 10.324185 -1.906756 121.000000
18.155821 5.962308 -2.808253 9.000000
21.078678 -2.200581 -3.038891 157.000000
23.360100 -13.481524 -3.154072 6.000000
19.302105 -26.238220 -2.163512 12.000000
11.385736 10.273373 -1.918291 126.000000
18.017195 5.840238 -2.793454 6.000000
21.070601 -2.281558 -3.035192 141.000000
23.441671 -13.632425 -3.151983 6.000000
19.391439 -26.553339 -2.143556 13.000000
11.384608 10.196906 -1.930758 121.000000
17.787876 5.693944 -2.761307 6.000000
21.061569 -2.358711 -3.038891 148.000000
23.766193 -13.937967 -3.182973 6.000000
19.488535 -26.892700 -2.130246 13.000000
11.387534 10.124552 -1.935757 88.000000
17.727077 5.602935 -2.758610 9.000000
21.111885 -2.446462 -3.043697 110.000000
24.016150 -14.203111 -3.203662 6.000000
19.495129 -27.100389 -2.100343 13.000000
11.389572 10.051863 -1.945994 94.000000
17.685242 5.515112 -2.762004 7.000000
21.122959 -2.526239 -3.042820 122.000000
24.439445 -14.574615 -3.247107 6.000000
17.802269 -24.939444 -1.895582 10.000000
11.454638 10.034842 -1.967025 1.000000
17.520092 5.393231 -2.739647 8.000000
21.054684 -2.600112 -3.030622 102.000000
24.574162 -14.777322 -3.262040 6.000000
17.675661 -24.945765 -1.864581 74.000000
11.680591 10.157363 -2.015903 5.000000
17.416277 5.288149 -2.729963 6.000000
21.069036 -2.680320 -3.037864 9.000000
24.602495 -14.917414 -3.252692 6.000000
17.552446 -24.956083 -1.823349 110.000000
11.611325 10.022628 -2.011209 6.000000
17.358847 5.201300 -2.724422 6.000000
21.049782 -2.756307 -3.032743 7.000000
24.587740 -15.031991 -3.237629 6.000000
17.441917 -24.974525 -1.793784 152.000000
11.676490 10.004428 -2.032512 3.000000
17.371227 5.135700 -2.736326 6.000000
20.907120 -2.819322 -3.009969 9.000000
24.576700 -15.149265 -3.223056 6.000000
17.330250 -25.018728 -1.749527 194.000000
11.679513 9.936530 -2.043330 3.000000
17.456347 5.088061 -2.753129 6.000000
20.827484 -2.886347 -3.003752 7.000000
17.222328 -25.058643 -1.721272 10.000000
11.631191 9.822161 -2.042087 5.000000
17.425520 5.009856 -2.758302 1.000000
20.978477 -2.989415 -3.023388 7.000000
11.524965 9.660316 -2.033240 6.000000
15.580611 4.408869 -2.472000 1.000000
21.560547 -3.153030 -3.105039 7.000000
22.566074 -33.329948 -2.186942 10.000000
11.539885 9.601027 -2.042992 9.000000
15.665718 4.376894 -2.488997 2.000000
21.543922 -3.235139 -3.100532 7.000000
24.178717 -15.397610 -3.124168 8.000000
22.412119 -33.340183 -2.140534 10.000000
11.546604 9.535221 -2.053954 10.000000
15.704640 4.325779 -2.498465 2.000000
21.297693 -3.270418 -3.070476 7.000000
24.131859 -15.492378 -3.110236 7.000000
22.302176 -33.428059 -2.105999 8.000000
11.553269 9.469718 -2.062235 16.000000
15.624061 4.239107 -2.494606 1.000000
21.333231 -3.367403 -3.073760 7.000000
26.017393 -16.837849 -3.339297 7.000000
22.161285 -33.494751 -2.055624 9.000000
11.574411 9.416337 -2.078415 20.000000
15.886884 4.247963 -2.539944 5.000000
21.403822 -3.458996 -3.085737 7.000000
26.739256 -17.444405 -3.428857 7.000000
22.110785 -33.686073 -2.020074 9.000000
11.622841 9.385151 -2.094212 9.000000
15.992141 4.210380 -2.565990 5.000000
21.505100 -3.548579 -3.098137 7.000000
26.532236 -17.448315 -3.382459 7.000000
22.065990 -33.849159 -1.983270 9.000000
11.675047 9.356822 -2.110740 9.000000
16.766994 4.348731 -2.693935 3.000000
21.441772 -3.630454 -3.087305 9.000000
26.602684 -17.634655 -3.377124 7.000000
11.700068 9.306655 -2.122390 9.000000
16.639053 4.247427 -2.676878 5.000000
21.698448 -3.747973 -3.122114 7.000000
26.428194 -17.658756 -3.340730 7.000000
11.767314 9.289931 -2.144416 7.000000
16.615274 4.176551 -2.676698 5.000000
21.391397 -3.779580 -3.079999 7.000000
26.900948 -18.117607 -3.391692 7.000000
22.509989 -35.347218 -1.917606 4.000000
11.799808 9.245582 -2.157499 7.000000
16.604677 4.109242 -2.684782 6.000000
21.420425 -3.873444 -3.082517 7.000000
26.836315 -18.217405 -3.369048 7.000000
22.404667 -35.481796 -1.868853 1.000000
11.929177 9.276584 -2.193770 6.000000
16.533037 4.024207 -2.676766 6.000000
21.372168 -3.941809 -3.081403 7.000000
26.414658 -18.072954 -3.296178 5.000000
22.304729 -35.570576 -1.825777 2.000000
12.126079 9.358582 -2.237308 3.000000
16.512690 3.955203 -2.680218 6.000000
21.221008 -4.002080 -3.054212 7.000000
26.914732 -18.560299 -3.349747 7.000000
22.142607 -35.615139 -1.779689 1.000000
12.134869 9.294599 -2.248980 1.000000
16.511507 3.887944 -2.689723 6.000000
21.396706 -4.108738 -3.085322 7.000000
27.219175 -18.917820 -3.384552 7.000000
12.076721 9.180025 -2.245479 1.000000
16.404463 3.799334 -2.676024 6.000000
21.313810 -4.177741 -3.067925 7.000000
12.278164 9.262343 -2.293068 1.000000
16.335262 3.717277 -2.674380 6.000000
21.147331 -4.225654 -3.050010 7.000000
28.111835 -19.845417 -3.465004 7.000000
25.629972 -42.203663 -1.948642 7.000000
12.381348 9.269175 -2.322537 1.000000
16.231775 3.631207 -2.664172 6.000000
21.281332 -4.337472 -3.071716 7.000000
28.189882 -20.055731 -3.471463 7.000000
25.567041 -42.466717 -1.886925 1.000000
12.412951 9.222034 -2.341432 1.000000
16.249512 3.569714 -2.670771 5.000000
21.162975 -4.394199 -3.060785 7.000000
28.292006 -20.277500 -3.462054 7.000000
28.359505 -47.441635 -2.055704 4.000000
12.762967 9.409671 -2.417921 5.000000
16.140032 3.483701 -2.662486 6.000000
21.131414 -4.472351 -3.058682 7.000000
28.456938 -20.554008 -3.472872 3.000000
28.041706 -47.283997 -1.996581 9.000000
12.691957 9.285707 -2.412049 6.000000
15.968433 3.382545 -2.640787 6.000000
21.227242 -4.573982 -3.067226 7.000000
28.201841 -20.527464 -3.432457 7.000000
27.874327 -47.396851 -1.939364 8.000000
12.587898 9.138932 -2.402567 6.000000
15.906435 3.308543 -2.640152 5.000000
21.063927 -4.623497 -3.050010 9.000000
25.551817 -18.742226 -3.101509 26.000000
12.452663 8.974538 -2.392710 6.000000
15.772609 3.217575 -2.624521 6.000000
20.805256 -4.646713 -3.015001 9.000000
28.085505 -20.759432 -3.399802 7.000000
12.242023 8.754736 -2.364893 6.000000
15.631613 3.129179 -2.616275 6.000000
20.708996 -4.708769 -3.011212 34.000000
12.154970 8.692481 -2.369462 6.000000
15.375162 3.077842 -2.604277 6.000000
12.106819 8.728501 -2.355910 6.000000
15.189693 3.101423 -2.572079 6.000000
19.564606 -4.373208 -2.892448 8.000000
26.859516 -19.867743 -3.334661 5.000000
12.157238 8.839235 -2.359165 6.000000
15.076811 3.135981 -2.554894 6.000000
19.608772 -4.304093 -2.907244 7.000000
25.557791 -18.760334 -3.198026 39.000000
12.168714 8.909414 -2.359022 5.000000
15.064659 3.193849 -2.554894 6.000000
19.574059 -4.221334 -2.914058 7.000000
25.848358 -18.828222 -3.265199 7.000000
27.805326 -47.298416 -2.069379 9.000000
12.186749 8.994699 -2.363780 6.000000
15.091424 3.257368 -2.561441 6.000000
19.398645 -4.109157 -2.899820 7.000000
25.633043 -18.534782 -3.263282 7.000000
27.991684 -47.237221 -2.147744 16.000000
12.210524 9.081568 -2.363950 5.000000
15.131798 3.326941 -2.570442 6.000000
19.203823 -3.994401 -2.878980 8.000000
25.426832 -18.244129 -3.267141 7.000000
28.234253 -47.269562 -2.230682 12.000000
12.241737 9.174663 -2.365551 3.000000
15.123726 3.386096 -2.571261 6.000000
19.086185 -3.893536 -2.872975 8.000000
25.494778 -18.151701 -3.300435 7.000000
12.260281 9.258929 -2.367440 5.000000
15.043445 3.426071 -2.562497 6.000000
19.050350 -3.813552 -2.875853 9.000000
25.287172 -17.871206 -3.298254 7.000000
25.663000 -42.291313 -2.142546 7.000000
12.243633 9.317022 -2.357060 3.000000
15.131961 3.507401 -2.574278 6.000000
19.049309 -3.737326 -2.880433 7.000000
24.963453 -17.505585 -3.274553 7.000000
12.236526 9.386024 -2.351594 3.000000
15.022981 3.540210 -2.557929 6.000000
19.017687 -3.658787 -2.883968 7.000000
24.853245 -17.292763 -3.283836 7.000000
12.321004 9.522754 -2.360617 4.000000
15.014940 3.599226 -2.553356 6.000000
18.718967 -3.530219 -2.843485 7.000000
24.333729 -16.799255 -3.227924 6.000000
22.241652 -35.802311 -1.980300 1.000000
12.541193 9.766568 -2.395458 6.000000
15.074409 3.671958 -2.560177 6.000000
18.513065 -3.417827 -2.813552 6.000000
24.036079 -16.464008 -3.206143 5.000000
22.278637 -35.570332 -2.023366 1.000000
12.782487 10.029957 -2.439852 5.000000
15.118532 3.744259 -2.564509 6.000000
18.324038 -3.313526 -2.796252 6.000000
24.501574 -16.657505 -3.291865 6.000000
22.350683 -35.409996 -2.069952 3.000000
12.712392 10.050454 -2.419029 6.000000
15.072083 3.791439 -2.553398 6.000000
18.218729 -3.225570 -2.781661 4.000000
22.726923 -15.329504 -3.070086 5.000000
22.480619 -35.341927 -2.129179 1.000000
12.847330 10.233879 -2.437176 6.000000
15.138675 3.870057 -2.567178 6.000000
18.055117 -3.125151 -2.758098 6.000000
22.702715 -15.192405 -3.078584 2.000000
22.710213 -35.429173 -2.190747 2.000000
12.911687 10.362724 -2.441810 5.000000
15.168238 3.936898 -2.569004 6.000000
18.050875 -3.056318 -2.762256 6.000000
22.515491 -14.947929 -3.074410 6.000000
21.989952 -34.043377 -2.152349 5.000000
12.998039 10.510588 -2.453486 5.000000
15.215903 4.011693 -2.574027 6.000000
17.978132 -2.973037 -2.759117 6.000000
22.078354 -14.541410 -3.030795 6.000000
21.660328 -33.277637 -2.164304 19.000000
13.145199 10.709507 -2.473544 3.000000
15.148664 4.053405 -2.565148 6.000000
18.042114 -2.915722 -2.770540 6.000000
21.345236 -32.532124 -2.168573 18.000000
13.158851 10.804956 -2.471762 4.000000
15.142943 4.114247 -2.564023 6.000000
18.281233 -2.882381 -2.815453 6.000000
20.896265 -13.544281 -2.898860 6.000000
21.200943 -32.067600 -2.196375 18.000000
13.254274 10.964890 -2.481893 3.000000
15.195228 4.188317 -2.569810 6.000000
18.290703 -2.815208 -2.821913 6.000000
20.839632 -13.399361 -2.901703 7.000000
21.073471 -31.634207 -2.211653 17.000000
13.192844 10.995765 -2.462623 1.000000
15.279703 4.274795 -2.581167 6.000000
18.202650 -2.733397 -2.810051 6.000000
20.683205 -13.196964 -2.895197 8.000000
19.927723 -29.689146 -2.124354 16.000000
11.478559 9.638484 -2.135860 4.000000
15.212571 4.316196 -2.566817 6.000000
18.045324 -2.645396 -2.787579 5.000000
20.535881 -12.997300 -2.893696 9.000000
19.696545 -29.113560 -2.131420 15.000000
11.512321 9.739002 -2.138031 5.000000
15.276513 4.397788 -2.580436 6.000000
17.940926 -2.562957 -2.779693 6.000000
20.489161 -12.862794 -2.897580 9.000000
19.186625 -28.147638 -2.107369 14.000000
11.500572 9.801608 -2.129056 6.000000
15.252109 4.451361 -2.570515 6.000000
18.097002 -2.514386 -2.805623 6.000000
20.062487 -12.492658 -2.847483 8.000000
11.488798 9.864495 -2.117386 5.000000
15.231032 4.508746 -2.564172 6.000000
17.997751 -2.426995 -2.798437 5.000000
19.957787 -12.326180 -2.851116 8.000000
18.646976 -26.949749 -2.113521 12.000000
11.476154 9.926941 -2.110947 7.000000
15.314552 4.594586 -2.575324 6.000000
17.981956 -2.354599 -2.797795 6.000000
19.759897 -12.104136 -2.832907 106.000000
18.577028 -26.649364 -2.129199 12.000000
11.411205 9.944112 -2.092228 8.000000
15.311395 4.657796 -2.574916 6.000000
17.822523 -2.273633 -2.775011 6.000000
19.709124 -11.973914 -2.835659 8.000000
17.738123 -25.248163 -2.060292 10.000000
11.439333 10.042626 -2.090583 8.000000
15.332822 4.725781 -2.575669 6.000000
17.884583 -2.211795 -2.786551 6.000000
19.546318 -11.777139 -2.830268 8.000000
11.442958 10.116755 -2.081393 9.000000
15.414812 4.815940 -2.583857 6.000000
17.951708 -2.146967 -2.798876 6.000000
19.378956 -11.579698 -2.815874 9.000000
18.079159 -25.355406 -2.150274 10.000000
11.429354 10.179605 -2.072088 7.000000
15.336719 4.853312 -2.567972 6.000000
17.673939 -2.051197 -2.757615 6.000000
19.321407 -11.449418 -2.817320 7.000000
18.205126 -25.335114 -2.197969 10.000000
11.429544 10.247944 -2.070088 7.000000
15.332503 4.916825 -2.567527 6.000000
17.719181 -1.990656 -2.773078 6.000000
19.065592 -11.203615 -2.797537 8.000000
18.262848 -25.229134 -2.227072 10.000000
11.434034 10.335069 -2.061967 6.000000
15.409160 5.003767 -2.577619 6.000000
17.736706 -1.917427 -2.777729 6.000000
18.937700 -11.035283 -2.788366 8.000000
18.334494 -25.142866 -2.263308 9.000000
11.478294 10.451771 -2.060298 6.000000
15.522460 5.106528 -2.591060 6.000000
17.600471 -1.843673 -2.755421 6.000000
18.989212 -10.972266 -2.805571 8.000000
18.448257 -25.105074 -2.309712 10.000000
11.517944 10.565351 -2.060473 6.000000
15.467012 5.151187 -2.579106 6.000000
17.533211 -1.768593 -2.746958 6.000000
18.795238 -10.768491 -2.786433 9.000000
18.587723 -25.110699 -2.349083 10.000000
11.466156 10.595494 -2.041512 5.000000
15.538231 5.238251 -2.585365 6.000000
17.534182 -1.703794 -2.749263 6.000000
18.651798 -10.595696 -2.774617 8.000000
18.658880 -25.023691 -2.379898 9.000000
11.464411 10.664580 -2.039148 5.000000
15.578765 5.318619 -2.595489 6.000000
17.450342 -1.631108 -2.744562 6.000000
18.510851 -10.426071 -2.770570 9.000000
18.742468 -24.944485 -2.422705 12.000000
11.490566 10.771506 -2.028782 5.000000
15.584647 5.384486 -2.584994 6.000000
17.372835 -1.556597 -2.731412 6.000000
18.487492 -10.323843 -2.768909 11.000000
18.446106 -24.372437 -2.400221 10.000000
11.560672 10.909473 -2.033436 6.000000
15.625751 5.465938 -2.586394 6.000000
17.446852 -1.498790 -2.745298 6.000000
18.379545 -10.175371 -2.769516 9.000000
18.355198 -24.068485 -2.414109 10.000000
11.564787 11.001456 -2.027755 2.000000
15.656838 5.541302 -2.594884 6.000000
17.475655 -1.433690 -2.758351 6.000000
18.267704 -10.026154 -2.758209 8.000000
18.379606 -23.926819 -2.443419 50.000000
15.749335 5.639078 -2.604650 6.000000
17.441399 -1.366542 -2.752135 6.000000
18.202497 -9.903727 -2.757586 8.000000
18.464222 -23.864079 -2.480688 37.000000
15.060843 14.528854 -2.621365 5.000000
15.835686 5.738691 -2.613523 6.000000
17.514996 -1.304663 -2.766079 6.000000
18.031124 -9.725004 -2.748043 8.000000
18.556086 -23.802042 -2.513114 31.000000
15.137553 14.710350 -2.621636 6.000000
15.947341 5.839054 -2.629062 6.000000
17.356382 -1.231942 -2.743446 6.000000
17.977554 -9.611219 -2.748980 9.000000
18.650391 -23.768633 -2.552932 39.000000
15.093547 14.780694 -2.601363 6.000000
15.942564 5.913155 -2.623219 6.000000
17.311909 -1.158961 -2.735659 6.000000
17.915070 -9.493548 -2.744896 8.000000
18.761200 -23.721731 -2.592831 38.000000
15.202171 14.991376 -2.613957 6.000000
16.081495 6.025425 -2.640146 6.000000
17.305706 -1.094848 -2.737128 6.000000
17.818090 -9.354707 -2.738822 8.000000
18.852526 -23.658464 -2.625365 33.000000
15.306651 15.200161 -2.618104 8.000000
16.025265 6.077827 -2.631837 6.000000
17.334435 -1.029855 -2.741026 6.000000
17.665989 -9.192414 -2.724407 10.000000
18.917673 -23.570932 -2.654855 28.000000
15.312106 15.317453 -2.609445 14.000000
16.111382 6.174903 -2.640258 6.000000
17.313267 -0.967962 -2.737128 6.000000
17.522188 -9.036131 -2.707622 9.000000
18.961176 -23.448555 -2.686012 27.000000
15.280207 15.403379 -2.583340 99.000000
16.226866 6.293986 -2.647759 6.000000
17.494089 -0.907642 -2.768250 6.000000
17.275644 -8.828982 -2.678308 8.000000
19.050558 -23.391615 -2.718935 15.000000
15.254703 15.480003 -2.572306 29.000000
16.291555 6.387871 -2.658993 6.000000
17.269573 -0.829517 -2.738385 6.000000
17.168837 -8.695182 -2.673907 9.000000
18.951153 -23.096157 -2.724192 10.000000
15.253327 15.603401 -2.559448 100.000000
16.231438 6.436314 -2.643842 6.000000
17.306553 -0.767726 -2.746884 6.000000
17.212196 -8.638021 -2.689416 8.000000
18.940414 -22.919453 -2.752996 9.000000
15.310309 15.765944 -2.558328 29.000000
16.236557 6.507312 -2.639174 6.000000
17.358717 -0.703267 -2.754714 6.000000
16.962740 -8.435143 -2.659075 6.000000
18.831322 -22.618103 -2.756159 8.000000
15.385269 15.959762 -2.557084 9.000000
16.482004 6.669202 -2.673130 6.000000
17.257318 -0.641845 -2.738271 6.000000
16.953777 -8.349645 -2.662715 6.000000
18.812344 -22.435579 -2.772836 4.000000
15.619866 16.316725 -2.581560 9.000000
16.526218 6.761055 -2.674932 6.000000
17.348497 -0.578540 -2.752365 6.000000
16.715641 -8.156374 -2.633845 6.000000
18.002859 -21.311052 -2.671471 7.000000
15.569779 16.395658 -2.560154 10.000000
16.545931 6.846784 -2.672964 7.000000
17.236671 -0.505551 -2.737365 6.000000
16.418833 -7.937174 -2.592218 6.000000
17.772181 -20.889627 -2.655391 8.000000
15.448356 16.376209 -2.533187 16.000000
16.516594 6.905654 -2.669101 10.000000
17.233549 -0.439237 -2.736581 5.000000
16.374342 -7.841756 -2.596804 6.000000
17.454960 -20.365051 -2.625178 9.000000
15.386108 16.424707 -2.508502 13.000000
16.352428 6.904173 -2.636951 9.000000
17.406738 -0.385895 -2.770095 6.000000
16.271658 -7.719392 -2.588847 6.000000
17.494268 -20.267303 -2.658180 8.000000
15.338329 16.494459 -2.478717 9.000000
16.379171 6.986309 -2.629494 6.000000
17.211565 -0.315454 -2.732662 6.000000
16.170864 -7.595647 -2.571334 6.000000
17.220858 -19.803347 -2.628719 9.000000
15.255342 16.526268 -2.459188 19.000000
16.449272 7.087580 -2.641707 6.000000
17.172150 -0.251775 -2.732386 6.000000
16.120283 -7.499892 -2.574742 6.000000
16.976404 -19.385162 -2.612861 9.000000
15.222808 16.606960 -2.439402 10.000000
16.532072 7.202077 -2.640334 6.000000
17.075186 -0.184778 -2.710713 6.000000
16.024696 -7.384095 -2.567712 6.000000
16.874710 -19.127138 -2.608891 9.000000
15.163548 16.664522 -2.415809 8.000000
16.640556 7.325487 -2.658892 6.000000
17.253517 -0.123466 -2.738933 6.000000
16.018921 -7.310375 -2.571892 6.000000
16.506514 -18.578667 -2.572609 9.000000
15.110721 16.729235 -2.393269 6.000000
16.687202 7.419155 -2.660906 6.000000
17.128986 -0.056802 -2.728305 6.000000
15.891103 -7.181787 -2.556453 6.000000
16.264542 -18.184511 -2.551309 8.000000
15.143544 16.883684 -2.383772 6.000000
17.047527 7.647161 -2.712402 6.000000
17.243126 0.000000 -2.743384 6.000000
15.847128 -7.095403 -2.554666 6.000000
16.036383 -17.797709 -2.530635 8.000000
15.681309 17.600315 -2.452641 7.000000
17.182022 7.786880 -2.725092 6.000000
17.262739 0.069297 -2.746527 6.000000
15.785480 -6.998458 -2.552893 6.000000
15.912868 -17.537142 -2.526546 8.000000
15.789728 17.853319 -2.454590 7.000000
17.193409 7.860870 -2.720913 6.000000
17.222891 0.129259 -2.740242 6.000000
15.698700 -6.897784 -2.544321 8.000000
15.687806 -17.174320 -2.502288 8.000000
15.328556 17.454271 -2.367774 1.000000
17.225908 7.959486 -2.720950 6.000000
17.296329 0.196229 -2.752026 6.000000
15.630977 -6.790055 -2.537833 8.000000
15.778409 -17.134867 -2.530425 8.000000
17.373281 8.104985 -2.735245 9.000000
17.251059 0.258955 -2.744956 6.000000
15.609109 -6.712658 -2.539366 10.000000
15.393601 -16.600315 -2.483394 8.000000
17.344749 8.169216 -2.725206 8.000000
17.111702 0.322586 -2.722958 6.000000
15.464046 -6.583219 -2.520821 9.000000
15.320251 -16.400240 -2.485635 8.000000
17.373087 8.264216 -2.720923 6.000000
17.100531 0.385079 -2.721387 3.000000
15.445845 -6.508702 -2.522923 9.000000
15.133283 -16.081528 -2.469131 8.000000
17.553072 8.421327 -2.736143 7.000000
17.292397 0.455837 -2.745988 6.000000
15.400645 -6.420133 -2.523409 8.000000
15.002990 -15.831974 -2.461971 8.000000
17.758707 8.600195 -2.769580 40.000000
17.176607 0.515791 -2.730958 6.000000
15.370775 -6.347934 -2.520989 9.000000
14.836159 -15.541436 -2.448020 8.000000
17.857817 8.729138 -2.775859 147.000000
17.090803 0.572933 -2.717617 6.000000
15.424745 -6.304145 -2.534961 8.000000
14.772546 -15.372411 -2.447947 8.000000
17.809238 8.786409 -2.762695 148.000000
17.177185 0.644869 -2.731742 4.000000
15.452187 -6.246226 -2.544440 6.000000
14.618608 -15.095773 -2.438831 8.000000
17.822287 8.878098 -2.748735 134.000000
17.244614 0.713718 -2.736705 6.000000
15.346979 -6.132141 -2.534850 6.000000
14.530166 -14.894814 -2.433357 8.000000
17.839161 8.968264 -2.749287 98.000000
17.167675 0.767570 -2.727958 6.000000
15.296658 -6.053287 -2.534965 6.000000
14.490408 -14.755846 -2.444107 8.000000
17.962070 9.112679 -2.762613 6.000000
17.223495 0.842369 -2.737365 6.000000
15.213533 -5.952931 -2.520302 6.000000
14.349885 -14.500949 -2.429049 8.000000
18.133112 9.283176 -2.779646 6.000000
17.230633 0.906035 -2.735922 3.000000
15.268334 -5.903810 -2.534210 6.000000
14.159304 -14.203856 -2.409263 8.000000
18.716511 9.668587 -2.863254 6.000000
17.153070 0.968015 -2.724176 6.000000
15.119657 -5.788759 -2.520802 6.000000
14.110694 -14.051710 -2.416896 10.000000
18.823320 9.811330 -2.869984 6.000000
17.234045 1.029928 -2.734474 6.000000
15.163637 -5.738936 -2.533138 6.000000
13.993404 -13.842793 -2.406363 8.000000
18.719774 9.853122 -2.845167 6.000000
17.278864 1.105261 -2.742296 6.000000
15.060385 -5.630847 -2.520718 6.000000
13.828629 -13.575130 -2.389646 8.000000
19.177284 10.179575 -2.904655 7.000000
17.344156 1.173283 -2.750213 6.000000
15.133736 -5.601141 -2.535644 6.000000
13.699411 -13.350037 -2.372403 9.000000
10.009416 12.797651 -1.372874 1.000000
19.280993 10.325384 -2.914420 30.000000
17.251284 1.227509 -2.736149 6.000000
15.005450 -5.488245 -2.519174 6.000000
13.559720 -13.126522 -2.364076 7.000000
9.804585 12.630889 -1.331448 1.000000
19.315475 10.435127 -2.901998 93.000000
17.346598 1.298208 -2.742667 6.000000
14.973961 -5.414587 -2.513386 39.000000
13.564295 -13.025881 -2.372409 7.000000
19.222284 10.475978 -2.878198 111.000000
17.320360 1.369226 -2.745618 3.000000
9.395298 -3.352908 -1.579988 250.000000
19.155104 10.530607 -2.858376 133.000000
17.375269 1.431560 -2.751940 5.000000
9.442572 -3.334519 -1.593237 255.000000
19.074757 10.577662 -2.836666 114.000000
17.498493 1.515534 -2.763013 6.000000
9.446295 -3.293246 -1.593412 236.000000
9.580576 12.709238 -1.252599 1.000000
19.106827 10.687200 -2.831700 21.000000
17.498293 1.573995 -2.763790 6.000000
9.438534 -3.253633 -1.593751 6.000000
12.018977 -11.219649 -2.135431 7.000000
9.510822 12.713378 -1.232835 1.000000
19.241581 10.855351 -2.845788 8.000000
17.393288 1.631899 -2.751299 6.000000
14.814662 -5.046208 -2.506805 6.000000
11.909492 -11.028311 -2.125382 7.000000
9.413774 12.675656 -1.206579 1.000000
19.768064 11.248086 -2.913592 6.000000
17.446659 1.701437 -2.757574 6.000000
14.729330 -4.954105 -2.500258 6.000000
11.812888 -10.858703 -2.120968 7.000000
9.529984 12.926156 -1.210335 1.000000
20.064014 11.514032 -2.946997 6.000000
17.441429 1.768560 -2.748395 6.000000
14.714182 -4.889053 -2.497404 6.000000
11.778193 -10.754969 -2.119654 7.000000
9.133044 12.483294 -1.146723 1.000000
20.246700 11.717725 -2.963523 6.000000
17.553215 1.844917 -2.763901 6.000000
14.712841 -4.825957 -2.502331 6.000000
11.685545 -10.588374 -2.112456 7.000000
9.178026 12.637108 -1.141458 1.000000
20.256811 11.822901 -2.954690 6.000000
17.688414 1.927824 -2.786334 7.000000
14.663862 -4.750434 -2.496545 6.000000
11.697111 -10.521041 -2.121539 10.000000
20.300629 11.948441 -2.950745 6.000000
17.588442 1.982185 -2.768547 10.000000
14.590618 -4.667686 -2.489377 6.000000
11.748713 -10.489812 -2.140707 8.000000
9.193316 12.850562 -1.118731 1.000000
15.915273 9.446041 -2.301937 5.000000
17.635157 2.056054 -2.773948 9.000000
14.579366 -4.602452 -2.489902 6.000000
11.796801 -10.455295 -2.156483 11.000000
9.212835 12.973308 -1.104285 1.000000
15.899293 9.515532 -2.288237 4.000000
17.539696 2.110113 -2.756972 10.000000
14.515216 -4.523766 -2.481546 5.000000
11.829906 -10.407468 -2.169557 8.000000
9.073312 12.871777 -1.076370 1.000000
15.738543 9.497843 -2.253812 6.000000
17.531940 2.177504 -2.753889 18.000000
14.493505 -4.456015 -2.483043 6.000000
11.889027 -10.389744 -2.188110 7.000000
15.644938 9.519753 -2.238901 5.000000
17.259689 2.207956 -2.709266 179.000000
11.884432 -10.309149 -2.194290 7.000000
8.902779 12.823743 -1.028681 1.000000
15.413081 9.456253 -2.191449 4.000000
17.280943 2.278148 -2.710839 19.000000
10.493074 -3.140090 -1.801449 203.000000
11.796570 -10.157402 -2.187801 7.000000
8.680207 12.596783 -0.991950 1.000000
17.375759 2.355471 -2.723915 9.000000
10.513070 -3.104136 -1.808812 242.000000
11.767741 -10.050600 -2.191483 7.000000
8.645922 12.645980 -0.974529 1.000000
15.038423 9.378812 -2.122791 20.000000
17.764393 2.477655 -2.776693 10.000000
10.529040 -3.064948 -1.813454 194.000000
11.671784 -9.901896 -2.175662 7.000000
8.694858 12.813327 -0.966087 1.000000
14.908833 9.374063 -2.093747 10.000000
17.687672 2.533078 -2.759747 6.000000
10.530111 -3.023439 -1.815647 7.000000
11.607147 -9.767203 -2.175199 7.000000
8.569882 12.724526 -0.938316 1.000000
14.787537 9.373599 -2.069129 9.000000
17.683180 2.601765 -2.757390 6.000000
14.262782 -4.035961 -2.456560 70.000000
11.581639 -9.680319 -2.172457 7.000000
8.603614 12.871355 -0.930651 1.000000
14.687345 9.385727 -2.047571 10.000000
17.782436 2.676644 -2.771024 5.000000
14.276238 -3.983311 -2.464320 35.000000
11.501327 -9.541804 -2.164130 7.000000
8.454491 12.744324 -0.897897 1.000000
14.554438 9.376101 -2.015442 9.000000
17.923906 2.768361 -2.791464 6.000000
14.233529 -3.912550 -2.459632 47.000000
11.542104 -9.504431 -2.181222 7.000000
8.586608 13.047034 -0.900589 1.000000
14.413136 9.360001 -1.985413 10.000000
17.839914 2.828757 -2.776902 6.000000
14.194584 -3.845944 -2.455727 38.000000
11.436920 -9.341028 -2.167403 6.000000
8.536148 13.069480 -0.880943 1.000000
14.288459 9.353668 -1.960867 10.000000
14.184594 -3.784834 -2.456733 18.000000
11.374169 -9.227067 -2.162759 6.000000
8.481960 13.076058 -0.863213 1.000000
14.158965 9.336117 -1.935339 19.000000
16.007746 2.655806 -2.480114 8.000000
14.149851 -3.720064 -2.453588 16.000000
11.344802 -9.134502 -2.163784 6.000000
8.454021 13.143247 -0.840878 5.000000
14.027628 9.330524 -1.907599 18.000000
15.949599 2.706264 -2.469736 2.000000
14.196614 -3.674138 -2.464496 27.000000
11.284012 -9.017587 -2.158756 6.000000
8.387383 13.145293 -0.825391 1.000000
13.892892 9.311018 -1.881860 14.000000
15.564527 2.702451 -2.408877 2.000000
14.276040 -3.638917 -2.481241 12.000000
11.272894 -8.941194 -2.163184 6.000000
13.786179 9.312904 -1.854375 9.000000
15.574812 2.763080 -2.406370 3.000000
14.261213 -3.576877 -2.476258 7.000000
11.225905 -8.830745 -2.157545 7.000000
13.670265 9.300770 -1.828316 12.000000
15.438040 2.800001 -2.384080 4.000000
14.239881 -3.516103 -2.475565 5.000000
11.203001 -8.752744 -2.160244 7.000000
13.556007 9.302858 -1.806397 12.000000
15.176525 2.810063 -2.334247 5.000000
14.214110 -3.451888 -2.474014 5.000000
11.116333 -8.619604 -2.149987 6.000000
7.886409 12.739325 -0.717057 1.000000
13.461206 9.303613 -1.780525 26.000000
15.375416 2.905215 -2.363666 1.000000
14.191498 -3.396600 -2.470724 5.000000
11.126778 -8.562587 -2.158462 7.000000
7.962945 12.968927 -0.709698 1.000000
13.342626 9.294103 -1.754978 11.000000
15.292138 2.950338 -2.347028 1.000000
14.238028 -3.349988 -2.476567 5.000000
11.131180 -8.498122 -2.160477 6.000000
7.898014 12.974642 -0.687093 1.000000
13.230788 9.291856 -1.730676 11.000000
15.218555 2.994038 -2.334634 1.000000
14.222271 -3.283470 -2.476654 5.000000
11.062291 -8.381530 -2.153531 6.000000
8.516470 14.090100 -0.727468 4.000000
13.131878 9.287569 -1.710400 9.000000
15.339440 3.079046 -2.343806 2.000000
14.179366 -3.224076 -2.472530 5.000000
11.012459 -8.280416 -2.150222 6.000000
13.019263 9.286551 -1.680818 20.000000
15.081376 3.084791 -2.303340 2.000000
14.191903 -3.164465 -2.477605 5.000000
10.566164 -7.884386 -2.069212 6.000000
12.916645 9.278133 -1.660308 11.000000
15.027184 3.131131 -2.291323 9.000000
14.217004 -3.115407 -2.485205 6.000000
10.351421 -7.665242 -2.033161 6.000000
12.813614 9.278918 -1.637676 9.000000
15.136770 3.214659 -2.304376 5.000000
14.166644 -3.047411 -2.471736 5.000000
10.298997 -7.568133 -2.024262 6.000000
12.680676 9.253691 -1.605628 9.000000
15.043884 3.252603 -2.283798 6.000000
14.147941 -2.989177 -2.471739 5.000000
10.266696 -7.483859 -2.023617 6.000000
12.591471 9.259509 -1.587595 19.000000
15.090026 3.323280 -2.287211 5.000000
14.193096 -2.941832 -2.477636 5.000000
10.177183 -7.361639 -2.007386 6.000000
12.517826 9.269467 -1.568444 10.000000
14.953798 3.350792 -2.257477 6.000000
14.125586 -2.876450 -2.466673 5.000000
10.158554 -7.291600 -2.009620 9.000000
7.951936 13.913002 -0.562410 1.000000
12.402952 9.251613 -1.541721 9.000000
14.956269 3.408963 -2.256986 1.000000
14.149686 -2.827386 -2.474240 5.000000
10.135533 -7.218935 -2.010959 9.000000
21.343271 37.662731 -1.473895 10.000000
12.330256 9.267918 -1.523304 27.000000
14.858456 3.444005 -2.233237 1.000000
14.175370 -2.775959 -2.474254 5.000000
10.138130 -7.162269 -2.012672 9.000000
21.171156 37.664921 -1.403134 11.000000
12.245899 9.274948 -1.500830 20.000000
14.210601 -2.723672 -2.478475 5.000000
10.155366 -7.118791 -2.017566 12.000000
21.008850 37.683521 -1.340785 11.000000
12.155545 9.273462 -1.474859 15.000000
14.123155 -2.655835 -2.461592 6.000000
10.212931 -7.103459 -2.030503 10.000000
20.875648 37.753853 -1.280395 11.000000
12.114799 9.312820 -1.457898 16.000000
14.327548 -2.637352 -2.492816 5.000000
10.243316 -7.066390 -2.037824 7.000000
20.921373 37.820953 -1.252594 11.000000
12.113881 9.308752 -1.438759 19.000000
15.341274 3.731290 -2.263910 1.000000
14.484807 -2.666300 -2.506950 5.000000
10.285104 -7.095218 -2.037182 10.000000
20.977367 37.611614 -1.278170 9.000000
12.183341 9.291305 -1.445653 15.000000
15.284048 3.655272 -2.247779 1.000000
14.578780 -2.741515 -2.509036 5.000000
10.281618 -7.148572 -2.023722 8.000000
21.192822 37.672672 -1.328182 10.000000
12.256399 9.276170 -1.458398 25.000000
14.594992 -2.799987 -2.500237 5.000000
10.265164 -7.193087 -2.012192 9.000000
21.355545 37.653744 -1.375510 11.000000
12.369301 9.290510 -1.475944 26.000000
14.599077 -2.858933 -2.500129 5.000000
10.397744 -7.342957 -2.029771 9.000000
21.505848 37.612190 -1.429715 9.000000
12.436527 9.273279 -1.493756 11.000000
14.923701 3.393321 -2.186347 1.000000
14.841681 -2.962967 -2.532655 6.000000
10.440886 -7.430927 -2.029737 6.000000
8.038103 13.944877 -0.548010 1.000000
12.525810 9.268612 -1.508624 14.000000
15.098344 3.380414 -2.215789 5.000000
14.841157 -3.022165 -2.526376 5.000000
10.455438 -7.499168 -2.024086 6.000000
7.968394 13.713083 -0.559391 1.000000
12.622808 9.268983 -1.530000 25.000000
15.106780 3.315913 -2.220479 6.000000
14.898454 -3.090745 -2.532582 6.000000
10.661516 -7.706314 -2.057673 6.000000
12.736043 9.280474 -1.553477 9.000000
15.065991 3.249126 -2.209973 6.000000
14.892166 -3.149132 -2.528090 5.000000
11.141820 -8.115822 -2.143776 7.000000
7.923398 13.413759 -0.582152 1.000000
12.817694 9.268239 -1.567645 10.000000
15.105535 3.202515 -2.219621 6.000000
14.982523 -3.228389 -2.537269 6.000000
11.221356 -8.236876 -2.149947 6.000000
8.031149 13.488430 -0.605812 1.000000
12.919405 9.269864 -1.587130 24.000000
15.000508 3.122842 -2.205222 1.000000
15.010003 -3.291925 -2.538438 6.000000
11.264112 -8.331963 -2.151458 7.000000
7.993011 13.318396 -0.615716 1.000000
13.029616 9.276791 -1.604940 23.000000
14.914877 3.048023 -2.190976 1.000000
15.060275 -3.363611 -2.546339 6.000000
11.317920 -8.436117 -2.157541 7.000000
8.509662 14.067739 -0.671847 3.000000
13.133896 9.282120 -1.627961 10.000000
15.013062 3.008081 -2.209142 1.000000
15.059197 -3.421366 -2.537186 6.000000
11.360174 -8.532560 -2.153782 8.000000
8.638833 14.163795 -0.695345 2.000000
13.248347 9.290383 -1.649329 15.000000
14.892504 2.927192 -2.192513 1.000000
15.118920 -3.496037 -2.543928 6.000000
11.407658 -8.636937 -2.156285 6.000000
13.358694 9.294911 -1.673165 25.000000
15.170132 2.921307 -2.237223 6.000000
15.140492 -3.559535 -2.544162 6.000000
11.463607 -8.745584 -2.162611 7.000000
8.068444 13.023217 -0.676925 1.000000
13.441065 9.279296 -1.687853 10.000000
15.127631 2.855661 -2.226654 38.000000
15.204799 -3.636319 -2.548891 6.000000
11.500218 -8.840384 -2.157499 7.000000
8.015594 12.837603 -0.684608 1.000000
13.564273 9.291129 -1.710639 10.000000
15.127500 2.798255 -2.230593 251.000000
15.177847 -3.688736 -2.541025 6.000000
11.516149 -8.919971 -2.153615 6.000000
13.663921 9.292965 -1.730972 24.000000
15.103666 2.733910 -2.228249 9.000000
15.250675 -3.768512 -2.549993 6.000000
11.687644 -9.121537 -2.178704 6.000000
13.807049 9.309465 -1.759048 10.000000
15.182181 2.690691 -2.235615 2.000000
15.334232 -3.848848 -2.554979 6.000000
11.651735 -9.162427 -2.165043 6.000000
8.392499 13.128032 -0.762056 1.000000
13.914697 9.308045 -1.777269 14.000000
15.440274 2.675325 -2.277676 1.000000
15.315421 -3.906699 -2.548664 6.000000
11.732320 -9.295589 -2.170326 7.000000
8.429796 13.085498 -0.774908 1.000000
14.030531 9.311276 -1.799582 21.000000
15.781308 2.674875 -2.329374 4.000000
15.435667 -3.997684 -2.565385 6.000000
11.777000 -9.401456 -2.171525 7.000000
8.523413 13.124905 -0.798254 1.000000
14.150708 9.316505 -1.822568 10.000000
16.229967 2.686854 -2.399922 1.000000
15.392421 -4.049613 -2.555064 6.000000
11.844212 -9.526395 -2.176804 7.000000
8.536816 13.055565 -0.812043 1.000000
14.269196 9.323278 -1.848674 13.000000
15.430805 -4.120243 -2.558207 6.000000
11.991443 -9.717412 -2.196650 7.000000
8.644966 13.120742 -0.837219 1.000000
14.385601 9.324281 -1.871425 18.000000
17.382120 2.746838 -2.573518 1.000000
15.430759 -4.180879 -2.554999 6.000000
11.938052 -9.746851 -2.179679 7.000000
8.604117 12.955144 -0.844992 1.000000
14.498932 9.329604 -1.894314 9.000000
17.877071 2.754739 -2.641988 1.000000
15.539230 -4.274382 -2.569889 6.000000
12.091083 -9.945871 -2.200327 7.000000
14.645018 9.347881 -1.921188 18.000000
18.444324 2.772980 -2.727625 1.000000
15.598052 -4.346252 -2.570395 6.000000
12.105589 -10.032421 -2.195653 7.000000
14.782721 9.359699 -1.950196 10.000000
18.731945 2.742713 -2.782083 1.000000
15.643020 -4.423580 -2.580586 6.000000
12.188051 -10.176344 -2.203236 10.000000
14.904132 9.360223 -1.974115 10.000000
19.431890 2.772488 -2.888010 7.000000
10.562375 -3.028713 -1.740333 88.000000
12.258567 -10.311707 -2.205705 10.000000
15.013074 9.352087 -1.996496 7.000000
19.673187 2.729880 -2.918751 7.000000
10.523377 -3.061307 -1.727990 249.000000
12.228032 -10.359123 -2.189605 9.000000
19.584511 2.644449 -2.907662 7.000000
10.507133 -3.102383 -1.721475 197.000000
12.134904 -10.356863 -2.165531 8.000000
15.395869 9.427210 -2.060053 6.000000
19.657774 2.577525 -2.920583 116.000000
10.509914 -3.147128 -1.719974 1.000000
12.087302 -10.393050 -2.146821 8.000000
8.932751 12.752553 -0.968662 1.000000
15.510712 9.426953 -2.084063 3.000000
19.710745 2.511019 -2.930610 101.000000
15.846908 -4.802577 -2.590056 6.000000
12.095492 -10.477444 -2.140866 7.000000
9.011147 12.769383 -0.988755 1.000000
15.726828 9.479543 -2.121408 1.000000
19.538683 2.416358 -2.900180 114.000000
15.845092 -4.865506 -2.580803 6.000000
12.159240 -10.610918 -2.144684 7.000000
9.086659 12.781447 -1.014125 1.000000
15.849070 9.474205 -2.152796 6.000000
19.757486 2.366431 -2.941933 94.000000
15.867454 -4.945199 -2.584825 6.000000
12.151452 -10.682830 -2.135835 7.000000
9.280262 12.948205 -1.049722 1.000000
15.843596 9.384812 -2.153434 8.000000
19.613209 2.276264 -2.922710 119.000000
15.897196 -5.018468 -2.586690 6.000000
12.251125 -10.857954 -2.143559 7.000000
9.185385 12.726483 -1.047967 1.000000
16.057409 9.439671 -2.191411 6.000000
19.578072 2.196033 -2.912682 114.000000
15.984853 -5.107566 -2.591842 6.000000
12.331413 -11.002341 -2.146379 7.000000
9.311241 12.806422 -1.073876 1.000000
21.396900 12.473299 -2.931382 10.000000
19.642733 2.137352 -2.931803 111.000000
16.033140 -5.187836 -2.593704 6.000000
12.377497 -11.125205 -2.143763 7.000000
9.321957 12.722856 -1.089086 1.000000
21.389114 12.363947 -2.941579 117.000000
19.739841 2.071258 -2.941549 65.000000
16.037439 -5.257338 -2.591615 6.000000
9.448564 12.801681 -1.115393 1.000000
21.346355 12.235070 -2.946933 139.000000
19.776827 2.001883 -2.945947 7.000000
16.117428 -5.349061 -2.601625 6.000000
9.369593 12.597785 -1.119889 1.000000
21.471266 12.202333 -2.975473 117.000000
19.754990 1.916110 -2.945013 7.000000
16.167387 -5.437786 -2.604051 6.000000
14.167816 -13.014291 -2.423496 10.000000
9.490545 12.667826 -1.145715 1.000000
21.578894 12.159082 -3.001737 91.000000
19.677013 1.842702 -2.935987 7.000000
16.303595 -5.547020 -2.622941 6.000000
14.245377 -13.182130 -2.427808 9.000000
9.711200 12.868496 -1.183895 1.000000
21.686369 12.105205 -3.027498 20.000000
19.536270 1.747002 -2.917368 7.000000
16.366615 -5.641869 -2.627429 176.000000
14.227856 -13.263047 -2.412405 10.000000
