VERSION .7
FIELDS x y z intensity
SIZE 4 4 4 4
TYPE F F F F
COUNT 1 1 1 1
WIDTH 1220
HEIGHT 1
VIEWPOINT 0 0 0 1 0 0 0
POINTS 1220
DATA ascii
6.849375 -7.422596 0.033493 27.000000
92.188866 41.954605 0.830877 1.000000
6.979457 -7.513420 0.026847 28.000000
92.750214 42.601509 0.890717 4.000000
7.054004 -7.532801 0.018012 38.000000
26.816175 -11.338629 0.106712 37.000000
7.073403 -7.500865 0.008997 38.000000
94.472305 44.233955 1.001385 19.000000
7.076745 -7.449517 0.001793 27.000000
59.422291 28.088789 0.665367 4.000000
26.965988 -11.175193 0.081514 28.000000
7.107456 -7.427140 -0.007177 73.000000
92.917175 44.339127 1.096144 14.000000
26.998297 -11.083819 0.071312 88.000000
7.159792 -7.432333 -0.014409 21.000000
93.063309 44.808350 1.135765 25.000000
27.566118 -11.187837 0.062308 16.000000
7.264885 -7.483701 -0.023665 88.000000
94.930420 46.136692 1.215879 29.000000
27.639444 -11.099779 0.046786 23.000000
7.099983 -7.260396 -0.030130 34.000000
95.020447 46.611744 1.274636 32.000000
27.731068 -11.018717 0.036456 9.000000
7.119506 -7.227179 -0.038954 27.000000
27.901571 -10.968226 0.026162 9.000000
7.131834 -7.186813 -0.047713 38.000000
50.315979 60.756771 1.156620 4.000000
93.869949 46.904156 1.373688 27.000000
29.901438 -11.634041 0.011200 37.000000
7.181591 -7.186607 -0.054971 69.000000
49.920872 60.731426 1.221267 15.000000
93.638245 47.197559 1.409309 20.000000
30.083874 -11.578248 0.000000 94.000000
7.321356 -7.272960 -0.064842 23.000000
29.925169 -11.391418 -0.011177 69.000000
7.458291 -7.354873 -0.073129 34.000000
29.882486 -11.249949 -0.022291 91.000000
7.402983 -7.247006 -0.079558 37.000000
7.431767 -7.224555 -0.088642 32.000000
50.188099 62.869545 1.544626 10.000000
94.687836 49.459530 1.659525 28.000000
7.494129 -7.231942 -0.096340 255.000000
49.723820 62.758343 1.593326 17.000000
94.540527 49.824478 1.716101 32.000000
30.498487 -11.112599 -0.062319 22.000000
7.435007 -7.127425 -0.102467 52.000000
27.596767 35.081829 0.927184 10.000000
94.453575 50.221859 1.773880 17.000000
30.481670 -10.968066 -0.073502 36.000000
7.467113 -7.100902 -0.111509 255.000000
21.152029 27.092850 0.743997 1.000000
94.721794 50.810669 1.838700 28.000000
30.557425 -10.875001 -0.084915 64.000000
20.946596 27.023663 0.775907 8.000000
94.951935 51.361740 1.903178 32.000000
7.984484 -7.484828 -0.135625 12.000000
20.840889 27.091778 0.805508 8.000000
94.985970 51.831051 1.964330 23.000000
93.645172 7.699034 0.852788 9.000000
34.282757 -11.931810 -0.120375 7.000000
8.253353 -7.680233 -0.147585 32.000000
20.768318 27.203171 0.836436 8.000000
92.709709 7.964326 0.844529 1.000000
34.179646 -11.755651 -0.132478 22.000000
8.395195 -7.755006 -0.159588 56.000000
20.657782 27.255112 0.859701 8.000000
92.819176 8.316549 0.862064 1.000000
34.373943 -11.681765 -0.145737 9.000000
20.674372 27.485687 0.900618 8.000000
34.553242 -11.588183 -0.159021 19.000000
83.774544 8.110844 0.793272 153.000000
34.585938 -11.458299 -0.171695 14.000000
83.719238 8.415324 0.807722 255.000000
34.052387 19.541468 0.836114 1.000000
83.722649 8.725742 0.808058 255.000000
16.514235 -14.718817 -0.389995 29.000000
33.963608 19.664263 0.863193 4.000000
83.734695 9.037355 0.823189 134.000000
16.513054 -14.599243 -0.403973 18.000000
28.004406 38.629761 1.457756 6.000000
67.229271 39.254139 1.753075 17.000000
83.805214 9.355831 0.838933 1.000000
16.553646 -14.537616 -0.419171 27.000000
27.779102 38.630249 1.503614 1.000000
66.825706 39.347641 1.786927 10.000000
16.585203 -14.447819 -0.437700 24.000000
27.722677 38.822750 1.549193 2.000000
66.463608 39.447517 1.821405 19.000000
16.621506 -14.382774 -0.448910 32.000000
27.335447 38.592949 1.593666 14.000000
66.016960 39.510338 1.880300 15.000000
79.996880 -24.289658 -0.554485 23.000000
16.630856 -14.279562 -0.462988 29.000000
27.180796 38.645679 1.625135 20.000000
65.974609 39.782726 1.923205 7.000000
73.514641 9.260988 0.801823 12.000000
16.677931 -14.224174 -0.474466 26.000000
27.218307 39.002022 1.677469 1.000000
65.343529 39.760738 1.962880 5.000000
16.700226 -14.127781 -0.492581 26.000000
27.154963 39.202126 1.731991 1.000000
65.119392 39.905212 1.999919 5.000000
84.861588 -24.750967 -0.678857 4.000000
16.739061 -14.065666 -0.507620 30.000000
65.000282 40.192024 2.041243 3.000000
85.230301 -24.519911 -0.696562 39.000000
16.782549 -13.997586 -0.522645 32.000000
64.297256 40.052662 2.063018 1.000000
85.386703 -24.226398 -0.728094 28.000000
16.787251 -13.897495 -0.536425 30.000000
26.468906 39.109112 1.838935 1.000000
64.048645 40.239979 2.112830 1.000000
44.340706 -12.405177 -0.393777 129.000000
16.822334 -13.822939 -0.551134 37.000000
26.367357 39.253563 1.890984 6.000000
63.773113 40.393623 2.148169 1.000000
44.554504 -12.289089 -0.403340 160.000000
16.885136 -13.761368 -0.566594 36.000000
26.261255 39.436707 1.936128 10.000000
63.353764 40.454132 2.191544 1.000000
44.758320 -12.168955 -0.420971 173.000000
16.880743 -13.655128 -0.579932 30.000000
26.067205 39.413136 1.980509 12.000000
63.128376 40.589962 2.240589 1.000000
44.976482 -12.051412 -0.422605 172.000000
16.886812 -13.567643 -0.586158 25.000000
26.121862 39.812149 2.029037 8.000000
45.169991 -11.925992 -0.448473 192.000000
16.937487 -13.511340 -0.608983 34.000000
25.905041 39.783772 2.081079 8.000000
61.571693 40.230019 2.285687 1.000000
45.373077 -11.801889 -0.450057 125.000000
16.963215 -13.430424 -0.615693 33.000000
25.733664 39.839142 2.120497 8.000000
61.219280 40.336025 2.329570 1.000000
82.888969 -21.236015 -0.821400 27.000000
17.000195 -13.358626 -0.630360 30.000000
21.622845 33.732819 1.833496 6.000000
60.938423 40.441414 2.362307 1.000000
82.938217 -20.940395 -0.836090 39.000000
17.052721 -13.299097 -0.641829 27.000000
21.407078 33.667179 1.860542 8.000000
29.270645 19.580198 1.162076 8.000000
44.226650 -10.994152 -0.461344 9.000000
9.240147 -7.151907 -0.354956 31.000000
21.152632 33.524891 1.883257 8.000000
29.342499 19.776867 1.186211 9.000000
87.376602 15.564144 1.192813 8.000000
44.329704 -10.847409 -0.469967 8.000000
9.281953 -7.130018 -0.363734 21.000000
21.113161 33.735691 1.939473 7.000000
29.285482 19.894922 1.217777 10.000000
87.800400 15.971867 1.246125 9.000000
83.250198 -20.048084 -0.911696 17.000000
9.359485 -7.135180 -0.373970 13.000000
21.002277 33.820461 1.974946 8.000000
29.277628 20.046810 1.245300 11.000000
87.967155 16.335512 1.264951 7.000000
83.332695 -19.745090 -0.926750 27.000000
17.160763 -12.983293 -0.695053 32.000000
29.276674 20.196625 1.273112 8.000000
83.380157 -19.433855 -0.926479 27.000000
17.167980 -12.890084 -0.704679 31.000000
19.687361 32.215134 1.952204 7.000000
29.119478 20.246103 1.300485 10.000000
85.476189 16.506540 1.291588 12.000000
83.436050 -19.124733 -0.941257 27.000000
17.198681 -12.814833 -0.718997 29.000000
29.363186 20.567961 1.333364 2.000000
85.591263 16.854401 1.324709 2.000000
83.558907 -18.830812 -0.971761 50.000000
17.212984 -12.727641 -0.732602 33.000000
60.866825 42.968647 2.849191 6.000000
85.376274 17.137356 1.367950 27.000000
83.647057 -18.528790 -0.957035 34.000000
17.263338 -12.667272 -0.740247 23.000000
20.846031 34.955669 2.218459 7.000000
60.540791 43.071827 2.880261 20.000000
85.102043 17.407034 1.379734 10.000000
76.317917 -16.612095 -0.886111 14.000000
17.293070 -12.591840 -0.754491 28.000000
20.773333 35.111797 2.273746 14.000000
33.810646 7.038781 0.554586 32.000000
36.370235 -7.777186 -0.434937 6.000000
17.318531 -12.513508 -0.764797 35.000000
33.730629 7.151209 0.565739 241.000000
76.246361 -16.012041 -0.924692 23.000000
17.351660 -12.440900 -0.779166 35.000000
20.918550 35.941669 2.397830 10.000000
60.598518 44.092072 3.075485 2.000000
33.718559 7.277891 0.584047 255.000000
76.314476 -15.734529 -0.911211 23.000000
17.380634 -12.365477 -0.785883 32.000000
19.301762 33.431633 2.266428 6.000000
33.684372 7.387502 0.589896 255.000000
76.606537 -15.502251 -0.941301 9.000000
17.429468 -12.304251 -0.800962 34.000000
19.328970 33.763947 2.331837 2.000000
37.212063 27.495295 1.971563 8.000000
33.647003 7.508665 0.607776 255.000000
84.170906 -16.712093 -1.018508 38.000000
17.437387 -12.214327 -0.806705 27.000000
19.276316 33.946243 2.380795 8.000000
37.150249 27.650618 2.021977 1.000000
33.615292 7.624869 0.631752 255.000000
84.305374 -16.417847 -1.004408 32.000000
17.469498 -12.141617 -0.813563 34.000000
19.221531 34.140583 2.430652 10.000000
59.845528 44.884312 3.305389 14.000000
33.577271 7.745751 0.637583 238.000000
84.512131 -16.136839 -1.021179 27.000000
17.509296 -12.074346 -0.828221 15.000000
19.378347 34.701908 2.507570 24.000000
59.912865 45.262451 3.396604 4.000000
33.514145 7.860672 0.660968 194.000000
84.831169 -15.875722 -1.024324 27.000000
9.834242 -6.728605 -0.468173 4.000000
59.782959 45.509441 3.490659 14.000000
9.846369 -6.684051 -0.469661 9.000000
59.883831 45.586231 3.562371 1.000000
9.846704 -6.684278 -0.459276 5.000000
19.358559 34.652264 2.552917 10.000000
59.823364 45.194836 3.548896 11.000000
33.494499 7.849896 0.738642 102.000000
84.461418 -15.852303 -0.809953 27.000000
9.872013 -6.754448 -0.449064 2.000000
19.192707 34.089386 2.488701 9.000000
59.841908 44.881599 3.514511 9.000000
33.541054 7.737397 0.745079 145.000000
84.383522 -16.158079 -0.764779 27.000000
17.510798 -12.075380 -0.779961 22.000000
19.443052 34.225960 2.462718 10.000000
37.121834 27.629469 2.141824 1.000000
33.574188 7.615545 0.739178 171.000000
84.328758 -16.468235 -0.749828 27.000000
17.454557 -12.131233 -0.764572 31.000000
19.122658 33.376534 2.379666 5.000000
37.300385 27.550489 2.113843 7.000000
33.621643 7.496846 0.727583 179.000000
84.228729 -16.769419 -0.734489 33.000000
17.438950 -12.215421 -0.754682 31.000000
19.280834 33.408848 2.352489 9.000000
37.493587 27.491438 2.103079 1.000000
33.653652 7.374609 0.733702 188.000000
76.508392 -15.524095 -0.626779 11.000000
17.415108 -12.294113 -0.733245 28.000000
20.950691 35.968010 2.502136 10.000000
60.431473 43.970531 3.341431 5.000000
33.680706 7.251266 0.721676 201.000000
76.250542 -15.762972 -0.584365 23.000000
17.366171 -12.355186 -0.721913 26.000000
60.354729 43.593288 3.302713 1.000000
33.721603 7.130848 0.728006 163.000000
76.236481 -16.051649 -0.557508 15.000000
17.349703 -12.439497 -0.704469 32.000000
20.724480 35.029228 2.375300 10.000000
60.536259 43.387665 3.251825 1.000000
33.903027 7.045667 0.725341 4.000000
17.308437 -12.506215 -0.689726 31.000000
60.602165 43.099560 3.220851 12.000000
85.274323 17.395760 1.838227 13.000000
76.327187 -16.655973 -0.504506 12.000000
17.279125 -12.581686 -0.671719 35.000000
60.680161 42.836872 3.178066 17.000000
85.312569 17.109079 1.807433 19.000000
83.652267 -18.545261 -0.538371 38.000000
17.261475 -12.665904 -0.657872 35.000000
29.402506 20.595505 1.510858 7.000000
85.498596 16.789656 1.794717 21.000000
83.562866 -18.877686 -0.478469 31.000000
17.231462 -12.741306 -0.639785 34.000000
19.753975 32.324135 2.091421 9.000000
29.145948 20.256962 1.481438 8.000000
85.696693 16.502583 1.812832 37.000000
83.439583 -19.171534 -0.463219 27.000000
17.197027 -12.813600 -0.625260 29.000000
20.964903 34.038017 2.165045 6.000000
29.303474 20.215113 1.467177 8.000000
85.912720 16.248909 1.831519 18.000000
44.106739 -10.304542 -0.221352 6.000000
17.170361 -12.891871 -0.607252 35.000000
21.000950 33.818325 2.121113 8.000000
29.246277 20.017847 1.435846 28.000000
85.846359 15.926180 1.813663 9.000000
43.809681 -10.388470 -0.204316 1.000000
17.167171 -12.988141 -0.593778 31.000000
21.122494 33.750599 2.086634 6.000000
29.308329 19.910442 1.416889 10.000000
44.022259 -10.617579 -0.197592 5.000000
9.352877 -7.130143 -0.316182 26.000000
21.195662 33.606091 2.054448 10.000000
29.281679 19.735872 1.412095 9.000000
87.019249 15.484819 1.820562 16.000000
44.300694 -10.848506 -0.175129 27.000000
9.287257 -7.134092 -0.304619 16.000000
21.333231 33.551044 2.014105 8.000000
29.296888 19.590351 1.372391 19.000000
87.361992 15.215686 1.780103 9.000000
44.181080 -10.999201 -0.174822 8.000000
9.265124 -7.171239 -0.298614 10.000000
21.742132 33.931946 2.006257 4.000000
60.999382 40.481869 2.838038 11.000000
82.924713 -20.967779 -0.283644 39.000000
17.031414 -13.282480 -0.531627 28.000000
61.278347 40.344273 2.792823 9.000000
82.818336 -21.264135 -0.253698 36.000000
17.010418 -13.366659 -0.517385 25.000000
61.703117 40.300529 2.766788 2.000000
45.344635 -11.819844 -0.122679 67.000000
16.977268 -13.441549 -0.502746 26.000000
25.949196 39.548988 2.238982 11.000000
62.054268 40.221561 2.737448 1.000000
45.169853 -11.934390 -0.114158 98.000000
16.943789 -13.516368 -0.488079 29.000000
26.142092 39.526363 2.193376 14.000000
62.950981 40.475903 2.718123 1.000000
44.951981 -12.053257 -0.097473 96.000000
16.943527 -13.613211 -0.474256 35.000000
26.098145 39.162125 2.137050 8.000000
63.427902 40.454735 2.719148 7.000000
44.715137 -12.182363 -0.072799 61.000000
16.889948 -13.672329 -0.455183 31.000000
26.340021 39.212864 2.103767 6.000000
63.794098 40.375725 2.676013 7.000000
44.535271 -12.308880 -0.056450 31.000000
16.867085 -13.756458 -0.440721 29.000000
63.985157 40.168941 2.638227 7.000000
44.397923 -12.429541 -0.048281 6.000000
16.824509 -13.824725 -0.425722 26.000000
64.298553 40.037895 2.605373 7.000000
108.750641 -30.916883 -0.078931 20.000000
16.820160 -13.924740 -0.411650 31.000000
64.881569 40.087318 2.570005 2.000000
16.773066 -13.989676 -0.396496 32.000000
64.926933 39.787277 2.526093 1.000000
16.760160 -14.083396 -0.382120 31.000000
26.964357 38.638130 1.900638 11.000000
65.453522 39.780720 2.500743 7.000000
40.063625 -11.852177 0.007292 8.000000
16.716259 -14.151359 -0.367005 34.000000
27.161531 38.618290 1.855026 15.000000
65.537094 39.518906 2.471908 1.000000
39.928905 -11.971650 0.036377 10.000000
16.683582 -14.228994 -0.344461 33.000000
27.421307 38.699848 1.822077 9.000000
66.102921 39.530449 2.447398 1.000000
111.524345 13.634197 2.137703 10.000000
39.946938 -12.136807 0.051007 8.000000
16.656746 -14.306842 -0.329604 28.000000
27.688732 38.775211 1.788752 1.000000
66.398911 39.377777 2.412537 1.000000
39.737061 -12.224715 0.058050 12.000000
16.608149 -14.371216 -0.314346 27.000000
27.968737 38.865330 1.755783 13.000000
66.782555 39.290848 2.380869 1.000000
16.589441 -14.461699 -0.299625 29.000000
28.064062 38.712051 1.711493 9.000000
67.216408 39.215176 2.350412 1.000000
37.052509 -11.696833 0.081378 10.000000
16.574045 -14.555531 -0.284907 32.000000
33.929123 19.628487 1.163362 6.000000
36.828388 -11.774689 0.094476 11.000000
67.881676 38.939163 2.267937 1.000000
36.856300 -11.932683 0.108182 15.000000
68.226723 38.821198 2.233788 1.000000
34.317898 -11.249975 0.113458 26.000000
68.390579 38.614780 2.207511 1.000000
34.285889 -11.378819 0.126100 33.000000
20.632645 27.410292 1.084162 7.000000
93.239525 8.649569 1.683535 1.000000
34.324505 -11.531468 0.132716 29.000000
20.627827 27.195864 1.048848 8.000000
93.071419 8.290030 1.679940 1.000000
34.220425 -11.636256 0.145095 36.000000
8.060357 -7.396315 -0.093559 88.000000
20.674175 27.079861 1.023067 8.000000
93.457321 8.012118 1.670040 5.000000
33.980965 -11.687318 0.156796 21.000000
20.840763 27.091614 1.002506 8.000000
95.254257 51.977448 2.841508 1.000000
93.565186 7.676018 1.704234 23.000000
30.570927 -10.639941 0.163839 7.000000
21.046434 27.142683 0.965382 8.000000
95.362305 51.540695 2.781740 11.000000
30.517523 -10.746916 0.175057 23.000000
27.500637 35.199211 1.216494 7.000000
30.298893 -10.794909 0.185256 64.000000
27.558746 35.008347 1.190035 12.000000
93.802177 49.833508 2.614457 1.000000
100.332886 7.103950 1.790823 1.000000
30.484838 -10.987240 0.197950 49.000000
27.656937 34.906883 1.142865 12.000000
93.861595 49.466667 2.574469 1.000000
100.485565 6.779944 1.793137 1.000000
30.340916 -11.061186 0.214187 51.000000
7.496680 -7.186546 -0.039875 255.000000
27.881683 34.901787 1.107345 6.000000
93.316498 48.701763 2.480608 1.000000
102.582802 6.507889 1.812135 19.000000
30.089817 -11.106686 0.223924 50.000000
93.576332 48.463928 2.446650 1.000000
29.912201 -11.153971 0.234020 25.000000
7.376991 -7.173810 -0.023347 25.000000
93.469841 47.975124 2.384212 1.000000
29.826220 -11.240655 0.244780 38.000000
7.354230 -7.204309 -0.016171 38.000000
93.320900 47.467335 2.321111 1.000000
7.441667 -7.343606 -0.007299 26.000000
49.962811 60.782448 1.703099 18.000000
93.673866 47.215519 2.270618 19.000000
29.976130 -11.548798 0.269127 9.000000
7.326054 -7.282708 0.000000 177.000000
93.632683 46.765179 2.210624 18.000000
27.487539 -10.705892 0.262581 79.000000
93.440689 46.221855 2.147277 20.000000
27.415464 -10.793712 0.272555 38.000000
93.270973 45.753551 2.103599 20.000000
27.756556 -11.045675 0.286775 9.000000
7.145076 -7.258201 0.024887 26.000000
93.358086 45.372532 2.047428 11.000000
27.829071 -11.187215 0.298397 8.000000
28.265764 33.141781 0.760314 1.000000
92.754196 44.659519 1.994632 24.000000
27.662666 -11.238268 0.312687 20.000000
7.152113 -7.370106 0.041226 16.000000
28.485937 33.164761 0.724955 1.000000
93.239799 44.493080 1.947609 12.000000
27.366806 -11.235106 0.320134 30.000000
59.573559 28.160292 1.207705 4.000000
27.246832 -11.302725 0.329511 26.000000
7.118577 -7.443961 0.057526 31.000000
26.850010 -11.253633 0.340454 7.000000
7.101550 -7.480857 0.063010 19.000000
26.656542 -11.287587 0.348630 13.000000
6.924441 -7.345469 0.072238 30.000000
54.094112 61.163780 1.083147 1.000000
40.182644 -17.180811 0.549199 13.000000
6.928182 -7.403616 0.079639 30.000000
54.363224 60.973080 0.998068 1.000000
92.239952 41.938999 1.644834 27.000000
39.990715 -17.272390 0.562645 21.000000
6.898366 -7.431326 0.086717 27.000000
54.641663 60.899128 0.956816 1.000000
92.150894 41.530300 1.623135 35.000000
39.775730 -17.352795 0.575662 10.000000
6.832960 -7.409996 0.095000 29.000000
18.405687 20.362833 0.297032 7.000000
92.248222 41.168049 1.586910 22.000000
39.546879 -17.425766 0.595903 8.000000
7.023088 -7.669730 0.107092 12.000000
18.379063 20.198326 0.271686 12.000000
142.765244 -0.199338 2.367357 110.000000
39.528233 -17.590837 0.611695 27.000000
6.964625 -7.662079 0.112050 4.000000
18.405796 20.079363 0.251973 7.000000
91.655334 40.138519 1.484514 31.000000
142.767944 -0.672783 2.417275 26.000000
39.373608 -17.678684 0.632809 8.000000
6.868734 -7.607114 0.121647 56.000000
18.380928 19.912249 0.231759 1.000000
91.515808 39.697277 1.427758 31.000000
143.079041 -1.198684 2.447581 21.000000
38.965378 -17.659082 0.642172 7.000000
6.902157 -7.697984 0.129933 24.000000
91.500786 39.292927 1.355733 26.000000
39.018276 -17.855726 0.666590 8.000000
6.750849 -7.584979 0.134697 22.000000
91.534409 38.910629 1.302022 35.000000
86.351982 -1.371600 1.447159 35.000000
38.793514 -17.925119 0.678789 8.000000
6.812314 -7.710761 0.143671 27.000000
25.726513 27.262156 0.215897 9.000000
91.404938 38.460648 1.263545 29.000000
38.287762 -17.862013 0.693208 23.000000
6.820181 -7.776926 0.153466 8.000000
25.704512 27.049059 0.188867 9.000000
91.314926 38.029434 1.225831 26.000000
83.611397 -1.912009 1.401420 24.000000
37.434856 -17.631470 0.693380 8.000000
25.817413 26.969221 0.156388 8.000000
91.380318 37.664246 1.173089 31.000000
83.693787 -2.220834 1.402928 25.000000
35.801445 -17.015093 0.684982 8.000000
25.948408 26.926735 0.130533 9.000000
91.030182 37.148731 1.132598 26.000000
76.864151 -2.321557 1.288579 13.000000
34.216366 -16.401079 0.668941 7.000000
6.803729 -7.929640 0.180554 30.000000
26.135279 26.913063 0.098214 7.000000
91.017914 36.755146 1.079359 22.000000
32.638157 -15.806022 0.658316 7.000000
6.714303 -7.880915 0.187948 255.000000
90.757721 36.263756 1.040570 30.000000
82.879723 -3.111487 1.404251 30.000000
31.484022 -15.389810 0.642289 7.000000
6.565827 -7.764108 0.193463 94.000000
56.327801 57.159721 0.084038 1.000000
90.699730 35.855640 1.004343 29.000000
82.064148 -3.367769 1.390623 34.000000
56.372696 56.827114 0.013970 16.000000
90.602699 35.433861 0.967862 28.000000
77.801109 -3.478502 1.318591 22.000000
28.974314 -14.408195 0.621325 8.000000
6.429884 -7.714649 0.206861 28.000000
63.342030 24.505182 0.640121 121.000000
77.608086 -3.754937 1.315544 34.000000
6.487481 -7.842017 0.218523 31.000000
30.337666 30.126604 -0.059697 11.000000
63.898979 24.464563 0.620997 39.000000
77.513687 -4.035189 1.327736 39.000000
26.177984 -13.269361 0.594275 19.000000
6.478982 -7.887641 0.228075 32.000000
30.401545 29.969528 -0.096860 25.000000
64.096161 24.271070 0.574193 72.000000
77.478867 -4.318176 1.300307 34.000000
26.066774 -13.333302 0.597968 29.000000
6.418340 -7.872467 0.234049 24.000000
90.101089 33.741199 0.806039 22.000000
77.392189 -4.597943 1.326197 34.000000
25.450962 -13.130596 0.609892 7.000000
6.373563 -7.876315 0.244083 32.000000
89.966782 33.315430 0.736759 28.000000
77.240341 -4.873085 1.310380 50.000000
24.444824 -12.714327 0.591600 21.000000
6.339689 -7.890621 0.249142 14.000000
90.079254 32.982151 0.686455 23.000000
77.227844 -5.143006 1.310465 37.000000
23.636553 -12.414730 0.587226 16.000000
6.263843 -7.855012 0.256064 28.000000
57.767834 55.319996 -0.418799 1.000000
90.467728 32.748859 0.654910 23.000000
77.118713 -5.419718 1.308941 53.000000
22.888332 -12.128979 0.583308 10.000000
57.747875 54.934929 -0.472976 17.000000
91.006332 32.567062 0.624199 20.000000
77.078156 -5.700843 1.322092 39.000000
22.223785 -11.866397 0.576118 9.000000
6.367771 -8.103629 0.280677 33.000000
56.600189 53.411972 -0.556899 1.000000
91.680740 32.447845 0.560145 22.000000
77.047234 -5.982572 1.294946 53.000000
21.590599 -11.639927 0.569477 10.000000
6.411673 -8.221345 0.291223 50.000000
56.893505 53.333202 -0.598876 8.000000
77.053993 -6.267300 1.335927 43.000000
20.980568 -11.401004 0.571060 10.000000
6.352213 -8.203997 0.297070 37.000000
92.776352 32.072300 0.531121 13.000000
77.040474 -6.550522 1.336100 38.000000
20.432356 -11.204935 0.569514 10.000000
6.358483 -8.274569 0.307894 32.000000
77.007408 -6.818542 1.322434 41.000000
19.909937 -11.013556 0.560048 9.000000
6.343101 -8.317472 0.317760 16.000000
94.392754 31.858404 0.434695 3.000000
19.450142 -10.852504 0.559898 8.000000
6.313859 -8.339338 0.326888 89.000000
95.030785 31.686235 0.402127 7.000000
18.882912 -10.626951 0.556040 9.000000
6.283077 -8.362192 0.336016 26.000000
95.341118 31.401890 0.367911 1.000000
75.244217 -7.470583 1.280247 22.000000
18.414362 -10.439569 0.554297 10.000000
6.271635 -8.407917 0.344302 23.000000
95.763382 31.189339 0.333983 19.000000
75.340431 -7.759098 1.295582 33.000000
18.167450 -10.387759 0.558972 14.000000
6.169240 -8.334208 0.349414 27.000000
58.393166 52.026409 -1.037453 20.000000
96.002258 30.841436 0.263985 13.000000
75.480278 -8.053190 1.311738 29.000000
18.137745 -10.459172 0.566548 19.000000
6.221302 -8.469275 0.363300 33.000000
89.939720 79.543961 -1.676579 10.000000
92.892578 29.485106 0.221130 185.000000
75.559578 -8.341855 1.313639 34.000000
18.107670 -10.530455 0.577786 20.000000
6.159127 -8.446271 0.370522 55.000000
90.282356 79.259163 -1.761428 10.000000
92.823555 29.089138 0.186754 139.000000
75.624138 -8.616282 1.328564 33.000000
18.070538 -10.593444 0.588754 17.000000
6.133794 -8.476618 0.380007 9.000000
58.982212 51.399101 -1.229019 11.000000
98.135124 30.396666 0.143445 1.000000
75.656822 -8.901021 1.316403 32.000000
18.061438 -10.677250 0.600723 17.000000
6.194377 -8.623564 0.393046 12.000000
28.059120 24.271305 -0.608721 7.000000
98.930664 30.208380 0.108322 8.000000
75.792427 -9.198737 1.319340 31.000000
18.013325 -10.738096 0.611417 20.000000
6.124827 -8.593034 0.399850 33.000000
99.289688 29.920605 0.072396 20.000000
75.901833 -9.494433 1.335196 33.000000
18.009912 -10.821447 0.616250 12.000000
6.146532 -8.687488 0.412545 32.000000
75.980324 -9.787224 1.350574 30.000000
17.978304 -10.892337 0.631219 20.000000
6.022581 -8.578810 0.415494 24.000000
76.043304 -10.078810 1.338949 33.000000
17.950962 -10.965917 0.635340 17.000000
6.008063 -8.625182 0.424021 28.000000
76.062141 -10.351604 1.339908 29.000000
17.910364 -11.031462 0.646354 14.000000
6.014641 -8.699215 0.435870 12.000000
102.429352 29.235762 -0.092956 9.000000
76.280907 -10.666283 1.357889 23.000000
17.896835 -11.109486 0.661982 13.000000
6.092710 -8.881542 0.453299 24.000000
102.790367 28.970516 -0.149114 1.000000
76.330620 -10.958617 1.346017 1.000000
17.851662 -11.172294 0.665500 12.000000
5.960279 -8.753842 0.453124 30.000000
58.779442 48.281979 -1.659786 20.000000
76.680420 -11.295830 1.366438 4.000000
17.818748 -11.242794 0.676848 13.000000
5.899969 -8.733905 0.460185 26.000000
104.321480 28.539125 -0.226519 16.000000
76.480095 -11.552874 1.377118 28.000000
17.795862 -11.315393 0.692213 10.000000
5.824668 -8.687659 0.467648 42.000000
76.600029 -11.858311 1.393583 34.000000
17.762375 -11.385738 0.703588 17.000000
5.759410 -8.658770 0.472229 8.000000
105.687248 28.121204 -0.324492 15.000000
76.650093 -12.153897 1.381746 34.000000
17.724516 -11.453343 0.711121 16.000000
6.196700 -9.387090 0.520603 6.000000
17.713425 -11.534025 0.723368 13.000000
6.227672 -9.509634 0.536071 9.000000
77.783768 -12.904916 1.431343 1.000000
17.679070 -11.604146 0.734782 20.000000
108.223656 27.545635 -0.428800 16.000000
78.982666 -13.401460 1.468285 18.000000
17.644321 -11.674093 0.749900 10.000000
5.577196 -8.650798 0.501600 1.000000
5.211181 4.037838 -0.182993 1.000000
108.570999 27.210724 -0.488385 1.000000
39.006084 -6.765568 0.718666 9.000000
9.974126 -6.649401 0.426988 1.000000
5.541297 -8.661353 0.511882 1.000000
5.188766 3.993003 -0.187458 1.000000
38.779324 -6.872740 0.708072 8.000000
9.916259 -6.663450 0.433905 1.000000
5.032466 3.843438 -0.185725 1.000000
38.665207 -6.998778 0.713312 8.000000
9.912391 -6.713717 0.436902 1.000000
6.064132 -9.629680 0.584451 6.000000
5.147296 3.898521 -0.196152 1.000000
33.666435 8.045318 -0.205408 68.000000
38.616077 -7.129186 0.706004 10.000000
17.697201 -12.076738 0.796859 10.000000
6.044452 -9.676903 0.593956 6.000000
33.525311 7.881812 -0.210381 112.000000
84.337006 -15.889913 1.557942 35.000000
17.664940 -12.149858 0.804901 24.000000
5.978796 -9.646570 0.600741 8.000000
33.524635 7.752099 -0.228214 121.000000
84.259567 -16.164839 1.542514 37.000000
17.609867 -12.202747 0.811817 17.000000
5.977169 -9.723353 0.612145 10.000000
33.577030 7.634677 -0.252419 105.000000
84.214737 -16.476488 1.527807 39.000000
17.614065 -12.301457 0.817838 16.000000
5.626420 -9.217556 0.586747 6.000000
33.638901 7.519186 -0.258692 70.000000
84.124100 -16.779119 1.542244 36.000000
17.572474 -12.368478 0.833031 23.000000
13.617702 -22.494360 1.447113 9.000000
33.763767 7.417268 -0.277543 98.000000
36.370220 -7.392994 0.667266 220.000000
17.590088 -12.472922 0.843463 14.000000
6.202503 -10.326781 0.671384 1.000000
33.780750 7.291315 -0.301589 82.000000
36.387051 -7.535396 0.661590 255.000000
17.556208 -12.545852 0.851582 28.000000
13.498254 -22.679516 1.498674 13.000000
33.826763 7.171590 -0.307799 63.000000
36.399544 -7.670587 0.668794 255.000000
17.505690 -12.606932 0.862680 22.000000
13.459414 -22.776772 1.520829 11.000000
33.837860 7.044446 -0.337828 52.000000
36.405739 -7.811360 0.649928 255.000000
17.376652 -12.606352 0.858485 20.000000
13.430822 -22.919769 1.545688 15.000000
33.887642 6.925321 -0.368256 40.000000
17.213253 -12.584361 0.856412 19.000000
13.410533 -23.069378 1.566631 23.000000
33.858776 6.913266 -0.428251 33.000000
36.401340 -7.956744 0.559320 222.000000
17.266750 -12.623472 0.825424 29.000000
13.373719 -23.006050 1.534369 9.000000
33.886902 7.048487 -0.441014 63.000000
36.406101 -7.818085 0.539448 202.000000
17.398636 -12.622300 0.803213 27.000000
13.456365 -22.954172 1.501575 20.000000
4.642165 3.360367 -0.220154 1.000000
33.846100 7.169518 -0.446862 64.000000
36.371277 -7.671260 0.512556 165.000000
17.532352 -12.626134 0.788466 23.000000
13.473834 -22.801172 1.462176 10.000000
4.621775 3.371492 -0.218772 4.000000
33.804775 7.290326 -0.458739 56.000000
36.340824 -7.525823 0.479343 125.000000
17.567511 -12.544666 0.757597 21.000000
13.512215 -22.675949 1.424966 16.000000
4.617499 3.394372 -0.217153 5.000000
33.797283 7.418448 -0.465044 49.000000
36.416107 -7.408941 0.460531 39.000000
17.595137 -12.481117 0.738245 19.000000
13.592174 -22.630121 1.392716 9.000000
4.617193 3.420286 -0.213710 3.000000
33.648041 7.515062 -0.451329 31.000000
84.123589 -16.794283 1.048097 33.000000
17.563438 -12.362119 0.723751 20.000000
5.584590 -9.221254 0.559322 4.000000
4.550186 3.410171 -0.206518 1.000000
33.493431 7.609521 -0.455622 3.000000
84.150757 -16.479219 1.002771 39.000000
17.609241 -12.298089 0.701259 22.000000
5.572867 -9.129822 0.541850 4.000000
4.621449 3.490106 -0.208307 1.000000
32.164703 7.431720 -0.437915 10.000000
84.299637 -16.187780 0.943896 39.000000
17.611485 -12.208417 0.680927 20.000000
4.517282 3.437510 -0.200211 1.000000
32.151920 7.553006 -0.432349 5.000000
84.363472 -15.879652 0.928968 54.000000
17.672972 -12.155382 0.666588 19.000000
14.749568 -23.779348 1.353875 37.000000
84.502441 -15.600590 0.884895 41.000000
17.736404 -12.108030 0.648624 10.000000
14.848988 -23.754122 1.330879 38.000000
84.593636 -15.297022 0.870252 38.000000
9.922901 -6.720835 0.355698 1.000000
6.052966 -9.604511 0.527439 9.000000
84.659424 -14.988688 0.825336 27.000000
9.927029 -6.670687 0.342432 1.000000
5.502977 -8.664618 0.466105 5.000000
38.984966 -6.768914 0.372933 8.000000
9.896345 -6.600042 0.334344 83.000000
5.540345 -8.653211 0.455799 6.000000
4.885233 3.860894 -0.202210 1.000000
9.970682 -6.596948 0.327683 1.000000
5.595146 -8.671992 0.446986 23.000000
4.918017 3.916173 -0.201963 1.000000
84.043205 -13.943404 0.713720 20.000000
17.681522 -11.601340 0.553773 17.000000
6.144692 -9.447550 0.474324 27.000000
4.817982 3.865457 -0.194118 1.000000
84.113609 -13.638498 0.699015 12.000000
17.707411 -11.525707 0.542187 20.000000
6.164165 -9.405494 0.463460 25.000000
84.163429 -13.360295 0.684183 24.000000
17.745770 -11.467077 0.531125 19.000000
5.601241 -8.478619 0.409914 9.000000
84.325813 -13.069396 0.640426 12.000000
17.771303 -11.391461 0.508517 21.000000
5.612954 -8.435392 0.398095 6.000000
84.328758 -12.753526 0.625203 23.000000
17.794310 -11.318769 0.496993 15.000000
59.697647 -8.804735 0.431816 1.000000
17.823212 -11.245608 0.485605 21.000000
6.131186 -9.069356 0.409075 37.000000
59.650406 -8.574502 0.420726 1.000000
17.851879 -11.172429 0.470557 16.000000
6.015502 -8.828323 0.387992 21.000000
69.844635 19.922129 -0.824000 1.000000
17.899605 -11.115533 0.452394 21.000000
6.062191 -8.827141 0.377686 75.000000
55.389641 46.526867 -1.982674 27.000000
69.778778 20.206591 -0.798812 1.000000
76.118057 -10.386277 0.496111 8.000000
17.923401 -11.039491 0.440943 20.000000
6.041972 -8.732227 0.365247 8.000000
100.810089 29.593565 -1.118608 2.000000
118.776131 -15.763731 0.752846 14.000000
17.955404 -10.968630 0.429716 15.000000
6.045533 -8.669292 0.354305 18.000000
58.338978 49.738213 -2.007510 1.000000
100.864754 29.973272 -1.120311 9.000000
17.981070 -10.898304 0.411062 16.000000
6.124839 -8.717999 0.344137 34.000000
58.085293 49.890724 -1.951568 1.000000
99.284698 29.900204 -1.085872 17.000000
18.008282 -10.824746 0.396100 23.000000
6.151146 -8.687576 0.334525 6.000000
27.967329 24.191904 -0.916654 8.000000
98.577042 30.081596 -1.043350 19.000000
78.769066 -9.573955 0.443172 1.000000
18.039423 -10.753654 0.384915 14.000000
6.242548 -8.751729 0.328442 138.000000
58.715878 51.167007 -1.889796 17.000000
97.969345 30.289108 -1.038087 21.000000
18.051315 -10.675518 0.366064 14.000000
6.324404 -8.798098 0.317800 73.000000
58.705479 51.537724 -1.840960 1.000000
18.099110 -10.614438 0.355253 18.000000
6.109000 -8.436152 0.296397 68.000000
58.813179 52.015205 -1.781750 5.000000
96.839874 30.719418 -0.957543 14.000000
18.112118 -10.533042 0.343774 24.000000
6.254934 -8.571368 0.292684 40.000000
58.518543 52.138119 -1.723857 10.000000
96.083687 30.886099 -0.915999 29.000000
73.197372 -7.822543 0.346901 12.000000
18.137762 -10.459183 0.332565 10.000000
6.447787 -8.771179 0.290767 37.000000
95.670319 31.140560 -0.913140 32.000000
73.036728 -7.534729 0.307561 1.000000
18.196106 -10.408360 0.314669 20.000000
6.218249 -8.394285 0.268079 26.000000
95.281868 31.363943 -0.875402 25.000000
73.103714 -7.270949 0.294907 1.000000
18.534336 -10.511860 0.308691 9.000000
6.296978 -8.435747 0.259108 23.000000
87.342049 79.530899 -2.371263 21.000000
94.692223 31.554989 -0.836198 25.000000
19.026089 -10.698786 0.304794 10.000000
6.077184 -8.082291 0.240072 177.000000
86.870956 79.686279 -2.263474 28.000000
93.958855 31.730223 -0.778911 19.000000
19.484564 -10.862793 0.295922 9.000000
6.173302 -8.147779 0.233762 38.000000
86.867569 80.215240 -2.229016 15.000000
93.682899 31.983517 -0.760220 1.000000
20.016903 -11.068164 0.291440 9.000000
6.262671 -8.212008 0.225348 39.000000
86.121788 80.169479 -2.115407 35.000000
78.371780 -6.663718 0.260829 11.000000
20.548491 -11.263958 0.286305 12.000000
6.381027 -8.297910 0.219267 79.000000
56.830330 53.255352 -1.345862 18.000000
62.036526 21.688423 -0.447338 6.000000
78.578941 -6.405139 0.261443 13.000000
21.191599 -11.515680 0.282046 9.000000
6.255600 -8.079220 0.205115 21.000000
56.655338 53.501419 -1.278552 1.000000
61.975468 21.922321 -0.447475 1.000000
84.830383 -6.572024 0.267302 25.000000
21.757593 -11.720157 0.276063 9.000000
6.425089 -8.232621 0.200517 37.000000
57.728325 54.877956 -1.251245 18.000000
62.139648 22.236979 -0.426206 1.000000
84.966400 -6.299183 0.267663 23.000000
22.292456 -11.908063 0.264674 9.000000
6.523502 -8.301811 0.193511 63.000000
57.446819 55.051037 -1.194363 1.000000
76.766350 -5.381490 0.201467 20.000000
23.082893 -12.221763 0.250730 8.000000
6.449938 -8.143635 0.177704 32.000000
57.099159 55.082268 -1.121676 16.000000
89.897995 32.897995 -0.551362 32.000000
23.729668 -12.453072 0.252580 10.000000
6.296184 -7.895569 0.167457 33.000000
90.016052 33.315811 -0.536079 29.000000
24.582634 -12.786005 0.236976 9.000000
6.465788 -8.041819 0.158498 75.000000
89.888824 33.643822 -0.502548 8.000000
25.493753 -13.147039 0.230295 10.000000
6.459296 -7.976566 0.148696 27.000000
30.438583 30.006041 -0.514756 21.000000
90.078377 34.091694 -0.470682 19.000000
26.174074 -13.376661 0.220605 25.000000
6.223083 -7.627534 0.134021 199.000000
30.339350 30.128275 -0.477624 19.000000
90.125816 34.487816 -0.421059 1.000000
26.187138 -13.274001 0.210094 27.000000
6.302348 -7.672604 0.128247 11.000000
6.481678 -7.829437 0.122412 71.000000
56.545540 56.981453 -0.770621 10.000000
90.597252 35.431732 -0.356549 24.000000
77.541725 -3.480466 0.176114 24.000000
29.310410 -14.575328 0.199966 7.000000
56.336044 57.168087 -0.728452 1.000000
90.773735 35.884895 -0.340723 28.000000
81.850365 -3.373306 0.157275 181.000000
30.383762 -14.977020 0.177368 7.000000
6.798167 -8.093131 0.105153 25.000000
90.799660 36.280514 -0.273053 30.000000
81.907082 -3.074972 0.185973 175.000000
31.642542 -15.453613 0.178238 7.000000
6.766889 -8.001864 0.098770 43.000000
26.134697 26.912464 -0.268449 8.000000
90.950737 36.709560 -0.239654 28.000000
76.730827 -2.599052 0.160797 164.000000
33.053783 -15.993060 0.166629 7.000000
6.753597 -7.921433 0.089026 29.000000
25.942284 26.910978 -0.247912 9.000000
91.028587 37.129547 -0.223058 26.000000
76.754875 -2.318256 0.134024 244.000000
34.374725 -16.476986 0.146370 7.000000
6.570138 -7.657393 0.075724 10.000000
25.810299 26.961788 -0.214975 9.000000
91.206299 37.592522 -0.189394 17.000000
76.897804 -2.040501 0.134259 95.000000
36.056431 -17.120853 0.132363 8.000000
6.852729 -7.922176 0.069472 79.000000
25.721735 27.067183 -0.188994 7.000000
91.289543 38.018864 -0.138076 21.000000
76.879784 -1.758071 0.134216 255.000000
37.749237 -17.763443 0.116504 8.000000
6.855479 -7.866894 0.060101 10.000000
25.694487 27.237740 -0.163384 9.000000
91.665749 38.570389 -0.138858 15.000000
76.970734 -1.477914 0.107491 33.000000
38.353451 -17.876360 0.088624 8.000000
6.830168 -7.782831 0.048797 28.000000
91.510025 38.900265 -0.052064 16.000000
84.399452 -1.325853 0.147323 1.000000
38.713799 -17.871891 0.081863 8.000000
6.835480 -7.731542 0.043228 28.000000
60.267437 64.855484 -0.216332 1.000000
91.458733 39.274868 -0.017372 29.000000
38.997345 -17.829685 0.059872 8.000000
6.873772 -7.717664 0.034272 27.000000
59.774029 64.753815 -0.153807 11.000000
91.633018 39.729122 0.034863 28.000000
39.270317 -17.797279 0.045150 8.000000
6.898000 -7.696050 0.025253 30.000000
91.789062 40.197083 0.052467 13.000000
39.453907 -17.706465 0.015095 8.000000
6.993192 -7.744952 0.014570 10.000000
18.369875 20.188231 -0.009528 15.000000
91.929649 40.622490 0.087707 24.000000
39.494137 -17.567406 -0.007544 9.000000
18.299473 20.245325 0.014289 7.000000
92.108833 41.105846 0.140834 26.000000
39.588745 -17.427713 -0.030198 8.000000
92.066902 41.492447 0.176252 27.000000
39.834206 -17.378305 -0.045511 20.000000
6.873935 -7.454431 -0.008849 14.000000
92.332802 42.020107 0.230171 36.000000
40.049095 -17.297606 -0.060912 21.000000
92.285446 42.388035 0.265870 1.000000
40.314472 -17.237175 -0.084176 15.000000
6.959120 -7.436677 -0.026664 27.000000
95.195602 44.147949 0.329663 13.000000
26.834698 -11.346460 -0.071190 37.000000
7.021908 -7.446259 -0.035727 29.000000
94.507713 44.250538 0.382480 23.000000
26.880693 -11.249950 -0.081374 51.000000
7.025023 -7.395071 -0.044506 28.000000
59.460979 28.107077 0.275496 9.000000
26.910530 -11.152210 -0.091514 97.000000
7.090083 -7.408985 -0.051905 30.000000
28.394814 33.058674 0.273819 9.000000
92.849281 44.306728 0.466853 27.000000
27.502359 -11.290756 -0.108966 24.000000
7.131922 -7.403401 -0.061002 58.000000
93.091438 44.841911 0.522998 22.000000
27.515728 -11.178573 -0.119223 28.000000
7.129839 -7.349719 -0.067914 46.000000
94.912750 46.128105 0.589388 25.000000
7.110302 -7.270949 -0.076324 34.000000
95.052498 46.627464 0.646750 28.000000
27.531780 -10.950661 -0.144799 23.000000
7.088737 -7.200970 -0.082891 34.000000
94.239990 46.658195 0.679089 28.000000
27.566160 -10.836375 -0.155089 20.000000
7.320508 -7.379518 -0.094341 37.000000
50.206921 60.625084 0.838077 22.000000
93.759407 46.848919 0.731741 31.000000
30.191893 -11.740986 -0.186581 29.000000
7.587765 -7.593065 -0.106794 7.000000
49.901356 60.707687 0.905272 1.000000
93.814400 47.306889 0.788534 30.000000
30.150663 -11.597913 -0.197339 9.000000
7.335274 -7.286785 -0.110083 38.000000
73.607559 37.440216 0.663028 20.000000
30.039371 -11.440893 -0.207582 78.000000
73.362755 37.654789 0.705241 187.000000
30.228067 -11.380051 -0.219857 9.000000
7.288323 -7.134762 -0.124613 27.000000
73.405952 38.017529 0.750279 204.000000
30.331158 -11.304166 -0.231633 23.000000
7.316687 -7.112683 -0.133579 27.000000
50.017033 62.655254 1.203443 1.000000
73.553780 38.436646 0.796682 107.000000
30.301935 -11.166959 -0.242369 53.000000
7.295870 -7.040619 -0.139807 31.000000
49.923233 62.964863 1.276343 19.000000
94.454826 49.758251 1.080754 1.000000
30.417700 -11.083163 -0.259920 35.000000
7.449031 -7.140868 -0.149493 45.000000
49.795204 63.255699 1.348979 5.000000
94.677414 50.298492 1.141444 21.000000
30.509777 -10.990211 -0.271682 37.000000
7.453326 -7.092746 -0.158037 21.000000
21.039867 26.949184 0.602752 1.000000
30.653381 -10.915178 -0.283961 8.000000
20.922483 26.982826 0.631756 8.000000
8.021447 -7.524740 -0.186218 21.000000
20.824776 27.051289 0.661455 8.000000
94.915787 51.771259 1.320963 23.000000
93.783295 7.710390 0.229929 8.000000
34.316559 -11.936861 -0.342444 6.000000
8.275706 -7.706427 -0.199360 38.000000
20.682291 27.090490 0.690133 8.000000
95.508446 52.571354 1.389103 14.000000
37.139885 -12.752046 -0.383813 8.000000
8.504743 -7.856199 -0.214223 217.000000
20.605349 27.185934 0.720509 8.000000
64.844093 36.002869 0.983865 44.000000
37.221912 -12.635138 -0.397925 9.000000
64.518829 36.102699 1.019460 163.000000
37.329830 -12.533870 -0.412379 8.000000
64.196404 36.246658 1.055166 143.000000
83.721771 8.120484 0.234893 166.000000
38.485825 -12.765239 -0.438785 5.000000
16.473131 -14.889839 -0.461256 21.000000
83.696373 8.427782 0.249589 255.000000
40.570469 -13.291830 -0.476898 8.000000
16.492418 -14.808194 -0.475899 19.000000
33.882641 19.444057 0.600049 6.000000
83.714653 8.739679 0.249737 255.000000
16.479158 -14.687554 -0.489378 26.000000
83.695023 9.018296 0.293843 139.000000
16.532686 -14.626886 -0.500936 36.000000
67.259018 39.240032 1.318421 24.000000
16.574650 -14.556061 -0.515996 28.000000
66.868538 39.341438 1.354219 18.000000
73.872650 8.495098 0.272543 1.000000
16.597401 -14.468637 -0.534276 27.000000
27.859535 39.014404 1.372591 3.000000
66.766273 39.611397 1.395741 5.000000
73.642365 8.742215 0.284753 1.000000
80.012184 -24.599674 -1.051966 1.000000
16.623575 -14.384564 -0.548774 30.000000
27.401667 38.657829 1.398058 14.000000
66.160973 39.580841 1.426491 24.000000
73.406303 8.987152 0.296874 1.000000
80.063179 -24.294531 -1.080669 26.000000
16.662018 -14.316424 -0.563736 27.000000
27.195831 38.667057 1.436068 14.000000
65.807480 39.681950 1.475515 16.000000
73.377777 9.256758 0.309802 1.000000
80.208794 -24.018023 -1.110671 1.000000
16.683649 -14.229051 -0.578018 26.000000
65.477257 39.810795 1.511512 23.000000
16.701046 -14.138479 -0.592109 30.000000
64.959442 39.822796 1.542828 17.000000
84.951530 -24.761114 -1.220139 8.000000
16.767656 -14.089694 -0.611763 30.000000
64.708542 39.980412 1.593299 20.000000
85.276741 -24.517155 -1.254490 62.000000
16.757444 -13.976646 -0.624763 29.000000
64.429314 40.134926 1.629798 20.000000
85.380035 -24.208406 -1.285681 28.000000
16.788969 -13.898917 -0.639264 29.000000
44.373432 -12.405984 -0.675544 88.000000
16.835587 -13.833828 -0.654330 32.000000
26.418743 39.330063 1.704202 14.000000
63.657219 40.289093 1.709604 9.000000
44.601524 -12.293683 -0.694479 117.000000
16.850964 -13.743310 -0.668160 25.000000
26.234787 39.367168 1.742970 11.000000
63.306099 40.392593 1.743479 7.000000
44.805252 -12.173318 -0.713162 128.000000
16.881433 -13.665437 -0.682556 24.000000
25.872761 39.119141 1.785360 14.000000
62.983955 40.512642 1.804074 6.000000
44.997295 -12.056989 -0.707412 117.000000
16.917065 -13.596808 -0.693449 33.000000
25.996946 39.621765 1.845355 6.000000
62.871727 40.766998 1.857470 3.000000
45.239128 -11.944246 -0.726858 105.000000
16.946871 -13.518826 -0.707785 32.000000
26.002077 39.932796 1.897251 8.000000
16.964571 -13.431498 -0.721586 33.000000
25.740604 39.849888 1.938578 8.000000
17.009357 -13.365827 -0.736522 36.000000
21.648209 33.772388 1.674306 2.000000
83.002533 -20.941225 -1.404545 27.000000
17.034180 -13.284636 -0.750582 31.000000
21.403734 33.635983 1.705840 9.000000
61.218254 40.951111 2.018702 6.000000
44.249264 -10.991573 -0.740127 7.000000
9.262430 -7.169155 -0.411066 13.000000
21.262794 33.699490 1.746714 10.000000
61.219891 41.277790 2.075319 5.000000
9.288415 -7.134981 -0.419243 26.000000
21.073217 33.645744 1.775009 9.000000
61.090759 41.501652 2.127441 7.000000
83.305054 -20.045912 -1.435766 27.000000
9.350032 -7.127974 -0.429061 13.000000
21.010185 33.806862 1.814435 9.000000
83.390045 -19.774052 -1.466017 27.000000
17.125975 -12.956972 -0.798718 26.000000
20.919027 33.937000 1.866103 6.000000
29.299110 20.219650 1.075203 8.000000
38.250622 7.234445 0.312547 9.000000
83.385971 -19.419865 -1.464563 28.000000
17.196985 -12.911862 -0.811093 32.000000
29.108728 20.238630 1.095577 8.000000
38.282646 7.385935 0.326638 9.000000
83.523254 -19.160067 -1.450890 38.000000
17.207911 -12.821709 -0.816887 29.000000
29.140137 20.419306 1.124433 6.000000
38.235641 7.522327 0.333272 32.000000
83.538521 -18.841539 -1.494799 27.000000
17.226086 -12.737329 -0.834252 30.000000
60.512497 42.734337 2.405744 9.000000
38.325291 7.685977 0.354765 8.000000
83.680229 -18.551460 -1.496107 27.000000
17.276327 -12.676803 -0.845667 27.000000
20.817781 34.894451 2.065465 10.000000
60.723976 43.202156 2.472216 5.000000
38.235291 7.827716 0.361032 10.000000
17.298082 -12.595489 -0.855688 30.000000
20.764629 35.069145 2.107378 15.000000
33.759602 7.028154 0.331027 65.000000
36.490540 -7.796252 -0.664349 7.000000
17.315294 -12.511169 -0.869203 25.000000
33.720013 7.142809 0.348931 255.000000
76.701614 -16.121626 -1.395453 1.000000
17.360664 -12.447356 -0.880388 28.000000
23.820469 40.894821 2.546545 9.000000
33.703323 7.268447 0.355050 255.000000
76.466789 -15.752019 -1.403650 6.000000
17.401722 -12.380479 -0.891365 61.000000
60.121498 44.099041 2.707961 12.000000
33.671322 7.390800 0.379065 255.000000
76.690338 -15.533143 -1.393139 1.000000
17.405785 -12.287532 -0.900436 29.000000
19.139078 33.405193 2.159197 8.000000
37.228378 27.507351 1.713494 8.000000
33.619545 7.508698 0.384802 255.000000
84.213989 -16.735924 -1.558668 27.000000
17.458498 -12.229114 -0.912019 27.000000
60.021320 44.689648 2.835490 18.000000
33.611095 7.636254 0.403073 255.000000
84.343719 -16.440594 -1.544941 35.000000
17.478331 -12.147756 -0.918166 30.000000
19.240339 34.146103 2.280486 10.000000
59.871349 44.903683 2.888117 9.000000
33.564613 7.749002 0.414863 255.000000
84.378593 -16.126606 -1.559485 27.000000
17.489307 -12.060560 -0.931274 12.000000
19.334137 34.594364 2.347546 10.000000
59.791611 45.187241 2.970844 6.000000
33.516300 7.867349 0.432649 255.000000
85.754272 -16.063969 -1.568579 26.000000
9.881706 -6.761080 -0.529048 6.000000
19.273335 34.784332 2.411352 4.000000
59.765736 45.496330 3.069346 15.000000
9.836086 -6.677071 -0.527370 8.000000
59.743710 45.479565 3.133851 11.000000
9.857054 -6.691304 -0.520161 9.000000
19.313246 34.556984 2.393548 21.000000
59.803329 45.196095 3.102472 6.000000
33.539680 7.872837 0.505119 255.000000
85.666298 -16.062963 -1.369207 27.000000
9.841225 -6.733383 -0.506029 6.000000
19.243458 34.151634 2.342645 14.000000
59.885509 44.914303 3.072000 13.000000
33.582748 7.753189 0.517369 255.000000
84.291565 -16.125221 -1.303224 27.000000
17.478664 -12.053221 -0.882446 23.000000
60.011570 44.682388 3.018127 4.000000
33.615906 7.631177 0.511428 255.000000
84.315529 -16.450375 -1.289521 27.000000
17.471792 -12.143211 -0.869461 29.000000
19.102243 33.340900 2.229052 7.000000
37.235653 27.512728 1.867587 6.000000
33.638680 7.506808 0.517369 255.000000
84.265129 -16.761377 -1.244686 33.000000
17.435965 -12.213329 -0.851292 24.000000
33.685677 7.387788 0.505632 255.000000
76.755623 -15.560312 -1.120926 9.000000
17.399727 -12.283255 -0.836823 26.000000
33.717331 7.265309 0.511725 255.000000
76.321632 -15.763779 -1.074610 23.000000
17.375536 -12.361849 -0.819196 28.000000
23.975952 40.833359 2.630806 8.000000
33.718117 7.142407 0.505338 224.000000
76.200104 -16.030104 -1.046533 11.000000
17.346813 -12.437425 -0.805062 30.000000
20.759008 35.059654 2.220909 18.000000
60.724705 43.522728 2.843986 2.000000
33.798080 7.030011 0.494095 24.000000
36.513466 -7.821144 -0.495348 5.000000
17.297400 -12.498239 -0.793700 26.000000
20.851345 34.936852 2.189239 8.000000
60.604286 43.117001 2.805280 24.000000
76.413414 -16.660818 -0.996503 17.000000
17.284454 -12.585566 -0.772797 33.000000
24.041405 39.948414 2.467979 14.000000
60.714508 42.861122 2.751135 15.000000
85.457565 17.122644 1.247437 13.000000
83.668671 -18.564219 -1.062077 35.000000
17.258677 -12.663851 -0.762492 28.000000
24.163465 39.835831 2.433602 6.000000
29.134571 20.407824 1.304333 3.000000
38.396229 7.546960 0.566899 3.000000
83.585960 -18.867571 -1.017025 38.000000
17.224831 -12.736402 -0.740593 30.000000
24.266335 39.676739 2.380466 9.000000
29.107908 20.238058 1.275186 9.000000
85.374817 16.456053 1.229256 14.000000
83.467697 -19.162655 -1.001485 27.000000
17.226427 -12.835506 -0.731418 33.000000
20.957407 33.999264 2.009270 7.000000
29.227682 20.162827 1.258571 8.000000
83.455986 -19.482244 -0.942357 27.000000
17.151896 -12.878008 -0.707767 23.000000
21.032894 33.843399 1.962771 8.000000
29.272608 20.028368 1.232393 14.000000
87.958534 16.302151 1.233513 24.000000
83.379311 -19.786879 -0.927345 27.000000
17.124357 -12.965151 -0.693761 27.000000
21.101255 33.690510 1.930344 8.000000
29.256552 19.875267 1.216574 10.000000
87.599365 15.903709 1.243193 21.000000
83.204315 -20.067766 -0.911271 21.000000
9.347562 -7.126091 -0.373493 30.000000
21.260153 33.669254 1.898748 10.000000
29.271711 19.729155 1.195685 8.000000
44.325912 -10.862883 -0.469967 8.000000
