VERSION .7
FIELDS x y z intensity
SIZE 4 4 4 4
TYPE F F F F
COUNT 1 1 1 1
WIDTH 1226
HEIGHT 1
VIEWPOINT 0 0 0 1 0 0 0
POINTS 1226
DATA ascii
17.963676 -10.862056 -0.861489 21.000000
6.466941 -9.174271 -0.109710 23.000000
10.758862 3.178752 -0.839595 4.000000
19.533590 -2.568178 -1.229169 1.000000
17.953859 -10.946184 -0.855584 17.000000
6.354663 -9.082145 -0.100603 40.000000
10.790261 3.140988 -0.846972 1.000000
19.379927 -2.627158 -1.216727 1.000000
17.933071 -11.019560 -0.841703 29.000000
6.127499 -8.826174 -0.086265 46.000000
10.766648 3.095423 -0.850207 1.000000
19.394670 -2.701584 -1.221697 5.000000
17.884315 -11.080105 -0.833959 24.000000
5.932148 -8.608777 -0.074814 40.000000
10.750063 3.043988 -0.849887 9.000000
19.355629 -2.768502 -1.209592 8.000000
17.873617 -11.164339 -0.824311 17.000000
5.937281 -8.684178 -0.064263 22.000000
10.774072 3.012229 -0.856882 14.000000
19.316507 -2.828304 -1.211146 10.000000
17.820375 -11.222089 -0.809023 21.000000
6.047335 -8.911759 -0.056391 84.000000
10.731884 2.958069 -0.856568 77.000000
19.251932 -2.890963 -1.204343 18.000000
17.792019 -11.295514 -0.802243 17.000000
6.101218 -9.062477 -0.047669 26.000000
10.770938 2.926399 -0.866662 7.000000
19.305120 -2.971342 -1.211766 7.000000
17.773991 -11.371314 -0.788463 28.000000
5.925124 -8.867575 -0.035366 21.000000
10.815510 2.893961 -0.873280 2.000000
19.284449 -3.040557 -1.207739 4.000000
17.720055 -11.428553 -0.773182 17.000000
6.022442 -9.085130 -0.024731 21.000000
10.801502 2.847830 -0.877185 1.000000
19.307453 -3.116751 -1.213314 7.000000
17.707312 -11.503656 -0.770596 26.000000
5.726892 -8.705109 -0.014549 61.000000
10.835690 2.814409 -0.883050 3.000000
19.251240 -3.183570 -1.207122 9.000000
17.686623 -11.591445 -0.753237 17.000000
5.699208 -8.729240 -0.005459 88.000000
10.840806 2.773364 -0.886562 24.000000
14.555213 -2.461830 -0.910637 1.000000
17.631838 -11.648146 -0.741638 12.000000
6.044987 -9.333408 0.003882 11.000000
10.859962 2.735895 -0.895171 29.000000
14.742953 -2.549200 -0.920340 1.000000
17.624668 -11.731985 -0.731955 14.000000
6.009662 -9.350238 0.015519 11.000000
10.917833 2.707958 -0.905045 30.000000
9.971436 -6.690426 -0.410934 1.000000
10.889109 2.656492 -0.905749 11.000000
9.878985 -6.676010 -0.401784 3.000000
5.868288 -9.268381 0.034463 24.000000
11.014766 2.644411 -0.919369 1.000000
13.398703 -2.468792 -0.838068 1.000000
9.844134 -6.710179 -0.391051 1.000000
5.617296 -8.947797 0.046098 20.000000
11.106363 2.623386 -0.932221 1.000000
9.885489 -6.791568 -0.389489 1.000000
5.560654 -8.930089 0.055082 22.000000
11.256351 2.615293 -0.948060 1.000000
17.459854 -12.076257 -0.674575 12.000000
5.508390 -8.915362 0.065847 13.000000
11.401396 2.604986 -0.965631 1.000000
17.444366 -12.160308 -0.668264 12.000000
5.517443 -9.003649 0.075565 18.000000
11.439824 2.567588 -0.976285 1.000000
17.453030 -12.261644 -0.662860 12.000000
5.545688 -9.121054 0.085703 9.000000
11.638414 2.567390 -0.998707 1.000000
12.822714 -2.608811 -0.802630 1.000000
17.412237 -12.328551 -0.655568 14.000000
5.275130 -8.741233 0.089098 10.000000
11.691229 2.534142 -1.006640 1.000000
12.734741 -2.639556 -0.800002 1.000000
17.371462 -12.395519 -0.637099 11.000000
5.113550 -8.540736 0.097297 1.000000
12.031281 2.561717 -1.041591 1.000000
12.720098 -2.685183 -0.799695 1.000000
17.332327 -12.459127 -0.629797 21.000000
12.296789 -20.701921 0.256363 36.000000
12.034998 2.516434 -1.049753 1.000000
12.320896 -2.643620 -0.772937 1.000000
17.306959 -12.537357 -0.623075 16.000000
12.296839 -20.875889 0.279103 30.000000
12.307555 2.524140 -1.079300 1.000000
12.285542 -2.687668 -0.775797 1.000000
17.269224 -12.606791 -0.612171 19.000000
12.269403 -21.013401 0.301548 36.000000
12.491596 2.514210 -1.105827 1.000000
12.095920 -2.688246 -0.770894 1.000000
17.263247 -12.699680 -0.609861 10.000000
12.074636 -2.685728 -0.791242 1.000000
17.246172 -12.687119 -0.650398 19.000000
12.192210 -21.041130 0.288629 56.000000
12.309243 2.524486 -1.117015 1.000000
12.209797 -2.673330 -0.806086 1.000000
17.281719 -12.620538 -0.672504 21.000000
12.212818 -20.908110 0.253574 39.000000
11.977965 2.502327 -1.089931 1.000000
12.311640 -2.648378 -0.820992 1.000000
17.311094 -12.544961 -0.694264 24.000000
12.294591 -20.872074 0.224084 34.000000
11.768553 2.505777 -1.071743 1.000000
12.354727 -2.610306 -0.834288 1.000000
17.346167 -12.478262 -0.712587 13.000000
12.252635 -20.635788 0.192682 21.000000
11.681414 2.532014 -1.064646 1.000000
12.623744 -2.614252 -0.856259 1.000000
17.387102 -12.411259 -0.734792 15.000000
5.253405 -8.777800 0.069633 2.000000
11.589198 2.556534 -1.059176 1.000000
12.636789 -2.573281 -0.863343 1.000000
17.395140 -12.321005 -0.755568 16.000000
5.178170 -8.583952 0.054240 4.000000
11.429466 2.565263 -1.041308 1.000000
12.679936 -2.533701 -0.872451 1.000000
17.425343 -12.251281 -0.769907 10.000000
11.395255 2.603583 -1.039094 1.000000
12.938502 -2.536088 -0.894220 1.000000
17.465359 -12.184004 -0.792028 12.000000
5.495609 -8.964507 0.033034 24.000000
11.264533 2.617194 -1.026008 1.000000
13.177488 -2.532814 -0.917148 1.000000
17.501225 -12.113904 -0.806516 12.000000
5.534768 -8.958055 0.022054 39.000000
11.114301 2.625261 -1.013194 1.000000
13.289149 -2.503805 -0.931388 1.000000
9.879091 -6.787173 -0.466738 1.000000
5.541137 -8.895287 0.009146 24.000000
11.022616 2.646296 -1.001725 1.000000
13.259262 -2.445493 -0.930993 1.000000
9.854091 -6.716966 -0.472729 1.000000
5.657226 -9.011402 -0.003714 30.000000
10.998326 2.683137 -1.000405 1.000000
9.886504 -6.686120 -0.485624 4.000000
5.897153 -9.321169 -0.017326 17.000000
10.896263 2.702608 -0.990083 25.000000
9.910732 -6.649697 -0.491873 4.000000
12.768620 -20.019579 -0.062164 24.000000
10.934917 2.754779 -0.990539 5.000000
17.655106 -11.756692 -0.889020 11.000000
12.835677 -19.970612 -0.087011 54.000000
4.366589 3.478322 -0.500201 1.000000
10.890969 2.786197 -0.987477 4.000000
14.374099 -2.433778 -1.029669 1.000000
17.655611 -11.663850 -0.909086 16.000000
12.970474 -20.026300 -0.116601 21.000000
4.292003 3.444697 -0.488259 1.000000
10.851759 2.818583 -0.984852 6.000000
17.684902 -11.590317 -0.930585 22.000000
6.130977 -9.390563 -0.068508 17.000000
4.457769 3.604680 -0.504583 1.000000
10.821924 2.855235 -0.979195 4.000000
19.275005 -3.118418 -1.389339 7.000000
17.722527 -11.522342 -0.945123 22.000000
4.328948 3.526831 -0.487533 1.000000
10.802093 2.892391 -0.974420 7.000000
19.305288 -3.050750 -1.400992 8.000000
17.741096 -11.446507 -0.958747 14.000000
10.772191 2.926740 -0.972684 14.000000
19.301313 -2.977654 -1.403329 9.000000
17.769596 -11.372872 -0.976478 21.000000
6.116557 -9.154074 -0.103765 30.000000
10.766521 2.967616 -0.969219 4.000000
19.306921 -2.906112 -1.406378 12.000000
17.806366 -11.304623 -0.990972 13.000000
6.198668 -9.207225 -0.116237 3.000000
10.755898 3.007148 -0.965321 14.000000
19.272305 -2.828703 -1.413344 25.000000
17.838638 -11.233589 -1.005220 10.000000
6.136852 -9.043677 -0.125902 36.000000
10.740334 3.045283 -0.960994 1.000000
19.327211 -2.760995 -1.420008 10.000000
17.868521 -11.165491 -1.023131 12.000000
6.032835 -8.823941 -0.138062 48.000000
10.758366 3.091009 -0.963566 1.000000
19.375975 -2.695533 -1.433153 8.000000
17.900593 -11.103165 -1.037595 10.000000
5.862167 -8.510401 -0.142496 15.000000
10.784128 3.145329 -0.966997 1.000000
19.449717 -2.633162 -1.441328 7.000000
17.927069 -11.020182 -1.058648 10.000000
5.921712 -8.529754 -0.157684 127.000000
10.758519 3.180692 -0.961794 6.000000
19.538090 -2.572238 -1.450626 7.000000
17.975824 -10.968185 -1.070427 14.000000
6.051640 -8.652275 -0.171398 51.000000
10.770971 3.227349 -0.960005 1.000000
19.586700 -2.505640 -1.457009 3.000000
18.001972 -10.885212 -1.084099 10.000000
5.985291 -8.490982 -0.177704 49.000000
10.764157 3.268349 -0.956504 1.000000
19.931732 -2.475563 -1.489040 1.000000
18.034761 -10.819248 -1.102195 9.000000
6.017640 -8.473905 -0.192302 75.000000
10.747086 3.308288 -0.952155 30.000000
18.056463 -10.742467 -1.115817 9.000000
6.093620 -8.517759 -0.202921 102.000000
10.711423 3.340339 -0.946129 244.000000
18.155241 -10.711335 -1.134246 8.000000
6.104207 -8.466806 -0.213174 31.000000
10.704016 3.381126 -0.944590 233.000000
18.168011 -10.629292 -1.143655 8.000000
6.168840 -8.493798 -0.225392 29.000000
10.682375 3.417400 -0.939837 232.000000
18.249334 -10.587281 -1.161097 8.000000
6.211596 -8.487070 -0.236835 22.000000
10.698529 3.465844 -0.938416 230.000000
18.259335 -10.508066 -1.177834 8.000000
6.152020 -8.344398 -0.246124 12.000000
10.690800 3.506688 -0.934905 223.000000
22.900652 -2.338278 -1.734902 7.000000
18.479109 -10.544573 -1.204410 16.000000
6.242023 -8.401828 -0.259458 10.000000
19.313814 17.592712 -1.978122 7.000000
10.678338 3.546002 -0.929013 221.000000
23.232079 -2.277925 -1.763401 3.000000
18.981964 -10.739479 -1.246067 29.000000
6.169324 -8.243706 -0.266028 24.000000
19.445177 17.843214 -1.975100 9.000000
10.703992 3.596053 -0.928363 215.000000
27.364244 -2.591501 -2.076383 7.000000
19.478090 -10.935065 -1.291894 19.000000
6.250629 -8.294864 -0.277417 11.000000
19.343790 17.881216 -1.957576 8.000000
10.694187 3.640598 -0.928773 36.000000
20.000679 -11.123092 -1.343622 19.000000
19.282497 17.949787 -1.934587 10.000000
10.732751 3.697678 -0.931298 1.000000
29.571791 -2.576795 -2.263203 5.000000
20.538765 -11.323980 -1.393403 32.000000
6.060177 -7.917787 -0.288960 26.000000
19.126860 17.936207 -1.902551 10.000000
10.777211 3.753022 -0.932221 1.000000
21.127279 -11.557264 -1.443376 17.000000
6.148620 -7.975503 -0.302403 54.000000
18.957056 17.908003 -1.869301 18.000000
10.768542 3.794315 -0.926650 3.000000
6.214436 -8.000063 -0.313044 23.000000
18.903309 17.988798 -1.847602 10.000000
10.754869 3.833867 -0.922664 1.000000
6.726015 -3.582311 -0.470096 1.000000
6.251357 -7.989867 -0.324131 34.000000
18.780798 18.003845 -1.819249 8.000000
10.763282 3.885634 -0.918686 1.000000
6.722394 -3.545816 -0.474170 1.000000
6.243260 -7.919537 -0.332776 92.000000
18.862295 18.208744 -1.814897 7.000000
10.768683 3.930126 -0.916286 1.000000
6.288225 -0.405539 -0.485964 7.000000
6.810152 -3.560261 -0.486169 1.000000
6.239534 -7.858236 -0.343386 54.000000
18.664236 18.150179 -1.779403 7.000000
10.743917 3.970032 -0.909492 1.000000
6.314929 -7.893607 -0.354773 33.000000
19.029894 18.641954 -1.797411 7.000000
10.787026 4.026668 -0.910222 1.000000
6.161542 -0.352035 -0.477045 9.000000
6.835534 -3.509971 -0.495558 1.000000
6.357883 -7.890676 -0.366261 32.000000
19.427732 19.171728 -1.817686 8.000000
10.851770 4.096214 -0.912872 1.000000
6.177725 -0.330248 -0.478201 7.000000
6.797997 -3.462258 -0.496012 1.000000
6.430604 -7.921328 -0.379475 15.000000
19.648375 19.532124 -1.825589 9.000000
10.844701 4.143358 -0.911630 1.000000
6.824816 -3.441484 -0.503656 1.000000
6.533818 -7.991300 -0.396546 32.000000
19.497004 19.517431 -1.783996 7.000000
10.849948 4.186646 -0.907107 2.000000
6.662086 -3.331762 -0.492135 1.000000
19.324102 19.486673 -1.760269 7.000000
10.932352 4.264544 -0.911176 1.000000
6.628615 -7.989879 -0.418781 18.000000
19.240042 19.544662 -1.725483 6.000000
6.571620 -7.867937 -0.420698 188.000000
19.019138 19.462433 -1.692986 6.000000
6.615685 -7.856379 -0.434067 98.000000
18.854794 19.429478 -1.660667 7.000000
6.717133 -7.920571 -0.447986 255.000000
18.787792 19.489338 -1.636738 7.000000
6.755545 -7.906931 -0.459523 21.000000
18.644846 19.497086 -1.607463 6.000000
6.650899 -3.145286 -0.513170 1.000000
6.655784 -7.735331 -0.459821 7.000000
18.474478 19.447634 -1.574836 7.000000
6.567206 -3.076304 -0.510927 1.000000
6.684402 -7.716685 -0.468955 32.000000
18.328884 19.443338 -1.540701 6.000000
6.561078 -3.041377 -0.514570 5.000000
6.655865 -7.621701 -0.475422 86.000000
18.173140 19.420238 -1.510296 7.000000
6.581000 -3.021357 -0.519071 9.000000
6.711724 -7.631732 -0.489951 39.000000
18.004370 19.381794 -1.474374 6.000000
6.622592 -3.013902 -0.524114 10.000000
7.077099 -7.987962 -0.525685 45.000000
17.893465 19.397755 -1.447727 7.000000
6.652491 -2.995332 -0.530644 21.000000
6.868587 -7.698305 -0.517223 36.000000
17.769005 19.391466 -1.424436 7.000000
6.683944 -2.985674 -0.535013 14.000000
17.611574 19.375238 -1.385958 6.000000
6.740189 -2.981213 -0.542517 9.000000
17.474443 19.346136 -1.357130 7.000000
6.814754 -2.984378 -0.551551 9.000000
17.297596 19.278486 -1.325690 7.000000
6.875702 -2.981083 -0.559541 9.000000
17.197538 19.308878 -1.305338 7.000000
6.904729 -2.963651 -0.563653 7.000000
7.165573 -7.748960 -0.577139 18.000000
17.041454 19.268637 -1.276084 7.000000
6.307437 2.926477 -0.482562 1.000000
6.965749 -2.959655 -0.571730 5.000000
7.051420 -7.574964 -0.574977 35.000000
16.971428 19.345392 -1.249631 7.000000
7.013038 -2.949450 -0.578727 1.000000
7.011731 -7.474574 -0.580163 94.000000
16.825863 19.308249 -1.221219 7.000000
7.046534 -2.933189 -0.584620 1.000000
6.949589 -7.354124 -0.581645 38.000000
16.700365 19.299837 -1.190207 7.000000
6.993351 -7.346309 -0.591932 96.000000
16.477224 19.183615 -1.157191 6.000000
7.235912 -2.955868 -0.608298 1.000000
6.891736 -7.194172 -0.590139 33.000000
16.439987 19.282803 -1.132942 7.000000
7.263446 -2.940523 -0.612586 1.000000
6.914085 -7.164749 -0.602008 54.000000
16.276386 19.226444 -1.104259 7.000000
7.352212 -2.960043 -0.620983 1.000000
7.272936 -7.476313 -0.641598 26.000000
16.167976 19.240950 -1.075314 6.000000
7.384834 -2.944756 -0.627099 1.000000
7.249704 -7.400570 -0.646341 27.000000
16.056740 19.244562 -1.041702 6.000000
7.408467 -2.925744 -0.628278 4.000000
7.416663 -7.515699 -0.666167 1.000000
15.852725 19.142237 -1.015630 4.000000
7.483319 -2.925150 -0.637990 5.000000
7.300550 -7.349130 -0.660806 1.000000
15.799058 19.213568 -0.994739 1.000000
7.521675 -2.908407 -0.643179 1.000000
25.317064 31.019674 -1.559164 1.000000
16.208637 -6.199203 -1.399292 8.000000
7.381647 -7.322619 -0.683315 9.000000
25.263973 31.187277 -1.520831 1.000000
16.351988 -6.185424 -1.415843 9.000000
7.672286 -7.552706 -0.718854 1.000000
25.178019 31.303949 -1.473077 1.000000
16.523682 -6.181239 -1.431838 8.000000
16.262545 -15.892134 -1.534194 7.000000
25.166622 31.525684 -1.450962 1.000000
16.694847 -6.175612 -1.457208 10.000000
7.303955 -7.085444 -0.699084 18.000000
16.883457 -6.181809 -1.475033 8.000000
7.327147 -7.060930 -0.704412 10.000000
17.081039 -6.176507 -1.496500 8.000000
7.520670 -7.196961 -0.729726 10.000000
17.276430 -6.175654 -1.521297 9.000000
7.571845 -7.192951 -0.741287 1.000000
20.956724 27.036730 -1.086974 8.000000
17.473354 -6.170485 -1.543053 7.000000
16.390848 -15.445954 -1.618343 7.000000
20.783545 27.007481 -1.053106 8.000000
17.692408 -6.175001 -1.573562 6.000000
16.415247 -15.366492 -1.639382 7.000000
20.630587 27.012987 -1.008801 8.000000
11.855306 -4.089054 -1.055274 22.000000
16.479612 -15.303083 -1.655446 8.000000
20.569902 27.129333 -0.980722 8.000000
11.794410 -4.019740 -1.052916 1.000000
9.080435 -8.379184 -0.920361 37.000000
20.510008 27.257269 -0.946872 8.000000
11.888981 -4.003395 -1.064452 1.000000
9.077400 -8.314991 -0.927761 30.000000
23.939016 32.046562 -1.068415 1.000000
11.747047 -3.907722 -1.056984 1.000000
9.107213 -8.281116 -0.938503 24.000000
23.822054 32.134968 -1.026526 8.000000
11.704145 -3.845864 -1.056180 1.000000
9.181300 -8.287213 -0.953858 4.000000
23.746016 32.267223 -0.979120 13.000000
11.747258 -3.810117 -1.058743 1.000000
16.599539 -14.873008 -1.730614 7.000000
23.672400 32.415401 -0.938919 7.000000
4.813625 2.816237 -0.300083 1.000000
11.694022 -3.745536 -1.061336 1.000000
16.628164 -14.778752 -1.746932 7.000000
23.388927 32.239403 -0.896912 1.000000
4.777603 2.818718 -0.295567 1.000000
11.639540 -3.685573 -1.059570 3.000000
16.630865 -14.682727 -1.765468 8.000000
23.329739 32.418983 -0.857563 1.000000
4.857529 2.889926 -0.297208 1.000000
6.138511 0.735233 -0.467026 4.000000
11.672729 -3.644592 -1.067702 1.000000
16.648468 -14.584900 -1.780817 8.000000
6.135856 0.757737 -0.465947 8.000000
11.646674 -3.594113 -1.064223 3.000000
16.711073 -14.542083 -1.794020 7.000000
27.428686 38.695950 -0.919005 1.000000
6.177632 0.785894 -0.468242 7.000000
11.598702 -3.528378 -1.062801 4.000000
16.794531 -14.496650 -1.816207 7.000000
27.228819 38.685249 -0.867044 19.000000
6.283473 0.822773 -0.476490 7.000000
11.581970 -3.479165 -1.064403 187.000000
16.739162 -14.352266 -1.824435 7.000000
27.074860 38.782047 -0.817331 9.000000
11.576384 -3.426883 -1.066864 236.000000
16.782846 -14.283321 -1.842843 8.000000
4.728762 2.930814 -0.272093 1.000000
11.559824 -3.375950 -1.068427 204.000000
16.846426 -14.221221 -1.862916 7.000000
19.851215 2.740459 -1.492708 1.000000
11.580167 -3.340254 -1.073517 186.000000
16.850498 -14.129227 -1.873638 7.000000
19.949413 2.832118 -1.497362 4.000000
11.563230 -3.289509 -1.075052 193.000000
16.881765 -14.050387 -1.890683 7.000000
19.726984 2.874340 -1.477949 1.000000
11.571750 -3.239601 -1.078802 195.000000
16.955957 -13.997306 -1.912015 7.000000
19.908905 2.975406 -1.488853 5.000000
11.582066 -3.201109 -1.082996 191.000000
17.020502 -13.955941 -1.929548 7.000000
19.829117 3.037823 -1.480189 6.000000
11.564892 -3.150783 -1.080303 15.000000
17.012810 -13.845667 -1.934483 7.000000
19.749392 3.099735 -1.468060 17.000000
11.610750 -3.113263 -1.087641 10.000000
17.063055 -13.773068 -1.953181 7.000000
19.851391 3.190339 -1.472973 6.000000
11.620643 -3.074646 -1.091837 8.000000
17.060942 -13.678172 -1.963124 7.000000
19.810797 3.258345 -1.460269 1.000000
11.613774 -3.020833 -1.094217 17.000000
17.055901 -13.562016 -1.975435 7.000000
19.872738 3.343386 -1.462192 2.000000
11.609074 -2.978544 -1.094947 11.000000
17.138771 -13.535386 -1.995196 7.000000
19.762308 3.399337 -1.451456 10.000000
11.619913 -2.935974 -1.094947 15.000000
17.179602 -13.465688 -2.005715 7.000000
21.356976 33.536652 -0.173485 9.000000
19.701452 3.459718 -1.444355 86.000000
11.605691 -2.887170 -1.101022 18.000000
8.629305 -6.712894 -1.016137 19.000000
21.183788 33.522392 -0.124580 10.000000
19.689629 3.532081 -1.430390 76.000000
11.606710 -2.842291 -1.098019 18.000000
8.633726 -6.665683 -1.019535 77.000000
21.058180 33.595661 -0.083043 9.000000
19.774908 3.622240 -1.434013 7.000000
11.622006 -2.798780 -1.102650 30.000000
8.629730 -6.612258 -1.025765 60.000000
20.940817 33.669018 -0.041521 10.000000
75.813248 14.174368 -5.460879 77.000000
11.617651 -2.752720 -1.101272 29.000000
8.598008 -6.538077 -1.024846 24.000000
20.846806 33.780224 0.006928 3.000000
75.664665 14.433806 -5.426928 1.000000
11.651531 -2.715684 -1.107744 10.000000
8.553800 -6.455118 -1.024298 14.000000
13.046670 2.543106 -0.934145 4.000000
11.670923 -2.675142 -1.110756 13.000000
8.574940 -6.417209 -1.033170 12.000000
19.345743 31.855721 0.091068 68.000000
13.082677 2.595186 -0.930316 1.000000
11.715108 -2.637965 -1.113989 3.000000
8.595737 -6.388414 -1.038777 10.000000
19.195662 31.858715 0.129835 87.000000
12.755295 2.578870 -0.907702 1.000000
11.734231 -2.597119 -1.117010 1.000000
5.723142 -4.194845 -0.697005 8.000000
19.086792 31.929634 0.181793 79.000000
11.801665 -2.566707 -1.126779 1.000000
5.786271 -4.208602 -0.709114 5.000000
21.873600 36.897995 0.254543 11.000000
12.336503 2.588467 -0.868173 1.000000
11.786458 -2.518192 -1.126560 1.000000
5.853699 -4.224928 -0.720565 1.000000
21.792677 37.055756 0.300124 1.000000
12.127078 2.590966 -0.851923 1.000000
11.849248 -2.484071 -1.135905 1.000000
5.723128 -4.098869 -0.707602 1.000000
47.226303 80.947807 0.752424 1.000000
11.952059 2.599416 -0.836002 1.000000
11.926342 -2.454635 -1.144569 1.000000
5.778156 -4.106322 -0.718789 1.000000
47.041389 81.314117 0.885398 1.000000
11.816241 2.615271 -0.820801 1.000000
12.027969 -2.429634 -1.153460 1.000000
5.598560 -3.964001 -0.695586 1.000000
11.573519 2.606083 -0.796279 1.000000
12.188368 -2.415572 -1.165797 1.000000
11.456583 2.626013 -0.786861 1.000000
12.294888 -2.387657 -1.179511 1.000000
23.674044 41.929062 0.630329 15.000000
11.379391 2.652255 -0.774028 1.000000
12.523817 -2.384516 -1.198382 1.000000
23.480740 41.945049 0.688011 246.000000
5.050012 3.829001 -0.178129 1.000000
11.215096 2.655270 -0.757418 1.000000
12.561834 -2.344076 -1.201190 3.000000
23.343462 42.043472 0.747050 255.000000
5.187013 3.962903 -0.176632 1.000000
11.142735 2.681306 -0.745154 1.000000
23.335924 42.029896 0.780379 255.000000
5.094615 3.878247 -0.167663 1.000000
11.255069 2.708337 -0.740493 1.000000
12.860724 -2.351105 -1.212826 1.000000
23.485189 41.935825 0.746662 246.000000
11.357429 2.688969 -0.742483 1.000000
12.569174 -2.345446 -1.174881 2.000000
23.661236 41.906380 0.705597 38.000000
11.411073 2.657539 -0.743295 1.000000
12.389897 -2.359017 -1.152264 1.000000
11.556930 2.646890 -0.752159 1.000000
12.313323 -2.391237 -1.139328 1.000000
44.624260 77.729492 1.110714 3.000000
11.746411 2.645014 -0.768075 1.000000
12.187016 -2.415305 -1.126305 1.000000
5.908444 -4.166405 -0.715249 1.000000
47.102135 81.386345 1.083239 1.000000
11.882565 2.629950 -0.778475 1.000000
12.071461 -2.438419 -1.107776 1.000000
5.853179 -4.159637 -0.702807 1.000000
47.278057 81.036514 0.998890 1.000000
12.082740 2.625628 -0.790923 1.000000
11.974833 -2.464615 -1.097579 1.000000
5.708519 -4.106521 -0.680832 1.000000
12.214415 2.607397 -0.796723 1.000000
11.951842 -2.505579 -1.087713 1.000000
5.826984 -4.224236 -0.689197 4.000000
21.889824 36.910675 0.367009 31.000000
12.379891 2.595315 -0.811324 1.000000
11.854652 -2.532762 -1.077612 5.000000
5.795772 -4.234102 -0.682279 9.000000
19.094152 31.941946 0.285788 10.000000
12.765499 2.627347 -0.838243 1.000000
11.772472 -2.560358 -1.068869 1.000000
19.177685 31.816317 0.246386 110.000000
12.936152 2.613085 -0.853440 1.000000
11.754009 -2.601497 -1.059581 1.000000
19.322483 31.804905 0.214342 158.000000
13.077940 2.591874 -0.859825 1.000000
11.764011 -2.648977 -1.059230 1.000000
19.472656 31.801399 0.175724 42.000000
11.739906 -2.690954 -1.049509 1.000000
20.952374 33.938030 0.146186 2.000000
11.749547 -2.738529 -1.049139 1.000000
20.930775 33.639782 0.110640 8.000000
11.696162 -2.771323 -1.041045 5.000000
9.339995 -7.099725 -1.061509 28.000000
21.043350 33.545975 0.069115 7.000000
19.764383 3.616747 -1.306372 11.000000
11.676944 -2.812010 -1.031797 8.000000
9.286822 -7.113162 -1.050189 29.000000
21.146992 33.451229 0.027629 9.000000
19.753115 3.536353 -1.311754 23.000000
11.681251 -2.858384 -1.030982 1.000000
9.233955 -7.126519 -1.034845 18.000000
21.381836 33.562756 -0.020837 9.000000
19.746061 3.460446 -1.313949 96.000000
11.646365 -2.897289 -1.024658 1.000000
9.239796 -7.185217 -1.030209 1.000000
19.749002 3.386402 -1.309798 33.000000
11.607032 -2.932720 -1.017927 29.000000
17.165676 -13.449936 -1.900227 7.000000
19.938198 3.343665 -1.325067 2.000000
11.606029 -2.977762 -1.016683 13.000000
17.144670 -13.535188 -1.888016 7.000000
19.733227 3.234976 -1.317659 5.000000
11.571273 -3.014091 -1.010395 9.000000
17.053341 -13.564841 -1.864265 7.000000
19.798260 3.178256 -1.317776 10.000000
11.589729 -3.064303 -1.004552 4.000000
17.032238 -13.650277 -1.844392 7.000000
19.820492 3.100262 -1.321933 9.000000
11.568590 -3.106287 -0.999536 4.000000
17.016500 -13.735491 -1.832494 8.000000
19.861086 3.032078 -1.327412 9.000000
11.586310 -3.156618 -0.997839 7.000000
16.986607 -13.814489 -1.815475 8.000000
19.876770 2.959964 -1.331249 8.000000
11.565225 -3.196455 -0.994917 5.000000
17.037056 -13.959571 -1.810841 7.000000
19.936626 2.894226 -1.338070 8.000000
11.592150 -3.249676 -0.994020 9.000000
16.979303 -14.016578 -1.790809 7.000000
19.985893 2.830180 -1.344244 8.000000
11.575701 -3.290873 -0.989407 9.000000
16.952000 -14.098829 -1.774000 7.000000
20.065090 2.766416 -1.352431 5.000000
11.592953 -3.341751 -0.983443 6.000000
16.848139 -14.117234 -1.745369 7.000000
20.188583 2.708079 -1.363647 1.000000
11.575582 -3.384937 -0.978827 6.000000
16.842684 -14.218062 -1.738578 7.000000
27.197369 38.914101 -0.588349 9.000000
6.439576 0.811224 -0.434510 1.000000
11.572981 -3.430270 -0.975423 6.000000
16.867786 -14.345461 -1.723254 7.000000
27.202156 38.647373 -0.635177 30.000000
6.372682 0.781338 -0.433196 6.000000
11.584521 -3.479931 -0.973214 1.000000
16.789728 -14.385456 -1.701244 8.000000
27.454109 38.688858 -0.687275 4.000000
6.321348 0.749300 -0.428383 7.000000
11.605391 -3.532626 -0.971786 1.000000
16.744282 -14.463479 -1.683087 7.000000
6.328753 0.728904 -0.428718 10.000000
11.611739 -3.581113 -0.969142 1.000000
16.730970 -14.549140 -1.671022 7.000000
11.651190 -3.640099 -0.969254 1.000000
16.681173 -14.608407 -1.651672 8.000000
23.484713 32.347672 -0.704724 1.000000
11.642844 -3.684384 -0.965387 1.000000
16.647293 -14.686893 -1.634157 7.000000
23.676790 32.373936 -0.742105 10.000000
11.681464 -3.746011 -0.961157 2.000000
16.598347 -14.752251 -1.611270 8.000000
23.742043 32.238251 -0.782737 19.000000
5.083431 2.891313 -0.282953 1.000000
11.710804 -3.802811 -0.958225 1.000000
16.612085 -14.873800 -1.598325 7.000000
23.856298 32.134247 -0.817370 10.000000
5.128621 2.892188 -0.288997 1.000000
11.758668 -3.866054 -0.958948 7.000000
9.180941 -8.281075 -0.877579 34.000000
23.907600 31.957949 -0.849953 2.000000
5.047518 2.822119 -0.286877 1.000000
11.744736 -3.909230 -0.954627 1.000000
9.110484 -8.278284 -0.862943 26.000000
20.567913 27.294540 -0.763637 8.000000
11.806234 -3.977826 -0.956430 1.000000
9.069596 -8.302022 -0.851165 30.000000
20.585382 27.130074 -0.790676 8.000000
11.938169 -4.071061 -0.963892 1.000000
9.059443 -8.351035 -0.842139 5.000000
20.700951 27.065928 -0.832771 8.000000
17.956158 -6.196826 -1.441606 6.000000
16.508648 -15.330048 -1.520058 6.000000
20.854181 27.079706 -0.865163 8.000000
17.745518 -6.197012 -1.419910 7.000000
16.387732 -15.330004 -1.494417 6.000000
20.975491 27.041437 -0.908114 8.000000
17.535107 -6.195734 -1.398353 9.000000
16.401367 -15.455867 -1.481063 7.000000
52.318665 66.892616 -2.342439 1.000000
17.324080 -6.196097 -1.373724 10.000000
7.584736 -7.200161 -0.678124 6.000000
52.729942 66.935661 -2.424796 1.000000
17.142282 -6.202036 -1.354703 9.000000
7.307419 -6.985562 -0.648419 1.000000
52.941235 66.747345 -2.483847 28.000000
16.979618 -6.213658 -1.334120 9.000000
16.293228 -15.690282 -1.431043 7.000000
16.746721 -6.198123 -1.311330 13.000000
16.250830 -15.764657 -1.412548 4.000000
25.273464 31.377735 -1.259136 8.000000
16.598434 -6.212505 -1.292163 9.000000
16.256258 -15.897087 -1.394654 7.000000
25.364086 31.277365 -1.293653 21.000000
16.403402 -6.208147 -1.272588 10.000000
16.204140 -15.951585 -1.378780 6.000000
25.292053 30.966957 -1.326373 10.000000
16.232113 -6.211429 -1.251910 9.000000
7.486279 -7.421232 -0.628115 1.000000
25.344311 30.799831 -1.358032 10.000000
16.058720 -6.206207 -1.228036 9.000000
7.357063 -7.346798 -0.608603 255.000000
25.457125 30.717758 -1.400151 10.000000
15.917758 -6.225285 -1.216160 8.000000
7.291673 -7.335072 -0.598168 36.000000
25.546329 30.596447 -1.433708 10.000000
15.781449 -6.232392 -1.201365 7.000000
7.223029 -7.319479 -0.585731 28.000000
25.584297 30.425417 -1.478501 7.000000
15.675699 -6.257142 -1.186171 6.000000
7.271165 -7.419887 -0.582636 37.000000
25.833672 30.494373 -1.521370 1.000000
15.553716 -6.280951 -1.172955 6.000000
6.997112 -7.192776 -0.554001 122.000000
25.619873 30.018230 -1.543679 1.000000
15.572720 -6.355109 -1.167287 6.000000
7.189530 -7.444976 -0.562333 10.000000
25.736637 29.942738 -1.578917 7.000000
15.646727 -6.452310 -1.165695 4.000000
6.856271 -7.149653 -0.529546 9.000000
25.796062 29.790293 -1.617187 71.000000
7.075835 -2.978768 -0.522038 1.000000
7.078275 -7.435520 -0.538014 27.000000
16.866621 19.341383 -1.071097 5.000000
6.036973 2.794589 -0.409211 1.000000
7.096201 -3.020933 -0.520374 1.000000
7.082162 -7.494414 -0.531371 23.000000
16.982933 19.331266 -1.096472 7.000000
6.120540 2.803494 -0.417647 1.000000
7.016585 -3.017465 -0.511326 1.000000
7.164286 -7.637200 -0.530467 26.000000
17.231674 19.470015 -1.135195 6.000000
6.918781 -3.005501 -0.501031 1.000000
7.128479 -7.657744 -0.519005 15.000000
17.242363 19.345606 -1.154102 6.000000
7.093118 -7.670606 -0.510969 25.000000
17.335556 19.307232 -1.187361 6.000000
17.516291 19.378862 -1.209038 7.000000
17.680317 19.423603 -1.247833 7.000000
17.811401 19.424118 -1.275102 7.000000
17.908827 19.400814 -1.300560 7.000000
6.948301 -7.784914 -0.462889 53.000000
17.992456 19.341869 -1.328962 6.000000
18.222942 19.459841 -1.364538 7.000000
18.334028 19.421614 -1.399725 7.000000
6.841427 -7.834190 -0.434110 9.000000
18.490305 19.450693 -1.429949 7.000000
18.691996 19.519093 -1.458926 7.000000
18.810867 19.499645 -1.491073 7.000000
6.825169 -7.988422 -0.409149 29.000000
18.964609 19.515362 -1.526165 5.000000
6.702400 -7.903199 -0.392656 26.000000
19.125944 19.544415 -1.557588 5.000000
6.622079 -7.866758 -0.382448 68.000000
19.249435 19.540556 -1.581572 7.000000
11.011889 4.339919 -0.825595 1.000000
6.562828 -7.851840 -0.368087 25.000000
19.400404 19.536322 -1.616449 7.000000
10.948184 4.268519 -0.827884 1.000000
6.696926 -8.072218 -0.368101 31.000000
19.548765 19.555592 -1.647613 7.000000
10.884243 4.197698 -0.828019 1.000000
6.643531 -8.064982 -0.355756 29.000000
19.700605 19.556717 -1.678381 10.000000
10.848025 4.138120 -0.828177 1.000000
6.324054 -0.366858 -0.440742 7.000000
6.538206 -7.996666 -0.342659 9.000000
19.870207 19.581009 -1.720914 9.000000
10.825384 4.084095 -0.831390 1.000000
6.322522 -0.391133 -0.441848 7.000000
6.437995 -7.930432 -0.329932 27.000000
19.983566 19.548866 -1.749004 10.000000
10.835336 4.042546 -0.835068 1.000000
6.390727 -0.418870 -0.446719 7.000000
6.343217 -7.872475 -0.317720 31.000000
20.143639 19.568321 -1.781630 8.000000
10.807561 3.987120 -0.837859 1.000000
6.424059 -0.444707 -0.448030 7.000000
6.383195 -7.981794 -0.310473 25.000000
20.336216 19.611036 -1.817048 9.000000
10.784348 3.933710 -0.838965 1.000000
6.535713 -8.231252 -0.310106 23.000000
20.457865 19.597834 -1.841961 9.000000
10.770134 3.883858 -0.842773 1.000000
6.406704 -8.129784 -0.294548 30.000000
20.644077 19.631624 -1.877204 7.000000
10.760256 3.835788 -0.848913 1.000000
6.403113 -8.183827 -0.284805 54.000000
20.550713 19.386339 -1.891338 7.000000
10.788733 3.799313 -0.854017 1.000000
33.337414 -2.664697 -2.332749 2.000000
6.134115 -7.899508 -0.265392 56.000000
20.162413 18.900682 -1.879200 7.000000
10.778618 3.751403 -0.858131 1.000000
32.761662 -2.733799 -2.287349 5.000000
21.136438 -11.557482 -1.300447 10.000000
6.182937 -8.020018 -0.259870 101.000000
19.547710 18.190302 -1.834411 7.000000
10.787296 3.710153 -0.861739 6.000000
29.635786 -2.582372 -2.069754 6.000000
20.543858 -11.331465 -1.250108 29.000000
6.041254 -7.895919 -0.246448 65.000000
19.503151 18.015905 -1.847301 7.000000
10.696402 3.635104 -0.861340 237.000000
20.040258 -11.149684 -1.209900 17.000000
6.409891 -8.438601 -0.251583 26.000000
19.643742 18.000174 -1.881797 11.000000
10.695046 3.590971 -0.866107 235.000000
27.415968 -2.601228 -1.906402 6.000000
6.330930 -8.398378 -0.238671 38.000000
19.708115 17.926718 -1.909697 11.000000
10.707848 3.551651 -0.870045 237.000000
19.022738 -10.771314 -1.134188 11.000000
6.095013 -8.144408 -0.223742 26.000000
19.833065 17.920549 -1.934793 10.000000
10.720505 3.512287 -0.873983 226.000000
18.501848 -10.557548 -1.090301 10.000000
6.148711 -8.279245 -0.216021 37.000000
10.709009 3.465109 -0.879910 226.000000
18.182194 -10.463673 -1.062705 23.000000
6.131771 -8.316931 -0.205619 26.000000
10.726092 3.427259 -0.884230 229.000000
84.191849 -9.220508 -5.892761 28.000000
18.122763 -10.518080 -1.046812 19.000000
6.201711 -8.476667 -0.199836 38.000000
10.700994 3.374011 -0.883057 226.000000
84.175407 -9.531054 -5.849447 25.000000
18.093182 -10.589754 -1.036334 24.000000
6.169265 -8.494383 -0.188747 36.000000
10.707939 3.333101 -0.890494 220.000000
18.072069 -10.666517 -1.022671 27.000000
6.348655 -8.809107 -0.183848 19.000000
10.743608 3.301061 -0.896397 1.000000
19.992048 -2.412223 -1.390462 2.000000
18.046034 -10.740526 -1.016071 35.000000
10.793188 3.273049 -0.907451 1.000000
20.007582 -2.488530 -1.395703 1.000000
18.000319 -10.798586 -1.004597 27.000000
10.761836 3.220518 -0.907763 1.000000
19.661886 -2.518746 -1.372223 5.000000
17.982582 -10.877774 -0.991120 10.000000
6.465003 -9.174920 -0.158684 26.000000
10.787602 3.185196 -0.912898 1.000000
19.464838 -2.566051 -1.355675 7.000000
17.968472 -10.959395 -0.985186 18.000000
6.139203 -8.780731 -0.142125 68.000000
10.755836 3.133003 -0.913168 1.000000
19.406107 -2.630707 -1.348812 12.000000
17.924509 -11.022921 -0.970262 26.000000
5.963222 -8.592746 -0.127790 18.000000
10.785789 3.098888 -0.922628 6.000000
19.366453 -2.701099 -1.343338 9.000000
17.892906 -11.094072 -0.959699 15.000000
5.849531 -8.495230 -0.115217 25.000000
10.768531 3.049217 -0.924076 8.000000
19.331501 -2.768494 -1.345033 10.000000
17.865395 -11.167874 -0.945674 19.000000
6.155594 -9.006870 -0.114247 34.000000
10.755326 3.002941 -0.925917 11.000000
19.301718 -2.836462 -1.340254 32.000000
17.835312 -11.235843 -0.931406 15.000000
6.126997 -9.032549 -0.100965 9.000000
10.727203 2.952750 -0.930379 172.000000
19.276621 -2.904992 -1.335824 10.000000
17.798500 -11.303988 -0.924267 16.000000
6.253015 -9.291448 -0.093828 24.000000
10.756873 2.918546 -0.935937 7.000000
17.770109 -11.377573 -0.910193 14.000000
6.087296 -9.113725 -0.080340 29.000000
4.351963 3.499068 -0.482660 1.000000
10.800875 2.888025 -0.942768 1.000000
14.672677 -2.321299 -1.017933 1.000000
17.720423 -11.437551 -0.895038 16.000000
5.799808 -8.752593 -0.065973 32.000000
4.302135 3.433120 -0.480575 1.000000
10.801770 2.843869 -0.947777 6.000000
19.254681 -3.111681 -1.333103 9.000000
17.707958 -11.521665 -0.889148 21.000000
5.859909 -8.910687 -0.057703 29.000000
4.345526 3.441752 -0.489859 3.000000
10.834929 2.814212 -0.953798 7.000000
19.252205 -3.187182 -1.337191 7.000000
17.693211 -11.600178 -0.875639 21.000000
6.155073 -9.434663 -0.049153 6.000000
10.855145 2.772996 -0.962469 24.000000
14.503557 -2.460905 -1.002885 1.000000
17.646662 -11.662362 -0.868049 21.000000
6.059626 -9.359590 -0.038921 1.000000
10.898726 2.741616 -0.969387 28.000000
17.650036 -11.757763 -0.855499 10.000000
12.861969 -20.019201 -0.058142 34.000000
10.921768 2.708934 -0.976569 25.000000
9.950379 -6.681337 -0.479289 3.000000
5.850099 -9.179280 -0.018998 8.000000
11.023702 2.689327 -0.988743 1.000000
9.859897 -6.673142 -0.467781 4.000000
5.940965 -9.394046 -0.007760 11.000000
10.994401 2.639522 -0.989218 1.000000
13.343612 -2.461050 -0.922640 1.000000
9.861578 -6.724591 -0.460626 1.000000
5.648767 -9.004906 0.001855 28.000000
11.106206 2.619256 -1.004344 1.000000
13.290222 -2.501605 -0.921947 1.000000
9.869938 -6.783421 -0.457988 1.000000
5.519534 -8.867502 0.012761 33.000000
11.178462 2.593084 -1.014049 1.000000
13.129253 -2.521167 -0.909072 1.000000
17.480795 -12.108791 -0.798336 10.000000
5.530572 -8.954760 0.025717 21.000000
11.317573 2.585834 -1.032011 1.000000
12.977358 -2.543704 -0.901543 1.000000
17.477495 -12.201540 -0.792771 32.000000
5.482033 -8.949371 0.032971 9.000000
11.400491 2.554580 -1.046808 1.000000
12.850851 -2.567853 -0.888806 1.000000
17.441166 -12.271505 -0.781977 16.000000
11.559476 2.549977 -1.062707 1.000000
12.709221 -2.588030 -0.881935 2.000000
17.402740 -12.335512 -0.767268 10.000000
5.187010 -8.601998 0.050842 3.000000
11.671099 2.525513 -1.080432 1.000000
12.582721 -2.610337 -0.869308 3.000000
17.369827 -12.408082 -0.760356 17.000000
12.348378 -20.648991 0.142774 27.000000
4.665477 3.389668 -0.570526 1.000000
11.907756 2.535416 -1.107983 1.000000
12.333467 -2.605815 -0.859373 1.000000
17.353138 -12.483277 -0.753962 18.000000
12.204723 -20.571449 0.162817 27.000000
4.406991 3.177252 -0.543234 1.000000
12.028744 2.512935 -1.126985 1.000000
12.280234 -2.641623 -0.851928 1.000000
17.299494 -12.541161 -0.742422 13.000000
12.273684 -20.861547 0.185879 65.000000
4.373636 3.128907 -0.543394 1.000000
12.486008 2.560738 -1.175670 1.000000
12.177446 -2.666247 -0.852027 1.000000
17.293970 -12.634111 -0.736682 20.000000
12.157836 -20.830675 0.210484 98.000000
4.327746 3.072160 -0.542841 1.000000
12.591501 2.534318 -1.200548 1.000000
11.996424 -2.674924 -0.844384 1.000000
17.267773 -12.712301 -0.733799 14.000000
12.187706 -21.050291 0.225009 33.000000
4.366546 3.111179 -0.553116 1.000000
12.521529 2.520235 -1.211868 1.000000
11.892737 -2.651804 -0.858455 1.000000
17.254749 -12.702715 -0.766943 18.000000
12.156409 -20.987787 0.198963 39.000000
4.351152 3.124318 -0.551668 1.000000
12.346009 2.532026 -1.200210 1.000000
11.969994 -2.623014 -0.871930 1.000000
17.269978 -12.621207 -0.791825 17.000000
12.146527 -20.802958 0.163974 106.000000
4.375619 3.167420 -0.553450 1.000000
12.029692 2.513134 -1.170347 1.000000
12.134790 -2.612552 -0.894119 1.000000
17.315439 -12.557332 -0.814225 28.000000
12.232944 -20.775709 0.130447 85.000000
4.303935 3.139634 -0.543016 1.000000
11.786076 2.509508 -1.149697 1.000000
12.168065 -2.573087 -0.904598 1.000000
17.340372 -12.478686 -0.835646 10.000000
12.221250 -20.591116 0.100300 28.000000
4.264570 3.134931 -0.536696 1.000000
11.591950 2.512622 -1.131652 1.000000
12.357602 -2.565885 -0.924627 1.000000
17.370907 -12.408854 -0.857416 10.000000
12.344443 -20.634233 0.071343 22.000000
4.401260 3.260329 -0.551535 1.000000
11.504895 2.537937 -1.124054 1.000000
12.386310 -2.524526 -0.928294 1.000000
17.403303 -12.335910 -0.879153 11.000000
5.179324 -8.589252 0.015755 6.000000
4.261784 3.181266 -0.534577 1.000000
11.373912 2.552794 -1.114216 1.000000
12.526531 -2.505322 -0.951559 2.000000
17.435375 -12.262882 -0.900858 16.000000
11.320355 2.586470 -1.109934 1.000000
12.603967 -2.472800 -0.959001 1.000000
17.452850 -12.184335 -0.918166 11.000000
5.543708 -9.046510 -0.007407 13.000000
4.398784 3.348550 -0.544003 1.000000
11.146333 2.589732 -1.089764 1.000000
12.877178 -2.477423 -0.981393 3.000000
17.476192 -12.105602 -0.935642 14.000000
5.556850 -8.997308 -0.022148 24.000000
4.307739 3.304250 -0.531367 1.000000
11.084208 2.614069 -1.086538 1.000000
13.042277 -2.459649 -1.002600 1.000000
9.875450 -6.787209 -0.537855 1.000000
5.596131 -8.990561 -0.035118 19.000000
11.050257 2.650892 -1.080197 1.000000
13.158894 -2.431731 -1.013221 1.000000
9.861634 -6.727150 -0.544171 1.000000
5.671546 -9.037715 -0.046557 14.000000
10.968289 2.673781 -1.069159 1.000000
9.854464 -6.674482 -0.555041 5.000000
5.758644 -9.112794 -0.058325 17.000000
10.881467 2.694906 -1.057703 1.000000
13.632438 -2.413581 -1.060411 1.000000
9.914024 -6.656926 -0.565242 2.000000
5.828489 -9.145372 -0.070033 11.000000
10.905130 2.743226 -1.062953 9.000000
17.673143 -11.773156 -1.020015 9.000000
5.810562 -9.043935 -0.084429 3.000000
4.360804 3.473713 -0.526033 1.000000
10.870275 2.780903 -1.056684 7.000000
17.680204 -11.688963 -1.032893 10.000000
12.958468 -20.015419 -0.212246 57.000000
4.297856 3.449394 -0.516081 1.000000
10.821956 2.808826 -1.052934 6.000000
17.697083 -11.615970 -1.053845 10.000000
6.294140 -9.647828 -0.116614 17.000000
10.820575 2.854879 -1.049965 6.000000
17.734262 -11.538780 -1.075504 9.000000
6.167307 -9.378123 -0.125382 20.000000
10.811401 2.890840 -1.046059 1.000000
17.755175 -11.468763 -1.085556 9.000000
5.826796 -8.799991 -0.128950 19.000000
10.786671 2.926630 -1.040761 5.000000
17.819679 -11.422472 -1.101872 8.000000
6.122584 -9.173489 -0.148228 34.000000
10.783916 2.974435 -1.041688 8.000000
17.927954 -11.390597 -1.120600 7.000000
6.143716 -9.129040 -0.159415 17.000000
10.793173 3.015538 -1.043543 1.000000
19.262115 -2.830642 -1.542500 10.000000
17.947456 -11.310867 -1.141499 7.000000
6.144550 -9.061830 -0.173906 38.000000
4.337019 3.640481 -0.506352 1.000000
10.763236 3.049747 -1.037784 1.000000
19.291077 -2.766141 -1.550883 13.000000
18.017876 -11.271940 -1.162196 6.000000
6.118091 -8.958706 -0.181785 102.000000
4.266937 3.608395 -0.494796 1.000000
10.757119 3.090651 -1.034339 1.000000
19.290947 -2.694001 -1.553489 8.000000
18.005520 -11.176951 -1.173715 6.000000
5.902819 -8.572619 -0.187129 37.000000
10.779527 3.139904 -1.033640 1.000000
19.325760 -2.619815 -1.562284 7.000000
18.066917 -11.123537 -1.189910 7.000000
5.926874 -8.543552 -0.199653 148.000000
10.743861 3.174320 -1.027438 3.000000
19.359049 -2.558980 -1.564281 5.000000
18.051645 -11.023096 -1.197345 7.000000
5.952295 -8.513403 -0.210340 26.000000
10.765544 3.223675 -1.030634 1.000000
19.614641 -2.519653 -1.594598 2.000000
18.082666 -10.951252 -1.211539 8.000000
5.898341 -8.380049 -0.216448 27.000000
10.758765 3.264661 -1.027166 1.000000
19.658087 -2.452029 -1.600869 1.000000
18.062048 -10.848483 -1.222244 8.000000
5.975180 -8.417225 -0.230644 21.000000
10.740985 3.306411 -1.024750 9.000000
20.048475 -2.419032 -1.635404 1.000000
18.155811 -10.805863 -1.247844 8.000000
6.015986 -8.412343 -0.243726 30.000000
10.682759 3.327309 -1.016304 243.000000
20.501991 -2.401175 -1.675331 7.000000
18.146132 -10.723044 -1.255933 9.000000
6.080223 -8.439748 -0.256032 24.000000
10.693986 3.375905 -1.014651 235.000000
18.206083 -10.668635 -1.272152 9.000000
6.160876 -8.485946 -0.269105 108.000000
10.681876 3.415185 -1.010737 226.000000
18.200945 -10.576199 -1.287514 8.000000
6.222717 -8.508495 -0.283395 33.000000
10.684004 3.459078 -1.006203 230.000000
18.242472 -10.502600 -1.302209 8.000000
6.235890 -8.461246 -0.293596 29.000000
10.685784 3.502977 -1.003617 226.000000
22.947779 -2.347137 -1.892441 3.000000
18.523584 -10.582812 -1.330977 10.000000
6.110315 -8.230547 -0.295282 255.000000
10.687054 3.546825 -1.004950 235.000000
23.258808 -2.288743 -1.921458 6.000000
19.039040 -10.784934 -1.380501 9.000000
10.683923 3.589311 -0.999938 221.000000
27.315207 -2.586857 -2.255767 8.000000
6.066409 -8.050396 -0.311500 9.000000
18.174088 16.805838 -1.948139 1.000000
10.693968 3.638441 -0.998204 57.000000
6.640151 -3.664048 -0.493093 1.000000
6.089629 -8.019883 -0.321736 32.000000
18.578978 17.294891 -1.979848 7.000000
10.765656 3.706913 -1.002152 1.000000
28.036751 -2.447967 -2.333592 8.000000
6.605008 -3.613140 -0.496095 1.000000
6.075138 -7.948825 -0.330137 75.000000
18.721500 17.568367 -1.979996 7.000000
10.728975 3.738324 -0.994011 1.000000
28.522228 -2.385052 -2.373256 1.000000
6.219876 -8.076674 -0.347079 113.000000
18.752430 17.727093 -1.967474 9.000000
10.762506 3.794300 -0.994386 1.000000
28.445929 -2.273715 -2.371213 4.000000
6.253681 -8.056388 -0.357929 10.000000
18.717453 17.824390 -1.947960 9.000000
10.730247 3.827201 -0.986685 1.000000
28.668091 -2.180725 -2.389017 8.000000
6.378361 -8.155126 -0.374208 36.000000
18.666660 17.894432 -1.926146 14.000000
10.758319 3.881719 -0.990567 1.000000
6.208957 -7.887343 -0.375094 101.000000
18.536644 17.894379 -1.905599 11.000000
6.265561 -7.899505 -0.385573 40.000000
18.429451 17.921860 -1.874255 9.000000
6.314266 -7.898429 -0.399074 25.000000
18.265055 17.892708 -1.841762 9.000000
6.058700 -0.347221 -0.509598 10.000000
6.324540 -7.857712 -0.406891 34.000000
18.189837 17.950144 -1.818384 8.000000
6.099792 -0.326082 -0.512945 8.000000
6.405186 -7.901283 -0.419193 164.000000
18.152952 18.039251 -1.798536 7.000000
6.493861 -7.950921 -0.433856 50.000000
18.296679 18.328638 -1.792798 7.000000
6.485856 -7.879173 -0.445572 37.000000
18.324703 18.478867 -1.778721 7.000000
6.511302 -7.851262 -0.452475 34.000000
19.097862 19.400232 -1.836792 7.000000
6.477472 -7.755218 -0.460610 36.000000
18.999754 19.435810 -1.810045 7.000000
6.366679 -3.098362 -0.524934 1.000000
6.512076 -7.738820 -0.468127 255.000000
18.856300 19.431030 -1.784165 7.000000
6.337321 -3.055398 -0.525291 1.000000
6.582525 -7.770091 -0.483805 146.000000
18.682180 19.393324 -1.750804 7.000000
6.370723 -3.042775 -0.530849 7.000000
6.651471 -7.796134 -0.495833 9.000000
18.491531 19.336763 -1.711433 7.000000
6.395101 -3.025682 -0.535678 17.000000
18.459303 19.438454 -1.691232 7.000000
6.428465 -3.012681 -0.541283 13.000000
18.282824 19.394476 -1.658214 6.000000
6.479204 -3.008921 -0.550939 35.000000
6.718035 -7.703743 -0.524955 24.000000
18.165052 19.411596 -1.626028 6.000000
6.544273 -3.010029 -0.559324 10.000000
6.772285 -7.708730 -0.535961 39.000000
17.986025 19.355268 -1.592898 6.000000
6.573661 -2.993019 -0.564654 8.000000
6.860970 -7.749464 -0.553301 39.000000
17.827911 19.326689 -1.562130 7.000000
6.679741 -3.011809 -0.576674 4.000000
6.863052 -7.700215 -0.560434 35.000000
17.694002 19.323153 -1.529060 7.000000
17.550097 19.300835 -1.499595 6.000000
17.410038 19.288364 -1.466360 6.000000
17.343493 19.343220 -1.443407 7.000000
17.123947 19.239769 -1.408449 7.000000
6.781859 -2.912315 -0.599026 1.000000
7.113592 -7.698136 -0.620888 52.000000
17.117167 19.367861 -1.386296 6.000000
6.957302 -2.957500 -0.617545 1.000000
7.032567 -7.554711 -0.620434 144.000000
16.938194 19.307508 -1.355046 7.000000
7.027507 -2.956979 -0.626830 1.000000
6.951417 -7.418059 -0.620005 48.000000
16.750261 19.228266 -1.318596 6.000000
6.948563 -7.358183 -0.627864 36.000000
16.605150 19.203346 -1.294934 7.000000
6.940712 -7.296111 -0.633556 28.000000
16.490139 19.212214 -1.260437 7.000000
6.891068 -7.190961 -0.635341 30.000000
16.413824 19.258919 -1.242025 7.000000
7.068110 -7.324358 -0.660006 26.000000
16.231062 19.186481 -1.207130 7.000000
7.189214 -7.400580 -0.679870 195.000000
16.106970 19.175142 -1.176588 7.000000
7.274379 -7.428351 -0.692389 31.000000
15.998980 19.188948 -1.147610 6.000000
7.355882 -7.459314 -0.706847 1.000000
15.868791 19.175257 -1.117187 6.000000
15.716748 19.127075 -1.089530 6.000000
15.590422 19.115746 -1.059742 7.000000
15.411113 19.031139 -1.026372 6.000000
7.207767 -7.102862 -0.720043 10.000000
7.224936 -7.070242 -0.728155 10.000000
23.253271 29.139297 -1.490811 9.000000
16.676279 -6.172052 -1.558834 7.000000
7.417393 -7.200516 -0.753701 17.000000
23.262045 29.370453 -1.458968 9.000000
16.843016 -6.163669 -1.581761 9.000000
7.333073 -7.071579 -0.751684 25.000000
23.107813 29.385895 -1.416514 26.000000
17.029968 -6.158040 -1.603456 12.000000
7.422175 -7.100224 -0.766903 10.000000
21.067070 26.993742 -1.267549 6.000000
17.220461 -6.155647 -1.628907 7.000000
7.623449 -7.241973 -0.796156 1.000000
20.875580 26.941755 -1.225940 8.000000
17.439587 -6.161983 -1.653995 8.000000
16.365217 -15.432589 -1.722929 7.000000
20.768486 26.987911 -1.195144 8.000000
17.616381 -6.151915 -1.678462 5.000000
16.411781 -15.374001 -1.738248 6.000000
20.656599 27.056837 -1.147089 9.000000
11.885935 -4.101940 -1.135458 1.000000
20.549126 27.101931 -1.122335 8.000000
11.815679 -4.029290 -1.131722 1.000000
9.083135 -8.384611 -0.977208 33.000000
20.503181 27.238300 -1.089272 8.000000
11.730021 -3.954427 -1.128723 1.000000
9.080101 -8.320379 -0.984409 35.000000
24.073708 32.226871 -1.243064 8.000000
11.707628 -3.894609 -1.129398 1.000000
9.111214 -8.284755 -0.997306 22.000000
23.872522 32.191307 -1.196463 9.000000
11.696455 -3.847861 -1.131418 1.000000
9.178798 -8.290771 -1.010381 8.000000
23.701782 32.207119 -1.151902 10.000000
11.686429 -3.797151 -1.133419 1.000000
16.602690 -14.886283 -1.841158 7.000000
23.610437 32.318710 -1.117983 9.000000
11.653599 -3.734832 -1.135234 5.000000
16.629879 -14.801069 -1.857707 6.000000
23.539658 32.471008 -1.064219 4.000000
4.763161 2.810198 -0.326627 1.000000
11.660795 -3.694543 -1.139042 2.000000
16.686527 -14.742238 -1.877554 7.000000
23.269043 32.334641 -1.022293 1.000000
6.046113 0.725237 -0.500644 2.000000
11.650757 -3.642195 -1.140985 3.000000
16.739212 -14.679893 -1.896984 7.000000
23.217794 32.514122 -0.983405 1.000000
4.679054 2.805905 -0.315540 1.000000
6.048447 0.748014 -0.499990 7.000000
11.620836 -3.586140 -1.141043 5.000000
16.776869 -14.604486 -1.910815 7.000000
27.351061 38.586433 -1.114612 1.000000
6.065525 0.772708 -0.500558 8.000000
11.581518 -3.527568 -1.135905 10.000000
16.761427 -14.483397 -1.918577 7.000000
27.196726 38.653988 -1.064295 14.000000
6.112149 0.801424 -0.503562 7.000000
11.555470 -3.473404 -1.140593 234.000000
16.818165 -14.430193 -1.938779 7.000000
27.066936 38.770699 -1.015230 7.000000
6.588318 0.888434 -0.541889 3.000000
11.563974 -3.425406 -1.146437 241.000000
16.802595 -14.300130 -1.949755 7.000000
19.914619 2.678406 -1.630839 7.000000
11.566306 -3.382225 -1.145491 221.000000
16.871702 -14.262741 -1.967820 8.000000
19.840492 2.742508 -1.625581 61.000000
