VERSION .7
FIELDS x y z intensity
SIZE 4 4 4 4
TYPE F F F F
COUNT 1 1 1 1
WIDTH 1240
HEIGHT 1
VIEWPOINT 0 0 0 1 0 0 0
POINTS 1240
DATA ascii
10.887761 3.039918 -1.657162 38.000000
15.116904 -2.261934 -2.072073 2.000000
5.872037 -8.725348 -0.518059 104.000000
4.242743 3.478832 -0.730124 155.000000
10.807614 2.972855 -1.651208 8.000000
15.073874 -2.312012 -2.070033 4.000000
5.730663 -8.586272 -0.497656 28.000000
4.246075 3.458081 -0.733584 150.000000
10.827987 2.935812 -1.652665 6.000000
15.109707 -2.374223 -2.073416 5.000000
5.707960 -8.613984 -0.487316 25.000000
4.250414 3.435781 -0.737980 139.000000
10.899677 2.912405 -1.670015 11.000000
15.065881 -2.426650 -2.071378 5.000000
5.881344 -3.858914 -0.709557 1.000000
5.700044 -8.667594 -0.480148 25.000000
4.243253 3.404353 -0.738433 143.000000
10.890082 2.869152 -1.671018 33.000000
5.678304 -8.700540 -0.466335 34.000000
4.247344 3.382123 -0.742774 158.000000
10.895593 2.823879 -1.678142 8.000000
14.515758 -2.449945 -1.990365 3.000000
5.619449 -8.679700 -0.455070 7.000000
4.247339 3.356754 -0.747355 163.000000
11.164536 2.847880 -1.721980 1.000000
13.935069 -2.404500 -1.914451 4.000000
5.637610 -8.781480 -0.448319 15.000000
4.247408 3.331590 -0.750015 148.000000
11.389531 2.860853 -1.763435 1.000000
13.609315 -2.399689 -1.868437 1.000000
5.792865 -9.085977 -0.451629 1.000000
4.247351 3.306472 -0.752648 158.000000
11.624929 2.874726 -1.802513 4.000000
4.243143 3.278291 -0.755494 100.000000
11.662488 2.840852 -1.815359 1.000000
6.195580 -9.872773 -0.464069 10.000000
4.250572 3.259221 -0.760406 143.000000
11.427985 2.735180 -1.781329 1.000000
12.660868 -2.380855 -1.741820 2.000000
6.090028 -9.780234 -0.446633 23.000000
4.324982 3.291176 -0.776394 8.000000
11.408625 2.684273 -1.782970 1.000000
12.482328 -2.394681 -1.713936 5.000000
5.855036 -4.090610 -0.682707 1.000000
5.664247 -9.174778 -0.404795 7.000000
11.437042 2.646757 -1.790076 1.000000
12.137639 -2.374711 -1.669989 1.000000
5.860742 -4.126644 -0.680082 1.000000
5.592237 -9.125701 -0.390586 7.000000
11.465176 2.606928 -1.801300 1.000000
12.075549 -2.410741 -1.658331 1.000000
5.809330 -4.122375 -0.672102 1.000000
5.609846 -9.226575 -0.384628 4.000000
11.420374 2.552756 -1.801141 1.000000
11.920678 -2.425289 -1.640434 1.000000
5.830911 -4.169906 -0.672575 1.000000
12.283571 -20.362709 -0.822133 39.000000
11.486824 2.525542 -1.812321 1.000000
11.926826 -2.472098 -1.638187 1.000000
5.862319 -4.203202 -0.675520 6.000000
5.172111 -8.645392 -0.335963 3.000000
12.040524 2.601054 -1.906968 1.000000
11.854217 -2.504559 -1.629523 1.000000
5.843125 -4.221951 -0.671279 8.000000
5.062980 -8.530420 -0.322140 6.000000
11.952778 2.534101 -1.898068 1.000000
11.723567 -2.521877 -1.614954 1.000000
9.503176 -6.909531 -1.089973 34.000000
5.089126 -8.643070 -0.315207 9.000000
12.898969 2.685338 -2.056165 5.000000
11.699278 -2.563692 -1.612952 1.000000
4.939112 -8.459054 -0.299277 6.000000
12.830231 2.622002 -2.050686 5.000000
11.684691 -2.605415 -1.614374 1.000000
17.396261 -12.844387 -1.983184 6.000000
4.909709 -8.476510 -0.289020 4.000000
12.760606 2.556770 -2.051939 5.000000
11.654722 -2.645749 -1.615873 1.000000
17.405272 -12.949878 -1.985790 7.000000
12.525037 2.509570 -2.034628 5.000000
11.676110 -2.650604 -1.640123 1.000000
12.485587 2.551570 -2.034358 5.000000
11.708515 -2.612872 -1.653985 1.000000
4.913003 -8.485613 -0.304717 8.000000
12.539341 2.610470 -2.042369 5.000000
11.727124 -2.571939 -1.659542 1.000000
5.760486 -4.214495 -0.680986 7.000000
5.010389 -8.584569 -0.322789 10.000000
11.959275 2.537660 -1.949462 1.000000
11.760867 -2.527753 -1.671364 1.000000
5.810726 -4.220190 -0.694034 4.000000
5.027421 -8.545095 -0.335821 8.000000
11.828792 2.557475 -1.929779 1.000000
11.807087 -2.496754 -1.683187 1.000000
5.716560 -4.119881 -0.688427 1.000000
5.026388 -8.475508 -0.347549 6.000000
11.530003 2.537145 -1.882538 1.000000
11.887728 -2.468322 -1.702024 1.000000
5.832215 -4.170839 -0.708091 1.000000
12.098351 -20.238911 -0.860493 23.000000
11.486769 2.573913 -1.874972 1.000000
11.950198 -2.433467 -1.711788 1.000000
5.724693 -4.045814 -0.700931 1.000000
5.617761 -9.320023 -0.412345 1.000000
11.520586 2.625872 -1.882051 1.000000
12.059222 -2.409670 -1.739262 1.000000
5.548785 -9.133329 -0.419884 22.000000
11.535402 2.671641 -1.885983 1.000000
12.140548 -2.379680 -1.751924 1.000000
5.509960 -8.998487 -0.425633 7.000000
4.234081 3.266572 -0.784912 37.000000
11.530030 2.719210 -1.882634 1.000000
12.386795 -2.380837 -1.790679 1.000000
5.598739 -9.072213 -0.444953 16.000000
4.234231 3.291514 -0.783347 202.000000
11.630919 2.785896 -1.900684 1.000000
12.584641 -2.368794 -1.824792 1.000000
5.751399 -9.247202 -0.469749 20.000000
4.234361 3.316584 -0.780821 134.000000
12.152842 2.962543 -1.983426 1.000000
6.173310 -9.848736 -0.515626 18.000000
4.231537 3.337073 -0.778496 134.000000
12.147221 3.006133 -1.984209 1.000000
14.470839 -2.611538 -2.108488 6.000000
4.234027 3.366691 -0.777579 86.000000
12.518859 3.151489 -2.042345 5.000000
14.440960 -2.551529 -2.105370 6.000000
4.230990 3.387238 -0.775218 109.000000
12.498901 3.192900 -2.036280 5.000000
14.400000 -2.489900 -2.108467 6.000000
5.707608 -8.893928 -0.507609 29.000000
4.230631 3.412470 -0.772599 143.000000
12.496676 3.241170 -2.037839 5.000000
14.360295 -2.426284 -2.103868 6.000000
5.608060 -8.672060 -0.510514 25.000000
4.236729 3.445553 -0.770399 79.000000
12.450248 3.284849 -2.027887 5.000000
14.383377 -2.375994 -2.108557 6.000000
5.629774 -8.639352 -0.522372 26.000000
4.224988 3.460576 -0.767540 95.000000
12.501316 3.342703 -2.038000 5.000000
14.283430 -2.305736 -2.100387 6.000000
5.996342 -3.888121 -0.788990 1.000000
5.634876 -8.581542 -0.532638 19.000000
4.228068 3.489070 -0.765540 105.000000
12.446173 3.379218 -2.026497 5.000000
14.213250 -2.238445 -2.093917 6.000000
6.135471 -3.946468 -0.810543 1.000000
5.703004 -8.619568 -0.548893 29.000000
4.230894 3.517549 -0.764465 83.000000
12.480807 3.442474 -2.029739 5.000000
14.234943 -2.188424 -2.103618 6.000000
5.736898 -8.602116 -0.563595 32.000000
4.226078 3.539820 -0.761030 63.000000
12.540759 3.506162 -2.036810 5.000000
14.179271 -2.124166 -2.096726 6.000000
5.632905 -8.382646 -0.561109 96.000000
4.228303 3.569400 -0.757006 105.000000
12.461073 3.537876 -2.019210 5.000000
14.162847 -2.068660 -2.090611 6.000000
5.591775 -8.259018 -0.566361 30.000000
4.268962 3.629319 -0.763560 8.000000
12.519862 3.601840 -2.030762 5.000000
14.012519 -1.994277 -2.074897 6.000000
5.614550 -8.230623 -0.577967 62.000000
12.512000 3.649285 -2.026983 5.000000
14.009195 -1.938953 -2.080852 8.000000
5.664070 -8.238192 -0.592208 204.000000
12.608196 3.727538 -2.040066 5.000000
14.030554 -1.889525 -2.085506 6.000000
5.814579 -8.394188 -0.617398 242.000000
12.527871 3.756159 -2.027050 5.000000
14.051334 -1.837420 -2.095113 6.000000
5.917601 -8.479528 -0.639682 173.000000
12.547791 3.812310 -2.027833 5.000000
13.959478 -1.773394 -2.082943 9.000000
5.409084 -3.251391 -0.745849 1.000000
5.831974 -8.294981 -0.637952 35.000000
12.628529 3.889868 -2.036196 5.000000
13.740014 -1.691930 -2.051681 95.000000
5.411423 -3.227136 -0.749074 5.000000
5.807070 -8.195552 -0.644259 24.000000
12.591276 3.928979 -2.027784 5.000000
13.785055 -1.646209 -2.059968 68.000000
5.431871 -3.211120 -0.754660 8.000000
5.904819 -8.272141 -0.662583 39.000000
12.605044 3.986452 -2.027728 5.000000
5.433241 -3.187664 -0.760069 29.000000
6.046847 -8.408882 -0.686115 11.000000
12.642459 4.049316 -2.033750 5.000000
5.440138 -3.164965 -0.763865 23.000000
6.065420 -8.369820 -0.697422 30.000000
12.655701 4.107203 -2.033648 5.000000
5.769329 -0.601291 -0.866902 1.000000
5.438342 -3.137297 -0.766441 24.000000
6.099902 -8.355860 -0.712541 42.000000
12.697923 4.172409 -2.035716 5.000000
5.752164 -0.576170 -0.862937 7.000000
5.450425 -3.115175 -0.770824 33.000000
6.104947 -8.301764 -0.720584 9.000000
4.445676 4.106664 -0.762420 1.000000
12.753576 4.242550 -2.042317 5.000000
5.724308 -0.553205 -0.860516 3.000000
5.465114 -3.098312 -0.775819 27.000000
8.015415 2.700600 -1.283704 5.000000
5.613087 -0.519722 -0.844481 1.000000
5.484910 -3.081765 -0.783633 27.000000
4.373787 4.098649 -0.743415 1.000000
8.043745 2.743015 -1.283773 1.000000
5.565467 -0.495726 -0.838049 1.000000
5.512850 -3.072195 -0.787207 25.000000
6.432755 -8.552072 -0.783978 27.000000
4.319417 4.077536 -0.732498 9.000000
7.795027 2.691654 -1.244246 1.000000
5.616514 -0.479530 -0.845465 1.000000
5.536376 -3.058766 -0.795688 26.000000
4.322887 4.110879 -0.730352 9.000000
7.673698 2.681278 -1.222087 1.000000
5.829775 -0.475198 -0.880418 1.000000
5.547061 -3.038186 -0.800103 24.000000
6.394329 -8.378578 -0.798044 255.000000
7.645774 2.703006 -1.214868 1.000000
5.658800 -0.440389 -0.855361 1.000000
5.575103 -3.027034 -0.807042 26.000000
5.977747 -7.773483 -0.752820 255.000000
5.714687 -0.422669 -0.863557 4.000000
5.603006 -3.015647 -0.815120 27.000000
5.921859 -7.645430 -0.754302 33.000000
11.681058 11.264516 -1.955140 6.000000
5.632205 -0.395818 -0.851876 1.000000
5.631019 -3.004159 -0.822117 26.000000
5.906419 -7.568036 -0.758912 191.000000
11.694240 11.352312 -1.954980 6.000000
5.648119 -0.376138 -0.856090 1.000000
5.659018 -2.992503 -0.829141 25.000000
6.012220 -7.648407 -0.782741 37.000000
11.677107 11.423097 -1.939192 6.000000
5.614958 -0.350312 -0.851838 3.000000
5.701087 -2.985526 -0.839253 26.000000
11.799061 11.627334 -1.951850 6.000000
5.665439 -0.334605 -0.859323 3.000000
5.728032 -2.975474 -0.846346 22.000000
6.252209 -7.837616 -0.827801 32.000000
11.806911 11.720677 -1.945524 6.000000
12.691579 4.810942 -2.004259 1.000000
5.622108 -0.310388 -0.853569 5.000000
5.760541 -2.965602 -0.852989 24.000000
6.466040 -8.047882 -0.866902 16.000000
11.877933 11.877933 -1.943587 6.000000
5.647893 -0.291052 -0.857316 6.000000
5.797333 -2.957713 -0.861448 26.000000
11.887763 11.975226 -1.940428 6.000000
12.557079 4.865528 -1.969389 40.000000
5.614404 -0.267715 -0.852070 3.000000
5.829847 -2.947422 -0.868149 28.000000
6.216962 -7.625465 -0.846926 36.000000
11.976351 12.148992 -1.943699 3.000000
12.512479 4.901067 -1.958012 24.000000
5.590506 -0.246042 -0.849300 8.000000
5.871598 -2.940277 -0.877345 20.000000
7.414121 -9.026098 -1.017824 34.000000
12.020607 12.275040 -1.942291 5.000000
12.475485 4.941913 -1.952786 9.000000
5.522257 -0.221797 -0.838796 9.000000
5.908420 -2.931680 -0.885922 28.000000
7.438550 -8.991662 -1.029177 24.000000
12.042754 12.388161 -1.934872 3.000000
12.499578 5.004537 -1.952217 1.000000
5.502981 -0.200823 -0.837718 33.000000
5.931769 -2.916221 -0.893688 22.000000
7.413368 -8.894644 -1.033396 17.000000
12.255268 12.704006 -1.958124 6.000000
5.498625 -0.179526 -0.837926 27.000000
5.968721 -2.907272 -0.901184 19.000000
6.367841 -7.586207 -0.896155 10.000000
12.237533 12.779028 -1.944007 1.000000
5.494305 -0.159228 -0.837173 36.000000
5.992154 -2.891561 -0.907847 17.000000
6.377498 -7.544079 -0.905972 28.000000
12.304792 12.943905 -1.946443 3.000000
5.484993 -0.137882 -0.835667 24.000000
6.024629 -2.880057 -0.914723 20.000000
6.368979 -7.478233 -0.911236 25.000000
12.364425 13.102470 -1.944372 5.000000
5.485753 -0.117784 -0.833752 36.000000
6.075358 -2.875701 -0.925523 10.000000
6.437966 -7.503349 -0.925868 25.000000
12.447018 13.273285 -1.944632 4.000000
5.466104 -0.096366 -0.832656 20.000000
6.094387 -2.857414 -0.930411 14.000000
6.450463 -7.465028 -0.934335 30.000000
12.406214 13.327333 -1.929806 1.000000
5.466421 -0.076331 -0.832656 21.000000
6.135818 -2.849454 -0.938746 10.000000
6.588135 -7.568105 -0.962623 34.000000
12.588135 13.622538 -1.946219 1.000000
5.471616 -0.055391 -0.833409 39.000000
6.190613 -2.847364 -0.950376 10.000000
6.797562 -7.753864 -1.000161 27.000000
12.540695 13.676180 -1.924072 4.000000
9.556673 4.159327 -1.464797 1.000000
5.452011 -0.035208 -0.830397 27.000000
6.214074 -2.830607 -0.956023 10.000000
6.775829 -7.672162 -1.003640 29.000000
12.737554 13.983673 -1.944696 1.000000
9.655391 4.244452 -1.476671 1.000000
5.456904 -0.014286 -0.832103 29.000000
6.274090 -2.828906 -0.967253 10.000000
6.944054 -7.807542 -1.035563 14.000000
12.905501 14.277791 -1.954934 6.000000
9.191683 4.082794 -1.402771 1.000000
5.452123 0.003806 -0.830397 31.000000
6.319134 -2.824039 -0.976444 10.000000
6.663863 -7.442662 -1.000658 9.000000
12.944148 14.426490 -1.948281 6.000000
9.349034 4.193780 -1.423652 1.000000
5.457016 0.023811 -0.831150 33.000000
6.328661 -2.800513 -0.982484 9.000000
6.693723 -7.421099 -1.011622 251.000000
12.961800 14.532678 -1.943687 6.000000
9.610998 4.349633 -1.460102 1.000000
5.456900 0.042859 -0.831150 32.000000
6.361238 -2.787093 -0.988422 10.000000
6.692116 -7.367445 -1.018017 28.000000
13.143266 14.840095 -1.957691 6.000000
5.456706 0.062860 -0.831150 24.000000
6.421372 -2.784100 -0.999836 10.000000
6.792339 -7.422934 -1.037990 30.000000
13.159131 14.968184 -1.947141 6.000000
5.446539 0.083659 -0.829644 26.000000
6.458339 -2.772052 -1.007759 10.000000
13.210451 15.138090 -1.938153 9.000000
5.446196 0.103621 -0.829644 30.000000
6.518074 -2.769444 -1.019274 17.000000
6.288976 -6.774855 -0.973205 106.000000
13.165370 15.193161 -1.918062 12.000000
5.455642 0.124759 -0.831150 27.000000
6.604901 -2.777802 -1.037636 15.000000
6.211072 -6.641943 -0.968611 9.000000
13.114143 15.246599 -1.897478 12.000000
5.440324 0.144360 -0.828892 22.000000
6.624489 -2.756152 -1.040321 10.000000
6.190477 -6.571473 -0.969605 10.000000
13.121425 15.374080 -1.885706 6.000000
5.444757 0.167304 -0.828694 29.000000
6.656917 -2.741065 -1.047678 21.000000
6.192150 -6.527445 -0.975824 10.000000
13.280914 15.665859 -1.894390 6.000000
5.449112 0.185526 -0.829446 33.000000
6.716467 -2.736838 -1.061929 15.000000
6.191285 -6.478810 -0.981435 9.000000
13.551291 16.098377 -1.918739 6.000000
5.448359 0.206448 -0.829446 26.000000
6.758052 -2.724943 -1.070815 25.000000
6.200368 -6.440885 -0.990181 10.000000
13.627584 16.309973 -1.915552 6.000000
5.452651 0.226627 -0.829245 27.000000
6.809295 -2.715256 -1.081196 19.000000
6.263713 -6.461393 -1.004639 10.000000
13.660878 16.466299 -1.905715 6.000000
5.451740 0.247562 -0.829245 29.000000
6.869284 -2.710039 -1.093088 15.000000
6.297153 -6.448428 -1.014169 13.000000
13.699847 16.636984 -1.896899 6.000000
5.445858 0.267300 -0.828494 25.000000
6.943139 -2.709809 -1.107240 25.000000
6.323482 -6.428086 -1.024172 10.000000
13.851245 16.941006 -1.899099 6.000000
5.449872 0.288477 -0.828293 25.000000
6.985429 -2.695452 -1.114997 27.000000
6.369466 -6.429782 -1.039180 13.000000
13.881340 17.105371 -1.888568 6.000000
5.438908 0.307891 -0.826792 37.000000
7.039976 -2.689714 -1.126308 27.000000
6.404140 -6.422049 -1.049376 13.000000
13.891552 17.240602 -1.874779 6.000000
5.452633 0.329677 -0.828090 27.000000
7.101051 -2.680431 -1.138411 8.000000
6.446690 -6.413023 -1.061773 12.000000
14.003756 17.510839 -1.874925 7.000000
5.446455 0.349343 -0.827340 32.000000
7.157056 -2.670220 -1.149828 8.000000
6.511755 -6.430436 -1.078315 10.000000
14.058205 17.705278 -1.870613 9.000000
5.444929 0.370243 -0.828293 36.000000
7.257315 -2.683122 -1.167413 9.000000
6.544123 -6.417435 -1.088070 10.000000
14.010243 17.778290 -1.841071 17.000000
5.443823 0.390218 -0.826388 24.000000
7.293180 -2.670368 -1.174600 9.000000
6.591681 -6.416848 -1.101830 10.000000
13.909355 17.777565 -1.812165 19.000000
5.447359 0.411501 -0.826183 28.000000
7.368524 -2.679011 -1.188552 9.000000
6.657296 -6.433369 -1.117044 9.000000
13.836089 17.818106 -1.787342 11.000000
5.455382 0.432222 -0.829588 30.000000
7.413721 -2.669104 -1.197298 10.000000
6.690729 -6.418421 -1.128551 13.000000
13.708173 17.781158 -1.751225 10.000000
5.459199 0.451706 -0.827470 26.000000
7.466840 -2.666167 -1.207577 10.000000
6.745839 -6.423975 -1.142118 10.000000
13.629132 17.806833 -1.721497 10.000000
5.447799 0.470873 -0.825022 40.000000
7.565390 -2.668648 -1.223281 14.000000
6.779429 -6.408746 -1.152085 10.000000
13.552615 17.841974 -1.700414 9.000000
5.450703 0.494134 -0.825768 38.000000
7.644518 -2.665095 -1.238826 16.000000
6.819111 -6.401332 -1.163311 10.000000
13.500500 17.902761 -1.674156 7.000000
5.458843 0.515051 -0.826303 38.000000
7.719758 -2.656619 -1.255114 10.000000
6.859630 -6.392233 -1.177853 10.000000
13.588384 18.157360 -1.665437 6.000000
5.472112 0.536545 -0.825659 51.000000
7.813916 -2.655509 -1.270230 17.000000
6.926105 -6.406910 -1.191919 11.000000
13.939943 18.749630 -1.691139 9.000000
5.465143 0.555129 -0.825875 39.000000
7.897202 -2.654634 -1.285308 11.000000
6.968457 -6.403337 -1.203938 9.000000
13.833711 18.756733 -1.654267 9.000000
5.473135 0.578147 -0.824481 71.000000
7.992467 -2.649447 -1.300500 13.000000
7.022649 -6.401330 -1.217279 9.000000
13.757217 18.796854 -1.624748 9.000000
5.559564 0.606907 -0.837814 22.000000
8.056684 -2.641114 -1.315578 17.000000
7.085562 -6.411288 -1.234275 10.000000
13.630776 18.761154 -1.597205 9.000000
5.601671 0.632288 -0.843498 7.000000
8.160121 -2.640366 -1.335402 20.000000
7.121685 -6.398902 -1.246863 11.000000
13.531477 18.761856 -1.560785 9.000000
5.599640 0.653844 -0.840546 3.000000
8.240335 -2.632996 -1.346941 18.000000
7.160353 -6.384127 -1.256144 9.000000
13.431626 18.768017 -1.532915 9.000000
5.631428 0.678486 -0.846697 5.000000
8.296367 -2.617426 -1.359188 18.000000
7.215174 -6.387938 -1.270396 12.000000
13.341721 18.766687 -1.505158 9.000000
5.628928 0.700122 -0.845707 6.000000
8.362044 -2.602886 -1.374565 16.000000
7.252259 -6.373508 -1.284807 10.000000
13.192974 18.709164 -1.468385 8.000000
5.636281 0.722024 -0.846190 5.000000
8.503269 -2.612698 -1.399378 1.000000
7.308333 -6.375465 -1.299207 10.000000
13.108168 18.734318 -1.438531 8.000000
5.643713 0.745013 -0.844682 4.000000
8.616994 -2.611473 -1.418043 21.000000
7.387154 -6.396698 -1.315987 10.000000
13.000843 18.719702 -1.409955 9.000000
5.650892 0.767044 -0.845155 4.000000
8.678988 -2.592268 -1.429762 24.000000
7.405918 -6.365598 -1.323843 10.000000
12.905959 18.708254 -1.382142 9.000000
4.485634 2.796408 -0.601318 1.000000
5.652795 0.788413 -0.846884 3.000000
8.786493 -2.591006 -1.452528 14.000000
7.473187 -6.375941 -1.343905 11.000000
12.797888 18.711853 -1.350804 8.000000
5.635476 0.808069 -0.841701 3.000000
8.890766 -2.586372 -1.468189 1.000000
7.529809 -6.376710 -1.356894 10.000000
12.714582 18.715967 -1.324434 10.000000
5.657236 0.832361 -0.843362 1.000000
9.084555 -2.606670 -1.503676 4.000000
7.571176 -6.364238 -1.368931 5.000000
12.610301 18.716673 -1.285479 9.000000
12.474442 18.641136 -1.254030 9.000000
5.656922 0.869673 -0.842094 1.000000
12.484313 -3.480986 -2.071301 5.000000
12.426084 18.716932 -1.232458 9.000000
5.536410 0.872920 -0.823648 1.000000
12.449282 -3.419755 -2.067917 5.000000
12.298313 18.665545 -1.198851 9.000000
5.758265 0.929541 -0.854034 1.000000
12.395017 -3.356039 -2.056846 5.000000
5.121131 -4.152933 -0.939553 10.000000
12.187421 18.638525 -1.167092 10.000000
5.730101 0.947585 -0.851426 5.000000
12.396879 -3.305506 -2.064222 5.000000
5.104704 -4.108690 -0.940773 13.000000
12.127834 18.696653 -1.144540 8.000000
5.717417 0.967029 -0.845927 8.000000
12.432085 -3.266135 -2.072680 5.000000
5.088155 -4.064729 -0.940772 20.000000
11.990371 18.626827 -1.106686 9.000000
4.455892 2.978457 -0.570893 1.000000
5.752984 0.994747 -0.850683 1.000000
12.334618 -3.189949 -2.054373 5.000000
5.067607 -4.017976 -0.938853 19.000000
11.912554 18.648647 -1.078404 9.000000
4.375254 2.947814 -0.557286 1.000000
5.978632 1.055270 -0.883506 6.000000
12.331182 -3.140887 -2.056427 5.000000
5.049162 -3.976154 -0.938715 20.000000
11.815996 18.640596 -1.048521 9.000000
4.430562 3.008746 -0.561951 1.000000
12.361604 -3.098140 -2.064066 6.000000
5.041043 -3.937078 -0.939961 23.000000
11.714205 18.623459 -1.022160 11.000000
4.391100 3.005523 -0.554584 4.000000
14.183423 2.567337 -2.092486 6.000000
12.281134 -3.030176 -2.053293 6.000000
5.042509 -3.909961 -0.942235 24.000000
11.604217 18.599510 -0.991665 10.000000
4.323137 2.982332 -0.542745 4.000000
14.144883 2.619045 -2.080644 6.000000
12.287186 -2.981664 -2.056905 6.000000
5.022095 -3.861951 -0.942297 25.000000
11.505758 18.585848 -0.958207 9.000000
4.377985 3.043912 -0.545384 1.000000
14.209312 2.682309 -2.086333 6.000000
12.274031 -2.930879 -2.052891 1.000000
5.014830 -3.829968 -0.941923 26.000000
11.444031 18.631138 -0.931714 8.000000
4.335126 3.036616 -0.536696 1.000000
14.169632 2.733771 -2.079530 6.000000
12.308517 -2.889203 -2.061319 7.000000
5.009536 -3.794183 -0.945910 22.000000
11.366509 18.650599 -0.903966 8.000000
4.210476 2.972366 -0.518974 1.000000
14.321687 2.814995 -2.092875 6.000000
12.265432 -2.831698 -2.056863 1.000000
5.019060 -3.772528 -0.948454 25.000000
11.258033 18.618546 -0.870072 6.000000
4.244662 3.019871 -0.518120 1.000000
14.326189 2.870457 -2.092453 6.000000
12.257315 -2.780295 -2.051444 7.000000
5.011204 -3.740681 -0.949085 26.000000
21.569387 35.954323 -1.640024 10.000000
14.364784 2.932994 -2.094424 6.000000
12.294916 -2.741481 -2.065071 1.000000
5.013460 -3.711119 -0.953367 22.000000
21.493456 36.112907 -1.585061 8.000000
14.432385 3.004569 -2.095446 6.000000
12.247513 -2.681588 -2.055365 2.000000
5.010051 -3.681595 -0.953601 10.000000
12.024487 2.549304 -1.744998 1.000000
12.266665 -2.636464 -2.061363 1.000000
5.007000 -3.651168 -0.954895 31.000000
11.972103 2.584086 -1.734398 1.000000
12.266942 -2.589523 -2.057553 1.000000
4.995654 -3.614922 -0.955708 21.000000
11.750216 2.583453 -1.697253 1.000000
12.252637 -2.537399 -2.053504 1.000000
4.992410 -3.584769 -0.955863 29.000000
11.436844 2.558534 -1.649159 1.000000
12.270469 -2.494225 -2.061680 3.000000
4.990351 -3.570107 -0.956468 29.000000
16.029980 28.046646 -1.003919 6.000000
11.457479 2.607282 -1.645136 1.000000
12.246086 -2.440342 -2.055994 1.000000
4.998829 -3.548545 -0.959978 21.000000
15.917786 28.077391 -0.963556 8.000000
11.279094 2.612279 -1.616831 1.000000
12.269474 -2.398281 -2.058431 1.000000
4.999276 -3.521377 -0.960859 28.000000
15.933010 28.334322 -0.925032 4.000000
11.178677 2.632229 -1.597678 1.000000
12.269255 -2.349364 -2.054626 1.000000
5.000200 -3.493380 -0.961725 27.000000
23.510906 42.154152 -1.306076 15.000000
11.150768 2.668831 -1.586918 1.000000
12.312129 -2.308601 -2.060306 1.000000
4.996321 -3.463488 -0.961793 27.000000
23.366898 42.241890 -1.238809 23.000000
10.949469 2.663120 -1.551632 1.000000
12.286187 -2.257154 -2.056806 1.000000
5.000152 -3.439080 -0.965527 25.000000
23.345537 42.185894 -1.212024 15.000000
11.225419 2.730236 -1.578411 1.000000
12.399569 -2.277984 -2.064489 4.000000
4.999776 -3.450402 -0.958891 26.000000
23.504410 42.125221 -1.246330 22.000000
11.067713 2.646910 -1.550749 1.000000
12.407453 -2.326475 -2.055897 1.000000
4.992108 -3.472191 -0.952242 22.000000
23.628603 42.002552 -1.295636 6.000000
11.197903 2.634693 -1.567627 1.000000
12.235022 -2.342809 -2.019875 1.000000
4.996345 -3.502378 -0.948947 25.000000
11.313131 2.618082 -1.586533 1.000000
12.260464 -2.398741 -2.018936 1.000000
5.000562 -3.532739 -0.944542 27.000000
16.050604 28.071358 -0.948416 7.000000
11.381340 2.587866 -1.592618 1.000000
12.193764 -2.434341 -2.005023 1.000000
4.996168 -3.557158 -0.941785 27.000000
16.177841 28.054760 -0.983796 4.000000
11.448766 2.559102 -1.600730 1.000000
12.224487 -2.487100 -2.004859 1.000000
4.995943 -3.584663 -0.937623 26.000000
16.252632 27.958479 -1.010651 3.000000
11.728928 2.574480 -1.642777 1.000000
12.182375 -2.527284 -1.990620 1.000000
5.007768 -3.638356 -0.933931 26.000000
12.037945 2.596099 -1.689094 1.000000
12.464130 -2.628876 -2.035793 6.000000
5.002395 -3.663882 -0.930012 26.000000
12.027707 2.547793 -1.688522 1.000000
12.656438 -2.724860 -2.064414 7.000000
5.005499 -3.694419 -0.927550 17.000000
21.489157 36.091347 -1.466826 9.000000
14.937630 3.104312 -2.095345 5.000000
12.725216 -2.783854 -2.072465 7.000000
5.016384 -3.730932 -0.926518 15.000000
21.597481 35.972679 -1.501871 11.000000
15.090022 3.078329 -2.112386 6.000000
12.781978 -2.852426 -2.076607 7.000000
4.995533 -3.743940 -0.918515 24.000000
15.090764 3.020911 -2.116400 6.000000
12.773153 -2.894957 -2.072035 6.000000
5.017947 -3.789539 -0.919579 33.000000
14.848782 2.913215 -2.086261 6.000000
12.801500 -2.953106 -2.071407 6.000000
5.016601 -3.817476 -0.915148 28.000000
14.436543 2.777427 -2.024283 4.000000
12.896030 -3.029486 -2.083915 5.000000
5.011061 -3.842344 -0.911075 25.000000
11.527706 18.599535 -0.882705 6.000000
14.397732 2.712673 -2.022577 1.000000
12.958154 -3.091848 -2.090920 5.000000
5.017155 -3.876299 -0.909112 26.000000
11.634328 18.626051 -0.912761 6.000000
14.455935 2.668812 -2.031980 4.000000
12.933746 -3.136172 -2.079303 5.000000
5.015381 -3.904367 -0.904586 32.000000
11.736014 18.643692 -0.938738 9.000000
14.533504 2.628086 -2.044143 1.000000
12.917518 -3.184802 -2.073888 5.000000
5.032819 -3.947653 -0.904640 25.000000
11.832598 18.652388 -0.964425 9.000000
14.572750 2.577437 -2.048256 6.000000
12.987932 -3.252705 -2.082306 5.000000
5.034472 -3.978841 -0.901842 23.000000
11.948587 18.683485 -0.999317 9.000000
4.412756 2.931828 -0.536276 1.000000
5.868618 0.996817 -0.828120 2.000000
13.046715 -3.325566 -2.089132 5.000000
5.051459 -4.022432 -0.901774 17.000000
12.002433 18.624128 -1.017752 9.000000
4.398240 2.899004 -0.536932 1.000000
5.803836 0.963941 -0.818474 1.000000
12.998400 -3.359195 -2.075969 5.000000
5.079909 -4.075601 -0.902561 15.000000
12.118366 18.660646 -1.049296 9.000000
4.429414 2.896320 -0.542238 2.000000
5.768084 0.936292 -0.813983 4.000000
13.057200 -3.430365 -2.082718 5.000000
5.088661 -4.113369 -0.900970 10.000000
12.218371 18.671631 -1.075726 9.000000
4.401471 2.856165 -0.543146 9.000000
5.570652 0.884298 -0.786685 1.000000
13.102446 -3.491189 -2.091866 5.000000
5.123971 -4.173056 -0.905223 14.000000
12.343739 18.713154 -1.108171 9.000000
4.445203 2.861445 -0.549110 29.000000
5.647123 0.875230 -0.798042 1.000000
13.119594 -3.547308 -2.086953 5.000000
5.162993 -4.236405 -0.907730 9.000000
12.457978 18.743668 -1.140112 8.000000
4.476294 2.858308 -0.555401 4.000000
5.596445 0.845384 -0.791423 1.000000
12.010390 -3.296939 -1.908060 1.000000
12.497653 18.661724 -1.161356 10.000000
4.402234 2.788357 -0.550458 1.000000
5.780485 0.851526 -0.819082 1.000000
11.965536 -3.331835 -1.898424 1.000000
7.675797 -6.354486 -1.343753 13.000000
12.618241 18.693233 -1.193817 8.000000
11.958367 -3.379369 -1.892673 1.000000
7.653352 -6.383325 -1.335056 20.000000
12.741668 18.734726 -1.223094 10.000000
5.660029 0.782374 -0.803029 4.000000
9.005045 -2.580454 -1.423387 1.000000
7.581289 -6.370481 -1.319513 18.000000
12.839998 18.738310 -1.254081 9.000000
5.589115 0.751705 -0.793575 1.000000
9.085741 -2.641371 -1.434356 1.000000
7.532630 -6.376842 -1.302833 10.000000
12.916348 18.702354 -1.278711 9.000000
5.596732 0.730862 -0.795257 1.000000
8.995861 -2.651038 -1.418343 1.000000
7.506298 -6.401927 -1.293570 10.000000
13.049207 18.754385 -1.309378 8.000000
5.687924 0.721578 -0.806813 1.000000
8.753519 -2.617857 -1.378517 1.000000
7.432102 -6.383595 -1.275921 9.000000
13.148178 18.756636 -1.336798 8.000000
5.660663 0.699054 -0.803628 4.000000
8.693192 -2.632909 -1.363971 8.000000
7.379497 -6.385561 -1.262239 10.000000
13.250581 18.756084 -1.364343 8.000000
5.663402 0.675320 -0.804624 4.000000
8.442164 -2.593924 -1.321479 30.000000
7.331030 -6.390760 -1.245868 14.000000
13.375767 18.793732 -1.398754 9.000000
5.621436 0.649428 -0.799325 7.000000
8.357038 -2.602927 -1.306585 31.000000
7.286011 -6.398664 -1.233595 13.000000
13.452060 18.761951 -1.424141 9.000000
5.579468 0.622880 -0.794011 8.000000
8.315079 -2.623330 -1.296853 20.000000
7.226161 -6.393167 -1.218866 13.000000
13.578156 18.791990 -1.458624 9.000000
5.522511 0.596036 -0.786578 23.000000
8.250224 -2.632982 -1.285003 21.000000
7.181407 -6.400649 -1.205032 10.000000
13.663319 18.771475 -1.485136 9.000000
5.500004 0.572251 -0.784038 39.000000
8.150142 -2.638709 -1.268070 20.000000
7.129144 -6.401108 -1.191700 15.000000
13.783733 18.798639 -1.519680 9.000000
5.491884 0.553004 -0.783598 71.000000
8.075956 -2.644310 -1.254853 16.000000
7.080642 -6.404589 -1.179049 12.000000
13.904954 18.818930 -1.550039 8.000000
5.484019 0.531915 -0.782192 78.000000
7.992115 -2.649331 -1.235819 15.000000
7.039687 -6.414612 -1.166012 10.000000
13.972562 18.772966 -1.574877 7.000000
5.481228 0.510408 -0.780529 47.000000
7.907252 -2.654940 -1.221290 13.000000
6.963290 -6.389629 -1.147002 10.000000
14.165815 18.887682 -1.617823 7.000000
5.473064 0.489421 -0.780084 40.000000
7.813752 -2.655454 -1.203931 24.000000
6.918830 -6.395701 -1.133521 10.000000
14.209372 18.822275 -1.632579 7.000000
5.459970 0.467125 -0.778932 51.000000
7.738859 -2.661681 -1.190969 10.000000
6.892431 -6.418306 -1.124705 13.000000
14.347037 18.846821 -1.668770 7.000000
5.456713 0.446706 -0.778228 54.000000
7.649728 -2.663917 -1.174487 13.000000
6.836983 -6.413620 -1.111189 10.000000
14.417736 18.803146 -1.694286 9.000000
5.477993 0.427280 -0.782002 37.000000
7.584292 -2.672339 -1.163071 14.000000
6.781788 -6.408736 -1.096122 10.000000
14.168066 18.351187 -1.682191 6.000000
5.474586 0.406832 -0.781297 30.000000
7.499968 -2.675044 -1.147450 12.000000
6.749273 -6.422755 -1.086241 15.000000
14.025677 18.036251 -1.685863 6.000000
5.461091 0.385708 -0.780139 35.000000
7.423628 -2.684385 -1.133333 10.000000
6.701407 -6.424173 -1.072467 18.000000
14.019909 17.886681 -1.700832 9.000000
5.467335 0.365057 -0.781801 32.000000
7.360706 -2.700922 -1.118675 9.000000
6.646593 -6.418540 -1.056015 13.000000
14.068770 17.826944 -1.723495 9.000000
5.463696 0.344704 -0.781095 29.000000
7.282368 -2.714077 -1.106075 7.000000
6.619988 -6.439906 -1.049000 14.000000
14.167006 17.823133 -1.751879 10.000000
5.459902 0.323422 -0.781343 35.000000
7.238936 -2.733922 -1.094391 8.000000
6.557956 -6.426511 -1.034781 10.000000
14.283654 17.822538 -1.789525 8.000000
5.456109 0.303133 -0.780636 33.000000
7.131143 -2.725971 -1.077022 8.000000
6.518566 -6.432669 -1.022391 12.000000
14.360494 17.803513 -1.812221 9.000000
5.452289 0.281926 -0.779929 38.000000
7.074794 -2.735612 -1.067390 8.000000
6.485127 -6.446758 -1.011152 9.000000
14.446246 17.776102 -1.842971 9.000000
5.458093 0.262171 -0.781590 29.000000
7.019121 -2.743700 -1.056477 9.000000
6.437493 -6.446487 -0.999355 9.000000
14.554325 17.781910 -1.873051 9.000000
5.453842 0.240981 -0.782788 32.000000
6.968083 -2.753234 -1.046307 8.000000
6.425053 -6.481368 -0.991434 9.000000
14.557909 17.653879 -1.889296 9.000000
5.459497 0.221185 -0.784451 32.000000
6.911979 -2.761796 -1.035494 8.000000
6.413456 -6.514998 -0.985076 13.000000
14.497203 17.455767 -1.897424 6.000000
5.460546 0.201183 -0.782544 30.000000
6.865573 -2.772478 -1.026106 8.000000
6.449325 -6.599645 -0.984520 9.000000
14.428719 17.244318 -1.903888 6.000000
5.461004 0.180206 -0.784451 51.000000
6.800832 -2.775368 -1.014024 8.000000
6.515824 -6.716768 -0.988513 255.000000
14.272449 16.937077 -1.898818 6.000000
5.461627 0.160189 -0.784451 35.000000
6.749890 -2.783482 -1.004047 8.000000
6.568835 -6.818880 -0.991806 9.000000
14.303905 16.848696 -1.921978 6.000000
5.462066 0.139213 -0.785405 34.000000
6.703058 -2.794333 -0.994795 13.000000
6.589078 -6.890259 -0.990258 8.000000
14.287091 16.710308 -1.931202 6.000000
5.462539 0.119193 -0.785405 30.000000
6.643028 -2.797930 -0.983557 19.000000
14.018631 16.275166 -1.909507 7.000000
5.462956 0.098218 -0.785405 32.000000
6.614965 -2.814702 -0.977089 22.000000
7.042717 -7.470937 -1.042901 30.000000
13.998538 16.131886 -1.921250 6.000000
5.458303 0.080029 -0.784693 33.000000
6.564106 -2.821519 -0.967287 27.000000
6.866343 -7.337533 -1.011899 29.000000
13.980901 15.998403 -1.941063 6.000000
5.463520 0.059123 -0.785405 31.000000
6.508238 -2.827162 -0.956864 27.000000
6.816298 -7.337779 -0.999653 27.000000
13.794861 15.669237 -1.925619 6.000000
5.463699 0.039098 -0.785405 34.000000
6.466526 -2.837260 -0.948490 18.000000
6.783318 -7.356162 -0.988182 15.000000
13.583913 15.321460 -1.910322 8.000000
5.463815 0.016212 -0.785405 34.000000
6.415758 -2.843073 -0.938825 12.000000
6.771852 -7.395361 -0.977897 255.000000
13.625599 15.255471 -1.926315 20.000000
9.420645 4.255564 -1.349911 1.000000
5.458890 0.000000 -0.784693 38.000000
6.383122 -2.856646 -0.931848 10.000000
13.641929 15.177512 -1.947030 11.000000
9.294091 4.159395 -1.338727 1.000000
5.463665 -0.020025 -0.786358 29.000000
6.328884 -2.857601 -0.921608 10.000000
13.672707 15.100065 -1.965039 8.000000
9.621558 4.263688 -1.387372 1.000000
5.468635 -0.041042 -0.786116 34.000000
6.309429 -2.878033 -0.915451 9.000000
13.528928 14.831655 -1.954232 6.000000
9.717709 4.263753 -1.408396 1.000000
5.473121 -0.061138 -0.788738 24.000000
6.262964 -2.884615 -0.909013 9.000000
6.834450 -7.678910 -0.964492 31.000000
13.430652 14.621080 -1.960639 6.000000
9.635892 4.189806 -1.398250 1.000000
5.487691 -0.082376 -0.790877 36.000000
6.221313 -2.893119 -0.900846 8.000000
6.768705 -7.658706 -0.948184 23.000000
13.381373 14.460690 -1.966531 6.000000
5.472508 -0.102211 -0.788738 29.000000
6.193284 -2.907739 -0.893466 7.000000
6.698554 -7.635548 -0.931544 36.000000
13.280694 14.246785 -1.957782 6.000000
5.481992 -0.122489 -0.790164 25.000000
6.155615 -2.918952 -0.886015 5.000000
6.488030 -7.450484 -0.895627 25.000000
13.230200 14.093660 -1.963524 6.000000
5.506217 -0.144185 -0.793730 28.000000
6.145293 -2.941694 -0.882448 2.000000
6.537513 -7.560433 -0.895543 17.000000
13.075064 13.826491 -1.956457 1.000000
5.500705 -0.164218 -0.793017 25.000000
6.103767 -2.949363 -0.873219 1.000000
6.494147 -7.566154 -0.882871 31.000000
13.131092 13.784187 -1.977417 5.000000
5.515010 -0.185843 -0.794193 30.000000
6.066582 -2.958870 -0.865853 1.000000
6.322902 -7.418884 -0.852819 13.000000
12.985147 13.536056 -1.964859 3.000000
5.519238 -0.206240 -0.794906 30.000000
6.216431 -3.060211 -0.883918 1.000000
6.424932 -7.594810 -0.859833 17.000000
12.984862 13.436829 -1.977135 1.000000
12.547266 5.071972 -1.853875 5.000000
5.518405 -0.227430 -0.794906 27.000000
6.014578 -2.988280 -0.853195 1.000000
6.312442 -7.514881 -0.837931 13.000000
12.876515 13.227346 -1.972793 4.000000
12.509075 5.003273 -1.857489 36.000000
5.527423 -0.248099 -0.796330 31.000000
7.427637 -8.908603 -0.978059 17.000000
12.889834 13.148887 -1.987294 1.000000
12.528153 4.952660 -1.864543 9.000000
5.560892 -0.271000 -0.802288 10.000000
5.913238 -2.993471 -0.833756 1.000000
12.709697 12.870424 -1.968205 2.000000
12.624579 4.934814 -1.883294 1.000000
5.643877 -0.295783 -0.814411 8.000000
5.915998 -3.022159 -0.830990 1.000000
12.639651 12.706007 -1.969126 6.000000
5.643180 -0.316491 -0.811452 6.000000
5.839114 -3.009921 -0.818242 4.000000
6.215952 -7.618795 -0.796311 59.000000
12.526861 12.513750 -1.964188 6.000000
5.587298 -0.334883 -0.805590 1.000000
5.785326 -3.006518 -0.809786 8.000000
6.185285 -7.638191 -0.787331 19.000000
12.480229 12.367473 -1.967704 6.000000
12.599224 4.770905 -1.895801 1.000000
5.586033 -0.355359 -0.805590 1.000000
5.760528 -3.023062 -0.803396 9.000000
6.473144 -8.053844 -0.816835 28.000000
12.343365 12.142502 -1.957457 6.000000
12.774167 4.781148 -1.926632 1.000000
5.599582 -0.377814 -0.806747 1.000000
5.701536 -3.018808 -0.793277 20.000000
6.274511 -7.862758 -0.784630 105.000000
12.329041 12.048223 -1.964076 6.000000
5.711843 -0.404420 -0.823110 1.000000
5.678845 -3.030947 -0.786952 35.000000
6.023301 -7.604966 -0.746476 144.000000
12.259620 11.888699 -1.963848 6.000000
5.695151 -0.427221 -0.821972 1.000000
5.649637 -3.044561 -0.780045 32.000000
5.917070 -7.524659 -0.726479 38.000000
12.143928 11.698615 -1.954001 1.000000
5.718802 -0.448071 -0.822530 3.000000
5.621355 -3.055959 -0.774282 30.000000
5.891233 -7.545863 -0.716454 119.000000
7.430980 2.650438 -1.129868 1.000000
5.706724 -0.471184 -0.823110 4.000000
5.579586 -3.061066 -0.765634 32.000000
5.909730 -7.627021 -0.713632 36.000000
4.291857 4.038788 -0.701699 8.000000
7.966539 2.811714 -1.214389 4.000000
5.714964 -0.492960 -0.823531 4.000000
5.573139 -3.084157 -0.761785 32.000000
6.464438 -8.403342 -0.769270 255.000000
4.337943 4.053698 -0.714274 9.000000
7.981146 2.782454 -1.221002 3.000000
5.722887 -0.515788 -0.824952 6.000000
5.544689 -3.095013 -0.757193 29.000000
6.403736 -8.387869 -0.756443 71.000000
4.395981 4.077855 -0.726673 8.000000
8.013315 2.763900 -1.227535 1.000000
5.731144 -0.535698 -0.825369 6.000000
5.516461 -3.105829 -0.750406 28.000000
6.522516 -8.605566 -0.762653 10.000000
4.341060 3.997406 -0.720394 2.000000
7.986264 2.718746 -1.226219 5.000000
5.738944 -0.559675 -0.825782 4.000000
5.496858 -3.121381 -0.744816 28.000000
6.482491 -8.618194 -0.748421 77.000000
7.966961 2.681179 -1.226306 1.000000
5.746660 -0.580685 -0.828208 4.000000
5.490028 -3.144169 -0.742088 25.000000
6.518497 -8.729326 -0.744628 13.000000
11.487978 3.819315 -1.770424 4.000000
5.764183 -0.603806 -0.831046 7.000000
5.483215 -3.167012 -0.738250 24.000000
6.151286 -8.300859 -0.695282 24.000000
11.524221 3.784514 -1.782510 1.000000
5.855456 -0.636106 -0.843503 1.000000
5.472905 -3.185307 -0.736040 10.000000
6.090111 -8.278562 -0.682621 89.000000
11.537779 3.739949 -1.788861 6.000000
5.541888 -3.255308 -0.742522 6.000000
6.035181 -8.264173 -0.667137 32.000000
11.573771 3.704793 -1.800993 1.000000
6.043252 -8.339231 -0.662378 24.000000
11.529782 3.644178 -1.798529 8.000000
6.195312 -8.612171 -0.667463 8.000000
11.552532 3.602637 -1.804224 1.000000
14.724148 -1.760961 -2.121054 6.000000
5.995879 -8.399709 -0.640248 39.000000
11.574510 3.562995 -1.809926 1.000000
14.628491 -1.806520 -2.110883 6.000000
5.912085 -8.343760 -0.623658 9.000000
11.596051 3.520939 -1.821981 1.000000
14.582855 -1.855173 -2.102647 6.000000
5.916221 -8.414808 -0.618334 18.000000
11.646157 3.489584 -1.832172 1.000000
14.620493 -1.914441 -2.106445 6.000000
4.445047 3.785708 -0.775933 1.000000
11.558693 3.417259 -1.820732 1.000000
14.622480 -1.971840 -2.110434 6.000000
5.843903 -8.436521 -0.593549 255.000000
4.272924 3.612179 -0.748540 1.000000
11.571117 3.372673 -1.824939 1.000000
14.616247 -2.025572 -2.102708 6.000000
6.268517 -3.923092 -0.817714 1.000000
5.728524 -8.335053 -0.572533 153.000000
4.239260 3.558423 -0.747347 43.000000
11.563478 3.324513 -1.828246 1.000000
14.671703 -2.090705 -2.114465 6.000000
6.179597 -3.897527 -0.802722 1.000000
5.674409 -8.318374 -0.559445 34.000000
4.236546 3.529757 -0.749483 140.000000
11.575544 3.279913 -1.832445 1.000000
14.693694 -2.148817 -2.116110 6.000000
6.115409 -3.888447 -0.791110 1.000000
5.651315 -8.346957 -0.547685 30.000000
4.237495 3.504316 -0.752262 125.000000
11.696360 3.267883 -1.854000 1.000000
14.754233 -2.215566 -2.123382 6.000000
5.855118 -8.710051 -0.559210 46.000000
4.238316 3.478915 -0.755014 140.000000
14.692561 -2.261401 -2.113038 6.000000
5.722467 -8.577233 -0.538569 29.000000
4.239007 3.453556 -0.757740 100.000000
14.782337 -2.330714 -2.124498 6.000000
5.689799 -8.599609 -0.527771 14.000000
4.243213 3.431184 -0.763034 148.000000
11.939033 3.192355 -1.908774 1.000000
14.734184 -2.381139 -2.118876 6.000000
5.684764 -8.657518 -0.517418 31.000000
4.239794 3.402794 -0.765009 105.000000
11.835876 3.116126 -1.894729 1.000000
14.774563 -2.443264 -2.123291 6.000000
5.639706 -8.657896 -0.503547 26.000000
4.239992 3.377477 -0.768596 105.000000
11.760489 3.050231 -1.885202 1.000000
14.769588 -2.500741 -2.126607 6.000000
5.606975 -8.673701 -0.494291 22.000000
4.240060 3.352204 -0.772151 109.000000
11.732543 2.994950 -1.887523 1.000000
14.794993 -2.555539 -2.134147 6.000000
5.776455 -9.004666 -0.502643 16.000000
4.240106 3.327058 -0.774733 134.000000
12.015890 3.020412 -1.935743 1.000000
14.677649 -2.598632 -2.113464 6.000000
5.706243 -8.967364 -0.484517 13.000000
4.243713 3.304830 -0.779882 139.000000
11.747461 2.907203 -1.899427 1.000000
6.227223 -9.861922 -0.519435 12.000000
4.239599 3.276734 -0.781689 124.000000
11.733252 2.855920 -1.903981 3.000000
6.174433 -9.854348 -0.507730 27.000000
4.243186 3.254735 -0.784912 143.000000
11.580015 2.773704 -1.879583 1.000000
12.640030 -2.379220 -1.819083 3.000000
5.693485 -9.154087 -0.459364 10.000000
4.313466 3.283602 -0.801481 8.000000
11.493163 2.706281 -1.872235 1.000000
12.358652 -2.373191 -1.782070 1.000000
5.616630 -9.108316 -0.442885 9.000000
11.463246 2.654930 -1.874186 1.000000
12.072534 -2.366349 -1.742110 1.000000
5.783893 -9.445855 -0.446794 9.000000
11.487160 2.614036 -1.880657 1.000000
12.064077 -2.410640 -1.739963 1.000000
5.803919 -4.123106 -0.713118 1.000000
5.592264 -9.212140 -0.423417 1.000000
11.534245 2.580323 -1.893152 1.000000
11.938308 -2.433216 -1.723158 1.000000
5.802930 -4.133080 -0.713616 1.000000
5.607651 -9.314279 -0.415762 1.000000
11.523487 2.531495 -1.898226 1.000000
11.909626 -2.472869 -1.722480 1.000000
5.763794 -4.137132 -0.706912 1.000000
12.113342 -20.263990 -0.882190 15.000000
11.744346 2.534927 -1.937367 1.000000
11.827977 -2.503328 -1.707744 1.000000
5.728931 -4.144008 -0.698263 1.000000
5.041492 -8.500976 -0.358956 9.000000
11.965460 2.534607 -1.978793 1.000000
11.823563 -2.547706 -1.708444 1.000000
5.790400 -4.220884 -0.703848 7.000000
5.025687 -8.545561 -0.349664 6.000000
12.248730 2.547740 -2.033045 1.000000
11.760210 -2.581347 -1.702853 1.000000
5.743103 -4.218729 -0.696206 8.000000
5.041336 -8.641054 -0.342360 4.000000
12.213860 2.491598 -2.032354 1.000000
11.731342 -2.620116 -1.700052 1.000000
8.740203 -6.460330 -1.058018 31.000000
4.893642 -8.455575 -0.325797 6.000000
12.152388 2.432698 -2.038397 1.000000
11.652457 -2.649512 -1.698592 1.000000
8.640781 -6.435949 -1.046933 29.000000
11.980649 2.398319 -2.024925 1.000000
11.668853 -2.653240 -1.722295 1.000000
11.927165 2.435282 -2.021817 1.000000
11.725615 -2.620986 -1.737806 1.000000
5.728227 -4.227845 -0.711875 6.000000
4.886899 -8.447325 -0.340794 7.000000
11.957138 2.487088 -2.026239 1.000000
11.744962 -2.578000 -1.741337 1.000000
5.690806 -4.168092 -0.714027 1.000000
11.846169 2.511498 -2.009053 1.000000
11.825692 -2.550324 -1.760532 1.000000
5.668506 -4.121434 -0.716835 1.000000
4.970572 -8.455221 -0.369929 8.000000
11.692237 2.523679 -1.984503 1.000000
11.848274 -2.509784 -1.771148 1.000000
5.634561 -4.065269 -0.718006 1.000000
5.122045 -8.643681 -0.393004 7.000000
11.629469 2.556905 -1.975501 1.000000
11.948507 -2.485293 -1.791285 1.000000
5.770010 -4.130921 -0.742095 1.000000
5.187766 -8.685316 -0.409866 9.000000
11.576244 2.591840 -1.968136 1.000000
12.102135 -2.468807 -1.821691 1.000000
5.297628 -8.799331 -0.430482 4.000000
11.672812 2.658426 -1.984050 1.000000
12.081689 -2.418546 -1.819464 1.000000
5.374681 -8.857200 -0.446908 7.000000
11.513553 2.668698 -1.958708 1.000000
12.147877 -2.383318 -1.836872 1.000000
5.572031 -9.110563 -0.475611 8.000000
4.238251 3.270969 -0.812537 39.000000
11.518764 2.714431 -1.957029 1.000000
12.272776 -2.361143 -1.856666 1.000000
5.726717 -9.290470 -0.497495 9.000000
4.230695 3.289950 -0.808611 192.000000
11.815952 2.832397 -2.004997 1.000000
12.513328 -2.359894 -1.900824 3.000000
5.628588 -9.056792 -0.499139 12.000000
4.234731 3.318067 -0.806900 124.000000
11.896562 2.897869 -2.020464 1.000000
12.930454 -2.387182 -1.965126 6.000000
5.715461 -9.125373 -0.519083 9.000000
4.230635 3.339955 -0.805561 139.000000
11.914078 2.950643 -2.025348 1.000000
5.696243 -9.024508 -0.529410 16.000000
4.230525 3.365112 -0.803061 153.000000
11.961970 3.009079 -2.026506 1.000000
13.690825 -2.423918 -2.090334 6.000000
5.601444 -8.806066 -0.528696 158.000000
4.230288 3.390312 -0.800535 109.000000
11.883406 3.037879 -2.015158 3.000000
13.650953 -2.362837 -2.085319 6.000000
5.580547 -8.705958 -0.538329 21.000000
4.225368 3.413097 -0.798204 139.000000
11.905621 3.090090 -2.020832 1.000000
13.589842 -2.300990 -2.084523 6.000000
5.613251 -8.690061 -0.551229 18.000000
4.232556 3.444614 -0.797077 83.000000
11.851410 3.124640 -2.009259 1.000000
13.559197 -2.242279 -2.080940 7.000000
5.605049 -8.611264 -0.560058 25.000000
4.224158 3.463593 -0.793986 61.000000
11.916821 3.188645 -2.017895 1.000000
13.546729 -2.189239 -2.085131 6.000000
5.638878 -8.594174 -0.574682 16.000000
4.223413 3.488947 -0.791363 83.000000
11.948028 3.246207 -2.020838 1.000000
13.554675 -2.137151 -2.087526 7.000000
5.756547 -8.707097 -0.596367 30.000000
4.226342 3.517508 -0.789425 86.000000
11.955419 3.295316 -2.021895 1.000000
13.493301 -2.076818 -2.081764 6.000000
5.792091 -8.694734 -0.607878 25.000000
4.229120 3.546138 -0.787451 87.000000
11.919594 3.334739 -2.013551 1.000000
13.500108 -2.029650 -2.084146 6.000000
5.780263 -8.611675 -0.616193 31.000000
4.224076 3.568358 -0.785003 83.000000
11.888974 3.373207 -2.006026 1.000000
13.428135 -1.968528 -2.079180 6.000000
5.614090 -8.301336 -0.609429 58.000000
4.264274 3.629182 -0.789956 8.000000
11.999927 3.454527 -2.022497 1.000000
13.430008 -1.918548 -2.080790 6.000000
5.366315 -3.346738 -0.760857 6.000000
5.599144 -8.214195 -0.614984 74.000000
11.973309 3.494436 -2.017922 1.000000
13.353699 -1.855354 -2.070257 8.000000
5.339874 -3.303126 -0.762057 9.000000
5.630115 -8.197997 -0.629179 40.000000
11.998343 3.551793 -2.019943 1.000000
13.310363 -1.799632 -2.069701 9.000000
5.364181 -3.291039 -0.768258 9.000000
5.723554 -8.272030 -0.648730 19.000000
12.019015 3.605877 -2.021140 1.000000
13.106738 -1.716227 -2.039265 73.000000
5.354435 -3.258108 -0.770699 12.000000
5.920340 -8.492924 -0.678557 38.000000
11.981805 3.644919 -2.014979 1.000000
13.107102 -1.672083 -2.040808 154.000000
5.351915 -3.222115 -0.775891 34.000000
5.813219 -8.274443 -0.676981 16.000000
11.997344 3.697742 -2.015362 1.000000
13.132688 -1.624126 -2.046171 123.000000
5.358963 -3.199656 -0.779632 17.000000
5.772419 -8.155698 -0.681173 24.000000
11.984062 3.744096 -2.008789 1.000000
5.365915 -3.177187 -0.783366 19.000000
5.907583 -8.285184 -0.704412 6.000000
12.036830 3.809061 -2.015441 3.000000
5.368496 -3.152197 -0.786466 29.000000
6.135316 -8.538196 -0.740738 40.000000
12.031855 3.858373 -2.014812 1.000000
5.379299 -3.132084 -0.792985 23.000000
6.079665 -8.398728 -0.745026 31.000000
12.055872 3.914864 -2.016686 5.000000
5.390261 -3.112069 -0.797330 25.000000
6.149617 -8.433229 -0.760973 14.000000
12.065207 3.969172 -2.013964 5.000000
5.745884 -0.578580 -0.902266 8.000000
5.409875 -3.097011 -0.801865 28.000000
12.098100 4.029193 -2.017344 5.000000
5.723322 -0.554118 -0.899411 6.000000
5.425015 -3.079333 -0.806858 25.000000
8.012485 2.701170 -1.333176 1.000000
5.739913 -0.534497 -0.902735 6.000000
5.452809 -3.068739 -0.815976 20.000000
7.876287 2.688979 -1.309246 4.000000
5.736846 -0.512000 -0.902967 5.000000
5.480838 -3.058117 -0.822945 20.000000
6.441220 -8.572666 -0.830728 39.000000
7.726536 2.669513 -1.284509 4.000000
5.679625 -0.485917 -0.893674 5.000000
5.500180 -3.042528 -0.828633 24.000000
6.671941 -8.815489 -0.872041 255.000000
7.623608 2.666763 -1.264757 5.000000
5.680981 -0.464067 -0.896658 6.000000
5.532389 -3.033916 -0.837407 23.000000
6.418075 -8.418830 -0.846170 25.000000
7.581598 2.683296 -1.256535 1.000000
5.658022 -0.441322 -0.892773 6.000000
5.556019 -3.020440 -0.843796 24.000000
7.479305 2.677979 -1.236939 1.000000
5.664445 -0.419947 -0.894542 2.000000
5.570895 -3.002127 -0.848875 28.000000
5.998118 -7.752266 -0.807576 172.000000
11.151022 10.757139 -1.940854 5.000000
7.529963 2.728782 -1.242746 1.000000
5.616522 -0.395701 -0.887746 8.000000
5.599082 -2.990887 -0.853750 26.000000
6.022992 -7.725741 -0.815714 32.000000
11.180345 10.872411 -1.936954 6.000000
7.590113 2.782094 -1.250013 1.000000
5.583504 -0.371835 -0.882295 22.000000
5.631108 -2.981518 -0.863755 22.000000
6.120163 -7.794121 -0.835635 38.000000
11.233791 11.004783 -1.939254 5.000000
5.560030 -0.349807 -0.879373 25.000000
5.664433 -2.970112 -0.871579 22.000000
6.192957 -7.830399 -0.855878 28.000000
11.304450 11.147701 -1.943758 6.000000
5.551166 -0.327855 -0.879755 20.000000
5.700733 -2.963821 -0.878994 19.000000
6.146550 -7.713446 -0.855956 53.000000
11.365522 11.286451 -1.943999 6.000000
5.552176 -0.307499 -0.880726 28.000000
5.719680 -2.947092 -0.885965 17.000000
6.238343 -7.772815 -0.875472 58.000000
11.437578 11.441573 -1.949159 6.000000
5.548285 -0.287860 -0.879944 33.000000
5.742100 -2.934588 -0.892513 10.000000
