VERSION .7
FIELDS x y z intensity
SIZE 4 4 4 4
TYPE F F F F
COUNT 1 1 1 1
WIDTH 1219
HEIGHT 1
VIEWPOINT 0 0 0 1 0 0 0
POINTS 1219
DATA ascii
24.788603 26.666378 4.244795 20.000000
6.876513 -7.986222 1.310808 26.000000
24.634802 26.696480 4.260892 29.000000
35.671448 -16.800920 6.669082 8.000000
6.938702 -7.998966 1.311435 9.000000
24.585587 26.839863 4.288688 18.000000
6.944328 -7.949223 1.299765 9.000000
24.617197 27.063435 4.330078 20.000000
37.871605 -17.507158 7.026859 15.000000
6.964029 -7.913051 1.292413 9.000000
24.535770 27.173338 4.359164 25.000000
100.598885 44.768475 18.445957 1.000000
38.145100 -17.464190 7.043093 10.000000
6.986848 -7.880550 1.285681 8.000000
24.460993 27.290955 4.383084 13.000000
100.720596 45.265633 18.538202 1.000000
38.284409 -17.366577 7.042491 18.000000
15.124067 -16.945086 2.760624 30.000000
24.477768 27.492559 4.421952 9.000000
100.643333 45.632664 18.571562 1.000000
38.443687 -17.301479 7.062317 21.000000
15.160807 -16.861441 2.739968 21.000000
24.470428 27.668518 4.456798 12.000000
38.644234 -17.221685 7.072333 17.000000
15.217199 -16.805796 2.727498 26.000000
38.892483 -17.169847 7.083873 23.000000
24.328953 28.125767 4.546364 9.000000
39.868591 -17.071230 7.179809 8.000000
15.317635 -16.431902 2.650854 22.000000
40.026047 -16.981804 7.190187 8.000000
15.355540 -16.351988 2.627178 11.000000
15.381556 -16.259853 2.617456 17.000000
20.859367 24.824009 4.038678 8.000000
40.409660 -16.804371 7.213771 10.000000
15.428599 -16.190306 2.599520 26.000000
20.738993 24.856405 4.055099 8.000000
40.382053 -16.619551 7.182264 9.000000
15.451252 -16.095537 2.577594 23.000000
40.606636 -16.546463 7.196172 15.000000
15.501062 -16.035009 2.568662 33.000000
20.896406 25.421604 4.163047 21.000000
40.810036 -16.455193 7.213594 9.000000
15.522544 -15.939901 2.550719 35.000000
20.795441 25.488646 4.179017 15.000000
41.002460 -16.366619 7.221642 20.000000
15.533091 -15.834205 2.531133 25.000000
20.654551 25.497145 4.191843 13.000000
41.289413 -16.305969 7.245697 15.000000
15.578293 -15.764285 2.513394 27.000000
20.345646 25.322975 4.167036 8.000000
41.550556 -16.224953 7.272545 21.000000
15.616626 -15.693130 2.498985 35.000000
20.129829 25.225229 4.162847 30.000000
41.735382 -16.137827 7.279454 13.000000
15.632751 -15.594601 2.480694 27.000000
20.049538 25.305290 4.181671 17.000000
41.982044 -16.056576 7.320216 14.000000
15.697786 -15.545104 2.470243 26.000000
19.911936 25.321741 4.195170 9.000000
42.222633 -15.979874 7.320046 9.000000
15.702420 -15.436112 2.450380 28.000000
19.591919 25.103594 4.164061 8.000000
42.476261 -15.898124 7.345741 9.000000
15.710894 -15.336974 2.431695 23.000000
47.060852 -17.427015 8.110043 9.000000
15.764344 -15.276711 2.419651 29.000000
19.475143 25.325544 4.217359 13.000000
46.390759 -16.985788 7.992632 9.000000
15.814280 -15.213105 2.403236 34.000000
19.443998 25.477741 4.247882 21.000000
46.351185 -16.778894 7.939853 9.000000
15.824109 -15.111283 2.384704 22.000000
19.378614 25.585974 4.276860 21.000000
46.308529 -16.580854 7.913776 9.000000
15.869469 -15.043779 2.371629 23.000000
19.126558 25.437180 4.263417 13.000000
15.908310 -14.975514 2.358034 30.000000
18.948881 25.394112 4.261419 21.000000
44.013672 -15.404745 7.494223 10.000000
15.920403 -14.877215 2.340186 32.000000
18.927620 25.560547 4.300286 8.000000
44.160954 -15.274840 7.492986 9.000000
15.978766 -14.822423 2.336916 24.000000
19.148878 26.058504 4.395216 8.000000
44.199196 -15.106916 7.481667 10.000000
15.997310 -14.730906 2.320200 27.000000
19.114834 26.203373 4.425667 28.000000
16.038004 -14.660116 2.299117 31.000000
19.086561 26.367050 4.464616 13.000000
16.059921 -14.577577 2.291122 24.000000
43.637856 -14.406498 7.327805 9.000000
16.079521 -14.498404 2.275585 26.000000
18.770573 26.325089 4.474905 8.000000
43.657715 -14.227384 7.305479 9.000000
16.093996 -14.394748 2.258008 24.000000
18.726500 26.467968 4.510565 14.000000
43.541561 -14.013205 7.269213 8.000000
16.147528 -14.336446 2.246701 24.000000
18.639385 26.550701 4.530308 11.000000
43.579590 -13.857754 7.275625 9.000000
16.146126 -14.234725 2.228187 24.000000
18.622206 26.734060 4.573109 8.000000
44.626621 -14.010801 7.425065 9.000000
16.191580 -14.169665 2.215892 25.000000
45.063095 -13.992463 7.481892 9.000000
16.236479 -14.104209 2.207360 30.000000
44.959515 -13.779832 7.447845 9.000000
16.246376 -14.018547 2.191020 28.000000
17.959608 26.367327 4.546110 9.000000
16.254257 -13.911911 2.173216 24.000000
17.977459 26.602575 4.598152 8.000000
45.434551 -13.553264 7.484030 18.000000
16.330118 -13.878373 2.165532 36.000000
16.332308 -13.777456 2.147809 27.000000
18.520952 27.834095 4.829676 10.000000
16.343872 -13.694704 2.139587 27.000000
18.318811 27.750307 4.827155 8.000000
45.641705 -13.096169 7.486657 9.000000
16.399572 -13.629700 2.128422 26.000000
17.895279 27.326031 4.765198 8.000000
45.867722 -12.987904 7.516248 10.000000
16.427246 -13.551210 2.114293 28.000000
17.692829 27.223759 4.759717 8.000000
16.439522 -13.474770 2.102921 29.000000
16.482466 -13.399714 2.094029 28.000000
17.926228 28.030462 4.925117 8.000000
16.520983 -13.330753 2.077738 35.000000
17.670538 27.844311 4.899189 8.000000
44.662781 -11.950647 7.256585 10.000000
16.530434 -13.248113 2.069658 28.000000
44.846027 -11.823714 7.270974 9.000000
16.568041 -13.178816 2.057115 22.000000
21.356504 34.204113 6.048042 10.000000
45.104626 -11.723659 7.289555 9.000000
16.579636 -13.093808 2.041701 26.000000
20.590452 33.247856 5.900472 10.000000
45.136486 -11.555497 7.296142 9.000000
16.600998 -13.002814 2.034173 23.000000
20.562695 33.463428 5.954001 10.000000
45.283161 -11.424769 7.305009 9.000000
16.680220 -12.975849 2.027429 31.000000
20.788137 34.109959 6.076837 12.000000
45.462517 -11.292947 7.335592 9.000000
16.665468 -12.866604 2.008765 25.000000
20.046629 33.166206 5.930180 9.000000
45.598873 -11.157972 7.342870 12.000000
16.689087 -12.787485 2.002246 23.000000
19.821857 33.054417 5.925324 9.000000
16.730970 -12.717917 1.990294 33.000000
84.154747 -19.955383 13.528252 14.000000
16.761686 -12.653786 1.981549 32.000000
20.154594 34.174778 6.156231 10.000000
16.780619 -12.571788 1.970943 30.000000
20.131231 34.422882 6.223233 10.000000
84.202240 -19.315825 13.481871 1.000000
16.831129 -12.513579 1.964090 28.000000
20.061365 34.579845 6.260355 4.000000
84.411415 -19.053898 13.520103 1.000000
16.849663 -12.431724 1.949863 17.000000
84.420288 -18.730986 13.494977 13.000000
16.893230 -12.373033 1.946208 23.000000
16.939287 -12.311630 1.935244 31.000000
19.288816 34.106754 6.227054 5.000000
84.711578 -18.160587 13.520419 10.000000
16.936113 -12.214710 1.926078 26.000000
19.360180 34.485329 6.320426 9.000000
84.781807 -17.866329 13.537084 18.000000
16.948650 -12.129569 1.918766 9.000000
19.163717 34.458706 6.336688 10.000000
84.883110 -17.562996 13.558387 11.000000
9.356397 -6.646788 1.050550 9.000000
18.863558 34.213604 6.306842 8.000000
84.970413 -17.271982 13.547116 10.000000
9.352358 -6.592474 1.045362 10.000000
18.712349 34.207146 6.322113 8.000000
84.963005 -16.946444 13.551432 6.000000
9.388847 -6.566819 1.044728 7.000000
18.560686 34.227257 6.348090 4.000000
85.305336 -16.705320 13.612193 7.000000
17.079222 -11.852694 1.891955 10.000000
85.067932 -16.335314 13.611137 14.000000
17.108187 -11.784529 1.890596 21.000000
85.250015 -16.385706 13.764958 3.000000
17.055294 -11.752484 1.906849 14.000000
17.076431 -11.859591 1.928698 20.000000
9.376431 -6.563010 1.069790 7.000000
84.763245 -17.245277 13.808567 4.000000
9.359991 -6.602747 1.076719 11.000000
84.871254 -17.591440 13.883115 16.000000
9.339478 -6.639675 1.081187 9.000000
19.145832 34.173351 6.365396 1.000000
83.811234 -17.692354 13.750904 1.000000
16.937595 -12.135073 1.980597 18.000000
19.352530 34.219414 6.367269 1.000000
83.511948 -17.949152 13.758384 1.000000
16.912056 -12.210827 1.997526 29.000000
19.765005 34.665798 6.434540 1.000000
83.147446 -18.174686 13.723942 1.000000
16.886177 -12.286548 2.014489 24.000000
19.820335 34.468620 6.382905 1.000000
84.489708 -18.792810 13.972264 8.000000
16.834307 -12.338906 2.024457 25.000000
20.091864 34.646347 6.407901 5.000000
84.446815 -19.108362 14.023179 13.000000
16.840151 -12.438328 2.041695 26.000000
20.060345 34.342922 6.342051 10.000000
84.146339 -19.349382 13.999878 4.000000
16.797293 -12.502084 2.056799 27.000000
19.999798 33.952919 6.262368 10.000000
84.264725 -19.702059 14.078000 9.000000
16.758165 -12.568671 2.072401 26.000000
20.064400 33.792297 6.224527 10.000000
16.746843 -12.656351 2.087823 24.000000
16.707678 -12.723232 2.096143 31.000000
19.863628 32.902344 6.039132 9.000000
16.660059 -12.783713 2.107139 31.000000
20.768312 34.131027 6.256488 10.000000
16.647346 -12.871173 2.126323 29.000000
16.635084 -12.959389 2.134527 31.000000
20.515120 33.164997 6.058006 10.000000
16.598038 -13.028563 2.150770 33.000000
16.564892 -13.100951 2.163856 20.000000
21.428450 34.093746 6.212324 8.000000
16.562256 -13.197827 2.184757 30.000000
17.804625 28.109789 5.115427 8.000000
16.530704 -13.267293 2.197908 27.000000
17.789747 27.859886 5.058162 10.000000
46.020794 -12.520824 7.878529 9.000000
16.488804 -13.333321 2.210043 31.000000
17.955183 27.893057 5.052400 21.000000
45.885021 -12.664693 7.888786 15.000000
16.462358 -13.412024 2.220565 29.000000
46.039127 -12.889009 7.914776 14.000000
16.427561 -13.484151 2.233773 30.000000
17.878532 27.342085 4.940648 7.000000
46.099003 -13.079470 7.958650 9.000000
16.415142 -13.574962 2.253871 28.000000
18.031744 27.356964 4.937698 8.000000
16.364368 -13.634278 2.265024 29.000000
18.217255 27.439949 4.940039 8.000000
44.978603 -13.118586 7.815231 9.000000
16.320992 -13.699794 2.277239 26.000000
18.624254 27.820578 4.997505 8.000000
44.957493 -13.282884 7.811161 10.000000
16.317719 -13.794422 2.294803 35.000000
18.826653 27.901155 5.012331 8.000000
45.120583 -13.511077 7.881848 9.000000
16.285053 -13.869472 2.308673 35.000000
17.919256 26.357489 4.723484 11.000000
45.206291 -13.717487 7.914025 9.000000
16.278460 -13.967119 2.326343 28.000000
18.038696 26.344852 4.714829 10.000000
45.128532 -13.866107 7.917309 9.000000
16.245346 -14.042411 2.336534 26.000000
18.362637 26.588360 4.748514 8.000000
44.826553 -13.953333 7.881674 35.000000
16.211586 -14.117373 2.350494 25.000000
44.338890 -13.971491 7.812801 9.000000
16.161922 -14.178617 2.369801 24.000000
18.819452 26.837067 4.781799 8.000000
44.300964 -14.138242 7.848582 9.000000
16.119160 -14.240979 2.378405 26.000000
18.807030 26.631052 4.738745 21.000000
44.461266 -14.369167 7.877873 9.000000
16.103043 -14.332170 2.395187 29.000000
18.883469 26.532377 4.710257 20.000000
16.075369 -14.413477 2.410358 19.000000
18.640436 25.979164 4.607628 14.000000
16.061739 -14.507802 2.431571 30.000000
18.745752 25.943878 4.589562 8.000000
44.286522 -14.835254 7.907987 9.000000
16.004156 -14.562660 2.438566 27.000000
19.222107 26.389103 4.669716 24.000000
44.321285 -15.027798 7.949186 9.000000
15.989700 -14.656996 2.459869 23.000000
19.205559 26.183495 4.627228 10.000000
44.170036 -15.157243 7.948742 9.000000
15.959393 -14.732061 2.474622 15.000000
19.029652 25.745279 4.539279 8.000000
44.027077 -15.280172 7.940935 9.000000
15.944673 -14.827079 2.488449 16.000000
19.054848 25.564039 4.498069 8.000000
44.062473 -15.473640 7.965884 9.000000
15.892575 -14.887625 2.504220 23.000000
19.142420 25.513853 4.482766 10.000000
15.880296 -14.985779 2.522508 26.000000
19.321259 25.538015 4.477807 10.000000
46.188805 -16.592577 8.415627 5.000000
15.817103 -15.036125 2.532787 23.000000
19.512293 25.613544 4.485182 15.000000
46.572327 -16.923332 8.496750 2.000000
15.810199 -15.134973 2.551741 22.000000
19.566357 25.499371 4.465685 9.000000
46.894318 -17.235167 8.593893 9.000000
15.767957 -15.205678 2.565527 24.000000
19.759007 25.555946 4.459516 8.000000
46.598309 -17.292734 8.558492 9.000000
15.753895 -15.303951 2.584007 25.000000
19.524736 25.062574 4.374579 8.000000
42.342232 -15.906965 7.804721 9.000000
15.718020 -15.381478 2.599027 28.000000
19.570698 24.923580 4.340862 10.000000
42.146992 -16.001724 7.787085 9.000000
15.699463 -15.476369 2.617026 22.000000
20.100155 25.423828 4.422287 22.000000
41.902542 -16.068100 7.767857 10.000000
15.665512 -15.551096 2.632120 28.000000
20.192034 25.348524 4.398987 20.000000
41.685631 -16.168791 7.731060 17.000000
15.603922 -15.603922 2.643083 22.000000
20.440830 25.468748 4.421215 12.000000
41.415749 -16.222315 7.722927 10.000000
15.594610 -15.709347 2.662998 31.000000
20.762062 25.684809 4.447797 23.000000
41.216232 -16.335306 7.705860 13.000000
15.553040 -15.782746 2.681454 31.000000
20.804329 25.545017 4.419203 25.000000
40.996403 -16.413994 7.691308 16.000000
15.528113 -15.867864 2.698486 24.000000
20.663023 25.182447 4.357977 9.000000
40.774910 -16.498972 7.668957 10.000000
15.503115 -15.958913 2.720052 22.000000
20.615488 24.937561 4.299908 12.000000
40.528877 -16.547781 7.648170 21.000000
15.473240 -16.034206 2.735966 28.000000
20.694334 24.855749 4.280997 21.000000
40.352867 -16.665218 7.627518 10.000000
15.438974 -16.127762 2.749244 27.000000
40.380058 -16.833406 7.666774 11.000000
15.406113 -16.211971 2.765843 29.000000
40.153820 -16.920359 7.651777 8.000000
39.937653 -16.985443 7.629084 8.000000
15.368067 -16.393974 2.802877 29.000000
24.231525 28.261419 4.834987 9.000000
39.748978 -17.069292 7.619946 8.000000
7.185868 -7.727504 1.323711 14.000000
24.495422 28.358202 4.846922 9.000000
39.533169 -17.164904 7.607235 8.000000
7.032526 -7.618408 1.306113 8.000000
24.499941 28.154173 4.807498 9.000000
39.243015 -17.201979 7.562911 8.000000
15.274513 -16.663366 2.859663 20.000000
24.571398 28.047920 4.790010 9.000000
38.817413 -17.169100 7.514739 28.000000
15.241538 -16.738489 2.875909 25.000000
24.492458 27.751932 4.728495 10.000000
38.585510 -17.235891 7.497238 17.000000
15.182400 -16.796801 2.888395 25.000000
38.379936 -17.321144 7.470163 21.000000
15.160189 -16.908178 2.909144 26.000000
38.188278 -17.371214 7.450411 13.000000
6.974430 -7.833433 1.351031 7.000000
24.501579 27.183126 4.610142 25.000000
38.013199 -17.451977 7.443155 26.000000
24.547382 27.043522 4.588019 23.000000
37.805817 -17.524822 7.445093 16.000000
24.524464 26.801294 4.531391 26.000000
7.113991 -8.163546 1.412118 20.000000
24.637585 26.727562 4.514834 29.000000
35.550911 -16.789660 7.031597 34.000000
6.906702 -7.981756 1.380241 13.000000
24.797764 26.704260 4.506845 20.000000
6.935071 -8.074160 1.397483 6.000000
24.962343 26.703354 4.501208 27.000000
6.850124 -8.034653 1.393790 29.000000
25.128098 26.674616 4.486624 25.000000
6.612031 -7.813211 1.356616 17.000000
24.168200 25.467970 4.279881 10.000000
6.622521 -7.881233 1.369889 10.000000
100.850883 41.505970 19.112131 1.000000
6.399346 -7.672561 1.336632 24.000000
100.679436 41.045525 19.014627 1.000000
6.420841 -7.750441 1.351847 37.000000
25.721071 26.532818 4.445695 9.000000
101.014023 40.771305 18.992048 7.000000
25.853773 -13.014403 5.239261 22.000000
6.590214 -8.014498 1.399213 25.000000
27.174580 27.837103 4.659437 9.000000
101.164360 40.401424 18.953165 1.000000
25.838079 -13.119748 5.250553 31.000000
27.208508 27.668253 4.627227 9.000000
101.080299 39.959309 18.911169 1.000000
25.431932 -13.030985 5.198298 10.000000
100.992134 39.456432 18.806406 1.000000
24.667356 -12.753589 5.051539 9.000000
29.648228 29.710390 4.960392 10.000000
23.914545 -12.470352 4.915985 10.000000
6.273834 -7.864726 1.381703 34.000000
26.542116 26.403505 4.391369 9.000000
23.401396 -12.312070 4.829281 33.000000
6.338304 -8.002687 1.405676 37.000000
26.528301 26.187872 4.352630 16.000000
22.540880 -11.970064 4.665753 10.000000
6.259500 -7.962981 1.400067 42.000000
25.762028 25.263298 4.193985 9.000000
22.027704 -11.791359 4.572104 11.000000
6.255742 -8.015632 1.409094 37.000000
25.656712 24.976213 4.142910 15.000000
21.474327 -11.591758 4.474421 10.000000
6.107450 -7.885038 1.389289 15.000000
20.899101 -11.380369 4.371814 10.000000
26.372763 25.299408 4.189695 9.000000
20.409632 -11.206378 4.285983 29.000000
20.392920 -11.294676 4.299551 10.000000
19.338963 -10.799323 4.093258 19.000000
6.050170 -8.049289 1.425936 19.000000
30.421824 28.558006 4.702428 20.000000
18.891665 -10.640562 4.010725 10.000000
6.001014 -8.042187 1.424531 16.000000
30.611698 28.525900 4.693399 8.000000
18.455605 -10.479981 3.933554 10.000000
6.018035 -8.126974 1.442836 29.000000
33.293167 30.797445 5.063138 9.000000
18.014881 -10.317221 3.855150 10.000000
5.967244 -8.120447 1.443169 35.000000
17.679598 -10.207320 3.798373 10.000000
5.957191 -8.163361 1.454478 20.000000
17.645168 -10.273857 3.806416 29.000000
5.960176 -8.233660 1.468347 27.000000
30.992077 28.052656 4.600285 9.000000
17.612289 -10.337201 3.814461 19.000000
6.013074 -8.371161 1.496275 38.000000
29.239960 26.272385 4.312001 8.000000
17.594858 -10.413862 3.822619 25.000000
5.984921 -8.396747 1.500592 27.000000
29.430473 26.249250 4.304983 10.000000
17.578356 -10.487122 3.834359 12.000000
6.000687 -8.481349 1.519367 25.000000
29.395298 26.025061 4.251190 10.000000
80.249603 -9.398764 15.808030 1.000000
17.531378 -10.546412 3.832518 11.000000
5.926618 -8.442117 1.512115 19.000000
29.419092 25.872610 4.228364 12.000000
80.137749 -9.669351 15.821806 1.000000
17.485611 -10.598007 3.844953 16.000000
5.929101 -8.505492 1.527331 26.000000
29.737692 25.950983 4.231930 10.000000
79.919472 -9.940331 15.771202 1.000000
17.481949 -10.687785 3.856845 18.000000
5.791865 -8.377005 1.505702 27.000000
30.015215 25.999994 4.229794 10.000000
17.430836 -10.740304 3.861217 15.000000
5.911603 -8.617537 1.552487 26.000000
17.423595 -10.824148 3.875791 14.000000
31.820839 27.177563 4.420469 10.000000
79.006256 -10.682065 15.641446 1.000000
17.418444 -10.905399 3.886804 23.000000
32.062340 27.181219 4.417895 10.000000
17.373055 -10.965820 3.893046 22.000000
32.335915 27.210083 4.404536 10.000000
17.347883 -11.030549 3.903015 14.000000
5.929800 -8.911563 1.613116 4.000000
17.333773 -11.115272 3.913137 13.000000
5.813736 -8.803614 1.595542 7.000000
31.301437 25.940844 4.201131 10.000000
17.297844 -11.177634 3.921261 17.000000
5.729003 -8.751501 1.589387 1.000000
31.135536 25.629669 4.146095 10.000000
17.277338 -11.254363 3.925936 13.000000
5.566463 -8.561783 1.555395 5.000000
31.150608 25.451115 4.107274 19.000000
85.920692 -13.500916 17.048042 9.000000
17.252649 -11.324254 3.940483 10.000000
5.571620 -8.645461 1.573869 3.000000
31.424238 25.465015 4.108444 10.000000
85.859039 -13.813875 17.029978 12.000000
17.230360 -11.400202 3.952384 10.000000
5.470241 -8.556867 1.559523 6.000000
31.796953 25.592829 4.124463 13.000000
85.902374 -14.097845 17.047276 1.000000
17.185799 -11.457170 3.955050 20.000000
5.421850 -8.540174 1.556983 6.000000
32.044376 25.599009 4.115435 10.000000
17.166948 -11.527015 3.966970 21.000000
5.376766 -8.538160 1.560224 7.000000
17.141726 -11.597097 3.977962 28.000000
13.409261 -21.467638 3.931986 10.000000
33.353386 26.246527 4.206358 12.000000
17.232399 -11.750739 4.012747 10.000000
13.375160 -21.580336 3.953129 12.000000
33.890316 26.468493 4.239073 11.000000
17.255445 -11.854905 4.031515 10.000000
13.377675 -21.762119 3.991120 23.000000
59.149155 45.847729 7.324685 17.000000
85.326141 -15.583321 16.985777 13.000000
9.448945 -6.542760 2.217374 5.000000
13.300540 -21.806894 4.004495 18.000000
59.166000 45.514626 7.266605 13.000000
85.158371 -15.860050 16.947598 1.000000
9.409625 -6.564246 2.215588 5.000000
13.260341 -21.921322 4.030301 9.000000
59.209854 45.203888 7.199099 4.000000
85.307953 -16.211647 16.957609 6.000000
9.408966 -6.615185 2.225291 1.000000
13.234349 -22.060528 4.065356 9.000000
60.747761 46.026562 7.311826 1.000000
85.118851 -16.483768 16.915646 8.000000
17.077713 -12.096171 4.045180 10.000000
13.187209 -22.156904 4.079222 10.000000
61.205540 46.021275 7.306110 1.000000
85.098289 -16.803616 16.939402 6.000000
17.065626 -12.177288 4.063749 18.000000
13.134582 -22.253662 4.106638 13.000000
61.948372 46.225372 7.320060 10.000000
17.040804 -12.254083 4.068507 10.000000
13.081047 -22.340748 4.123523 10.000000
59.617100 44.146545 6.973169 17.000000
84.962425 -17.409376 16.905296 6.000000
16.993378 -12.310196 4.071218 10.000000
13.032697 -22.446451 4.148125 9.000000
59.862644 43.989574 6.930667 8.000000
83.520348 -17.417887 16.614901 1.000000
16.951534 -12.374871 4.075833 14.000000
13.024634 -22.613985 4.184672 13.000000
59.916664 43.691982 6.840011 9.000000
84.299866 -17.903111 16.736080 7.000000
16.912762 -12.437298 4.073123 10.000000
13.006478 -22.765841 4.209040 14.000000
59.682461 43.505241 6.708422 18.000000
84.425209 -17.929731 16.573463 8.000000
16.916679 -12.435629 4.035532 10.000000
12.990943 -22.729435 4.169926 16.000000
59.801041 43.912167 6.712828 11.000000
84.516663 -17.641056 16.469879 13.000000
17.034132 -12.426057 4.022140 14.000000
13.024903 -22.596210 4.121548 21.000000
59.607674 44.107357 6.709224 18.000000
84.748802 -17.365604 16.424374 8.000000
17.051130 -12.342960 3.992604 16.000000
13.070077 -22.483711 4.081829 9.000000
61.217110 45.646450 6.922597 1.000000
84.976257 -17.103354 16.409767 8.000000
17.104351 -12.290723 3.979764 10.000000
13.119216 -22.379057 4.048339 18.000000
61.219677 45.981743 6.954470 14.000000
84.988945 -16.782024 16.353249 16.000000
17.167545 -12.240972 3.968758 23.000000
13.145113 -22.236029 4.008067 15.000000
85.014771 -16.479008 16.284451 17.000000
17.154938 -12.137384 3.936548 12.000000
13.192887 -22.131273 3.974851 15.000000
59.145775 45.105968 6.769347 6.000000
85.328430 -16.215538 16.317341 3.000000
9.404186 -6.604470 2.144375 7.000000
13.243839 -22.041451 3.944026 22.000000
59.154945 45.440414 6.827891 14.000000
85.334923 -15.908343 16.260813 1.000000
9.429556 -6.570812 2.136351 3.000000
13.280213 -21.919603 3.908018 25.000000
33.979168 26.299999 3.955794 11.000000
85.453468 -15.606575 16.256701 7.000000
9.461134 -6.543873 2.134163 3.000000
13.328026 -21.817682 3.884834 12.000000
33.882000 26.423937 3.963293 18.000000
17.343428 -11.901989 3.883334 30.000000
13.391527 -21.742100 3.857293 22.000000
33.729034 26.504025 3.971838 11.000000
85.509117 -14.985252 16.168072 12.000000
17.266117 -11.756082 3.848810 16.000000
13.427032 -21.630289 3.827572 34.000000
85.786537 -14.725409 16.194992 1.000000
17.134060 -11.578836 3.795415 27.000000
13.460768 -21.508303 3.792050 10.000000
30.951826 24.681995 3.693383 10.000000
17.153519 -11.500631 3.779186 14.000000
5.375726 -8.520010 1.498406 1.000000
30.797552 24.744173 3.706638 4.000000
85.776794 -14.092610 16.126614 4.000000
17.195751 -11.442142 3.764768 10.000000
13.533644 -21.276329 3.728057 18.000000
31.182062 25.241726 3.771089 10.000000
17.226353 -11.371634 3.754873 24.000000
5.556648 -8.665345 1.516401 1.000000
31.878597 25.999548 3.888556 10.000000
86.168266 -13.524408 16.118624 3.000000
17.257759 -11.301766 3.737787 15.000000
5.574010 -8.626008 1.505588 1.000000
31.317854 25.724775 3.838223 10.000000
17.275076 -11.227141 3.714461 16.000000
13.643085 -20.944429 3.642075 10.000000
31.068933 25.711594 3.833444 10.000000
17.321335 -11.167117 3.708154 22.000000
5.812353 -8.851828 1.533523 1.000000
25.460356 21.227829 3.168522 20.000000
17.332281 -11.088719 3.694774 17.000000
5.861735 -8.856116 1.530408 7.000000
25.339184 21.284718 3.180616 8.000000
78.725891 -11.204354 14.608851 1.000000
17.366127 -11.020880 3.682238 14.000000
5.857358 -8.782739 1.515610 56.000000
78.458252 -10.900941 14.538109 1.000000
17.383581 -10.942787 3.662612 16.000000
5.967418 -8.877108 1.528039 64.000000
79.451225 -10.756349 14.686129 1.000000
17.406055 -10.872287 3.651937 20.000000
5.664667 -8.360392 1.433667 33.000000
79.556053 -10.473752 14.683836 1.000000
17.419069 -10.800281 3.632374 18.000000
5.832790 -8.540940 1.459079 31.000000
29.640324 25.630014 3.814483 10.000000
17.462566 -10.734641 3.618064 18.000000
5.770382 -8.386548 1.430699 30.000000
29.624973 25.788929 3.844254 10.000000
17.511282 -10.676351 3.612644 13.000000
5.900413 -8.508580 1.447827 25.000000
29.495066 25.866478 3.860412 23.000000
17.526625 -10.597784 3.596716 18.000000
5.881213 -8.414863 1.426405 21.000000
29.488039 26.052135 3.892767 7.000000
17.539248 -10.521984 3.584388 18.000000
5.892338 -8.365314 1.418016 21.000000
32.911011 29.291744 4.374313 10.000000
17.575609 -10.456389 3.569248 17.000000
6.016812 -8.479007 1.431594 39.000000
31.269320 28.026817 4.191293 8.000000
17.591862 -10.383088 3.557819 10.000000
6.083007 -8.506060 1.432478 24.000000
31.113056 28.093082 4.206290 9.000000
17.622370 -10.314192 3.548977 18.000000
6.114871 -8.484718 1.423352 38.000000
31.078173 28.269047 4.237773 7.000000
17.664129 -10.256020 3.539138 10.000000
33.364563 30.572990 4.580750 8.000000
17.827568 -10.263731 3.549533 9.000000
33.244904 30.677515 4.602925 2.000000
18.237345 -10.410837 3.623499 10.000000
6.084423 -8.252709 1.375351 17.000000
33.086761 30.756878 4.620505 12.000000
103.078094 35.553017 17.035778 22.000000
18.636574 -10.561248 3.680811 10.000000
6.091556 -8.199296 1.362902 36.000000
30.482073 28.544584 4.286077 30.000000
102.949905 35.931557 17.016748 20.000000
19.118803 -10.742138 3.760372 10.000000
5.970642 -7.975316 1.322222 22.000000
33.056446 31.183516 4.688145 10.000000
102.472588 36.166725 17.036335 13.000000
77.113884 -6.529652 13.966467 1.000000
19.501215 -10.858695 3.819338 26.000000
6.016906 -7.978908 1.319192 79.000000
32.949215 31.300444 4.712455 9.000000
102.002533 36.421799 16.960899 34.000000
77.245201 -6.255710 13.986003 1.000000
20.392462 -11.266534 3.978180 12.000000
6.064523 -7.981033 1.317870 40.000000
26.429829 25.292219 3.812634 23.000000
101.571854 36.668278 16.949087 1.000000
77.330299 -5.990973 13.969585 1.000000
20.539412 -11.240340 3.981192 20.000000
6.115389 -7.987035 1.315410 36.000000
101.274376 36.981007 16.921953 35.000000
77.044975 -5.684869 13.900266 1.000000
21.155973 -11.481976 4.084263 9.000000
6.108976 -7.918363 1.298904 36.000000
25.709789 24.966780 3.766683 19.000000
101.001015 37.301300 16.918262 27.000000
77.245987 -5.428662 13.933027 1.000000
21.750786 -11.711592 4.182703 10.000000
6.316511 -8.128540 1.331509 23.000000
25.851286 25.288946 3.820113 9.000000
100.665688 37.577293 16.922396 31.000000
77.368477 -5.152371 13.951621 1.000000
22.341263 -11.919104 4.273783 10.000000
100.344307 37.876930 16.910780 30.000000
23.296450 -12.329630 4.443928 27.000000
32.121449 31.875715 4.828179 6.000000
100.196732 38.221344 16.946657 32.000000
23.547247 -12.346858 4.463605 21.000000
29.851379 29.840960 4.518277 11.000000
99.986847 38.561668 16.934950 30.000000
24.263205 -12.609103 4.580717 157.000000
6.395452 -7.988542 1.296384 32.000000
30.013403 30.202578 4.580486 7.000000
99.694603 38.829216 16.926310 31.000000
25.104097 -12.940549 4.721209 32.000000
6.325451 -7.842018 1.271001 31.000000
29.898556 30.297798 4.609134 11.000000
25.712700 -13.140869 4.816650 26.000000
6.329679 -7.788668 1.258988 64.000000
27.025070 27.606730 4.196855 9.000000
25.847458 -13.079147 4.811235 32.000000
6.503325 -7.942682 1.280449 21.000000
25.712072 26.440304 4.026087 22.000000
26.307184 -13.208133 4.889060 7.000000
25.454775 26.767542 4.097617 13.000000
6.802117 -8.015108 1.279589 18.000000
25.109747 26.767239 4.103737 15.000000
6.831733 -7.984812 1.269814 23.000000
24.908255 26.766975 4.120645 23.000000
6.897038 -8.001582 1.270881 7.000000
24.659384 26.676369 4.113348 29.000000
7.053555 -8.122771 1.290418 6.000000
24.536961 26.739889 4.122079 21.000000
37.628426 -17.554419 6.769687 8.000000
6.974747 -7.975611 1.261521 10.000000
24.686268 27.091833 4.182464 9.000000
37.889446 -17.507381 6.775146 15.000000
6.948569 -7.887153 1.245968 8.000000
24.561516 27.154171 4.204058 23.000000
38.118519 -17.452021 6.790154 22.000000
6.968117 -7.851139 1.236874 5.000000
24.530037 27.319983 4.235261 29.000000
38.276627 -17.354994 6.806942 16.000000
15.163670 -16.971561 2.669538 26.000000
24.431217 27.392107 4.253334 27.000000
38.521809 -17.312389 6.817605 22.000000
15.196802 -16.883684 2.652402 30.000000
24.368446 27.543516 4.287642 20.000000
38.725487 -17.225502 6.826715 17.000000
15.196844 -16.765663 2.626167 27.000000
24.486883 27.853220 4.343540 21.000000
38.945000 -17.168674 6.855339 16.000000
7.277889 -7.970306 1.246908 10.000000
24.422813 27.986534 4.363485 9.000000
39.125156 -17.077099 6.845415 18.000000
7.095634 -7.713742 1.205270 22.000000
24.334829 28.092896 4.385863 8.000000
39.354401 -17.013863 6.859740 10.000000
7.073922 -7.633794 1.187620 1.000000
39.512917 -16.910772 6.868827 8.000000
15.323291 -16.414976 2.550555 29.000000
21.360493 25.018766 3.922724 7.000000
39.801212 -16.870024 6.893191 8.000000
39.987938 -16.776541 6.899313 8.000000
15.385266 -16.258093 2.518651 26.000000
20.898607 24.844286 3.911476 9.000000
40.298176 -16.741512 6.934906 9.000000
15.431037 -16.175896 2.499690 26.000000
21.290478 25.490236 4.024974 13.000000
40.503090 -16.652834 6.943948 8.000000
15.470799 -16.104645 2.489117 16.000000
21.049843 25.390705 4.014573 26.000000
40.639286 -16.534962 6.941162 13.000000
15.496666 -16.013674 2.464133 30.000000
20.841328 25.327553 4.015723 28.000000
40.885704 -16.469112 6.965503 20.000000
15.507584 -15.907866 2.444807 26.000000
20.699936 25.344482 4.023743 26.000000
41.081100 -16.373077 6.972699 16.000000
15.545487 -15.830253 2.433781 30.000000
20.619835 25.427057 4.037002 16.000000
41.333241 -16.306601 6.989895 13.000000
15.576630 -15.746104 2.413957 23.000000
20.272717 25.187159 4.010007 8.000000
41.536507 -16.211113 7.006200 9.000000
15.607830 -15.667875 2.398586 23.000000
20.075886 25.130630 4.017770 26.000000
41.745384 -16.116573 7.015417 11.000000
15.641095 -15.586594 2.387104 20.000000
19.971313 25.179466 4.031499 24.000000
41.996334 -16.045240 7.040095 10.000000
15.695766 -15.526834 2.371154 24.000000
19.917534 25.283421 4.048958 13.000000
42.246628 -15.963670 7.056047 9.000000
15.718272 -15.435521 2.350435 17.000000
20.006306 25.588488 4.109079 9.000000
42.512630 -15.894822 7.074937 8.000000
15.736458 -15.340487 2.333094 37.000000
19.849995 25.599684 4.121027 10.000000
46.682045 -17.258951 7.749332 9.000000
15.765487 -15.261820 2.321740 25.000000
19.438231 25.231947 4.068926 29.000000
46.837723 -17.140173 7.756781 9.000000
15.788501 -15.183002 2.302239 22.000000
19.341080 25.315390 4.092436 22.000000
45.637257 -16.502441 7.530075 9.000000
15.828890 -15.100011 2.283832 21.000000
19.306353 25.462854 4.127486 28.000000
45.695259 -16.334284 7.512370 10.000000
15.859142 -15.018232 2.276385 29.000000
19.069824 25.315702 4.110775 15.000000
45.855724 -16.211348 7.520710 9.000000
15.880013 -14.933202 2.256503 15.000000
18.909878 25.295759 4.118677 24.000000
15.926389 -14.877603 2.248381 21.000000
18.865965 25.430849 4.146249 8.000000
44.243420 -15.294719 7.213494 9.000000
15.945198 -14.786107 2.231864 25.000000
19.044228 25.868752 4.229048 8.000000
15.994587 -14.712930 2.215161 29.000000
19.015970 26.020123 4.271533 10.000000
16.030891 -14.638216 2.201260 22.000000
18.974886 26.164673 4.295297 22.000000
16.045891 -14.549523 2.184875 30.000000
18.648411 25.913816 4.265551 8.000000
43.628246 -14.386439 7.037865 9.000000
16.055582 -14.451437 2.167542 32.000000
18.372187 25.718857 4.239723 9.000000
43.669182 -14.205832 7.018806 9.000000
16.079607 -14.366732 2.152259 25.000000
18.682981 26.357649 4.356672 17.000000
43.738289 -14.076519 7.014565 9.000000
16.161491 -14.343801 2.145414 25.000000
18.595898 26.439663 4.381913 25.000000
16.163761 -14.230228 2.126729 33.000000
18.516958 26.533567 4.409204 20.000000
44.803562 -14.057763 7.160304 9.000000
16.180454 -14.144977 2.111054 29.000000
19.356607 27.944069 4.650468 8.000000
44.655361 -13.823144 7.119735 22.000000
16.248056 -14.099345 2.101745 28.000000
19.313936 28.101950 4.689185 8.000000
44.576881 -13.637029 7.075000 26.000000
16.257858 -14.013611 2.085645 33.000000
17.933756 26.299761 4.400113 8.000000
44.704647 -13.497129 7.070704 15.000000
16.302378 -13.948168 2.073445 31.000000
17.859116 26.387722 4.432714 8.000000
16.324362 -13.853865 2.065379 33.000000
18.360012 27.343193 4.599462 9.000000
45.217445 -13.299644 7.136576 9.000000
16.322968 -13.764703 2.048438 34.000000
45.275482 -13.145175 7.121617 16.000000
16.347412 -13.683107 2.033934 27.000000
18.428499 27.884701 4.715290 8.000000
45.697628 -13.086322 7.188912 9.000000
16.383877 -13.602157 2.020410 25.000000
18.223352 27.784653 4.711248 11.000000
45.741638 -12.909095 7.162531 10.000000
16.426750 -13.536353 2.008321 26.000000
17.993164 27.654181 4.695534 8.000000
44.937611 -12.521446 7.021764 9.000000
16.442385 -13.448355 1.992972 27.000000
17.645643 27.338745 4.654141 8.000000
44.921223 -12.339632 7.012090 9.000000
16.508820 -13.406789 1.991595 25.000000
44.845894 -12.150747 6.985374 19.000000
16.495872 -13.305738 1.973506 13.000000
17.711441 27.876490 4.771056 8.000000
44.767094 -11.953445 6.957960 9.000000
16.572540 -13.267614 1.965636 18.000000
44.783466 -11.790503 6.962330 25.000000
16.586777 -13.179544 1.950394 23.000000
44.741398 -11.604243 6.940882 10.000000
16.584414 -13.078791 1.940749 14.000000
20.517511 33.078465 5.699355 10.000000
45.156063 -11.535319 6.973653 10.000000
16.634188 -13.010083 1.921864 24.000000
20.585325 33.460968 5.787244 10.000000
45.118149 -11.358013 6.969934 21.000000
16.656166 -12.933822 1.915464 13.000000
20.502365 33.588268 5.824919 10.000000
45.218254 -11.207138 6.970694 19.000000
16.676098 -12.860882 1.901724 12.000000
20.316475 33.533276 5.838636 10.000000
45.598171 -11.132501 7.023227 9.000000
16.707567 -12.787768 1.896253 20.000000
19.913723 33.142002 5.785357 9.000000
16.727354 -12.705957 1.882113 18.000000
19.799648 33.227406 5.822073 9.000000
84.345543 -19.938442 12.968405 5.000000
16.748009 -12.629698 1.875775 18.000000
20.161072 34.117687 5.993376 10.000000
16.794971 -12.568816 1.864791 10.000000
20.190271 34.441021 6.059141 8.000000
16.825451 -12.495684 1.855705 10.000000
16.831564 -12.404766 1.843997 11.000000
20.004597 34.704906 6.136836 4.000000
83.283897 -18.433098 12.702422 1.000000
16.906096 -12.364331 1.832449 20.000000
19.208576 33.594425 5.963145 9.000000
83.350883 -18.142956 12.748562 1.000000
16.957214 -12.311096 1.833321 14.000000
18.997969 33.510529 5.963388 9.000000
16.946672 -12.208842 1.812639 18.000000
84.662048 -17.779369 12.897953 16.000000
9.389328 -6.712189 0.999628 8.000000
19.071871 34.223209 6.128202 10.000000
84.847313 -17.509268 12.932244 10.000000
9.344938 -6.628836 0.990294 11.000000
18.944921 34.276234 6.160836 10.000000
84.859818 -17.187819 12.909014 12.000000
9.357371 -6.586236 0.983011 8.000000
18.760134 34.237709 6.169445 10.000000
84.975281 -16.902634 12.932982 20.000000
9.417199 -6.579309 0.984857 6.000000
18.584290 34.213760 6.194613 10.000000
85.243149 -16.631357 12.979883 7.000000
17.069021 -11.832377 1.776891 18.000000
18.479603 34.320347 6.236486 10.000000
85.114304 -16.298014 12.997915 5.000000
17.087645 -11.752798 1.774333 17.000000
18.459328 34.297031 6.266529 10.000000
85.182953 -16.341986 13.133126 18.000000
17.100470 -11.766015 1.797776 14.000000
18.614740 34.284088 6.255634 10.000000
85.009598 -16.601194 13.130278 1.000000
17.068735 -11.836592 1.809947 10.000000
18.724016 34.200115 6.231262 10.000000
85.017921 -16.957397 13.188412 10.000000
9.402092 -6.571196 1.007602 7.000000
18.903854 34.230152 6.221323 10.000000
85.008820 -17.279789 13.227718 7.000000
9.373295 -6.602337 1.015169 10.000000
19.113697 34.326435 6.229820 10.000000
9.352514 -6.639119 1.023618 8.000000
18.788731 33.453758 6.063304 9.000000
84.643181 -17.806259 13.251175 8.000000
9.327681 -6.673040 1.029623 1.000000
19.027197 33.589409 6.079772 9.000000
84.563934 -18.144375 13.265512 7.000000
16.925322 -12.202436 1.880545 10.000000
19.124384 33.487858 6.045851 5.000000
84.509369 -18.456926 13.313839 1.000000
16.919704 -12.292884 1.899634 10.000000
84.530708 -18.740007 13.341881 9.000000
16.861677 -12.345402 1.909219 22.000000
83.134415 -18.780895 13.163748 1.000000
16.843285 -12.427018 1.927017 19.000000
20.109001 34.343590 6.182343 10.000000
83.250916 -19.128183 13.239003 1.000000
16.804529 -12.493803 1.942553 13.000000
20.107880 34.068386 6.117119 10.000000
83.132149 -19.391348 13.276044 1.000000
16.785700 -12.575595 1.956768 30.000000
20.136219 33.832504 6.059835 10.000000
84.123886 -19.932558 13.429999 18.000000
16.752800 -12.642487 1.969151 21.000000
19.878223 33.122192 5.918015 9.000000
83.887466 -20.232533 13.451391 5.000000
16.740915 -12.730087 1.988038 31.000000
20.143164 33.299652 5.948346 10.000000
45.436260 -11.126588 7.300271 24.000000
16.681459 -12.781642 1.997630 24.000000
45.083786 -11.198870 7.274482 9.000000
16.661530 -12.863564 2.008290 30.000000
20.516758 33.375614 5.939013 10.000000
45.275890 -11.422935 7.320536 9.000000
16.648514 -12.951183 2.027290 32.000000
20.664021 33.340645 5.925221 10.000000
45.069790 -11.546804 7.302326 9.000000
16.604013 -13.014531 2.038815 34.000000
45.001606 -11.696882 7.322797 9.000000
16.590511 -13.102396 2.054213 28.000000
44.770947 -11.812278 7.300542 11.000000
16.561003 -13.177937 2.067713 20.000000
17.711588 27.898233 4.921010 8.000000
44.654930 -11.965253 7.280792 19.000000
16.523392 -13.247205 2.080260 33.000000
17.858219 27.924120 4.924170 6.000000
16.512299 -13.338027 2.099967 25.000000
17.674955 27.405148 4.821319 6.000000
16.472506 -13.401170 2.112071 32.000000
17.797768 27.374767 4.815772 8.000000
45.661350 -12.757468 7.534461 9.000000
16.434248 -13.470447 2.120973 29.000000
18.141161 27.680403 4.857598 8.000000
45.719799 -12.946017 7.560019 10.000000
16.429365 -13.567421 2.145527 33.000000
18.324799 27.769917 4.865592 8.000000
45.590088 -13.089972 7.554943 19.000000
16.394537 -13.640033 2.151253 34.000000
18.504591 27.820034 4.868355 8.000000
45.760811 -13.320730 7.616863 9.000000
16.335653 -13.692672 2.165131 21.000000
45.547012 -13.431132 7.597534 9.000000
16.330091 -13.790230 2.182386 33.000000
45.467823 -13.589118 7.601076 15.000000
16.319653 -13.884203 2.206672 29.000000
17.915659 26.312670 4.575835 16.000000
45.346695 -13.725525 7.605753 9.000000
16.274574 -13.944071 2.210925 25.000000
19.064026 27.779856 4.819096 8.000000
16.241009 -14.018863 2.228469 33.000000
19.361702 28.003599 4.857478 9.000000
16.233664 -14.116685 2.245932 27.000000
18.594439 26.684267 4.617252 9.000000
16.188408 -14.181865 2.258240 33.000000
18.665051 26.577398 4.593221 27.000000
43.521114 -13.864255 7.389731 15.000000
16.146616 -14.250190 2.271081 25.000000
18.754507 26.487940 4.567062 25.000000
43.691784 -14.103642 7.436074 9.000000
16.113182 -14.331119 2.285519 24.000000
18.561453 26.031805 4.487624 8.000000
43.629467 -14.243453 7.441686 9.000000
16.084087 -14.406111 2.303756 29.000000
18.528976 25.785801 4.428640 8.000000
16.036797 -14.464958 2.311825 24.000000
19.087309 26.368082 4.528478 15.000000
43.943958 -14.694916 7.537972 9.000000
16.052378 -14.586067 2.337079 30.000000
19.103952 26.188457 4.486557 24.000000
44.131626 -14.937732 7.587852 10.000000
15.997905 -14.643977 2.348435 26.000000
19.128315 26.021004 4.446875 8.000000
44.148769 -15.124111 7.617002 10.000000
15.968800 -14.725266 2.363577 24.000000
18.913830 25.541924 4.359303 8.000000
44.164394 -15.301926 7.637242 9.000000
15.957511 -14.823444 2.381472 31.000000
18.976543 25.431185 4.329678 22.000000
44.122849 -15.468896 7.664949 10.000000
15.926535 -14.898574 2.396152 29.000000
19.187109 25.517706 4.339324 9.000000
46.272949 -16.404291 8.048359 9.000000
15.878140 -14.962803 2.408668 21.000000
19.364191 25.566929 4.342061 21.000000
46.236401 -16.582346 8.078932 9.000000
15.872734 -15.067927 2.427809 24.000000
19.429083 25.458197 4.318585 17.000000
15.801498 -15.110796 2.444685 25.000000
19.536177 25.404911 4.298885 16.000000
46.617432 -17.096470 8.193381 9.000000
15.777290 -15.198745 2.461156 20.000000
19.962513 25.772648 4.361292 8.000000
46.833900 -17.370863 8.260475 9.000000
15.749074 -15.283250 2.477113 20.000000
42.380836 -15.896151 7.493395 8.000000
15.708914 -15.351112 2.490857 30.000000
19.829863 25.217371 4.246225 10.000000
42.184277 -15.990613 7.484644 9.000000
15.709937 -15.475886 2.512545 15.000000
20.043530 25.315859 4.262510 25.000000
41.912300 -16.063450 7.454834 11.000000
15.682285 -15.551452 2.528072 26.000000
20.151714 25.252655 4.241919 19.000000
41.706367 -16.151716 7.444232 14.000000
15.627756 -15.611400 2.540207 27.000000
20.388891 25.358667 4.249145 8.000000
41.471157 -16.235672 7.420809 9.000000
15.596739 -15.689567 2.555789 27.000000
20.720295 25.578302 4.281115 21.000000
41.218544 -16.311255 7.418065 11.000000
15.567248 -15.786140 2.577006 17.000000
20.796509 25.480873 4.260026 16.000000
40.970230 -16.378630 7.375704 17.000000
15.531244 -15.854448 2.591514 26.000000
20.974909 25.517107 4.260714 15.000000
40.781696 -16.476873 7.384154 12.000000
15.527476 -15.967254 2.612454 22.000000
20.766516 25.075661 4.176579 9.000000
40.555008 -16.550192 7.353525 9.000000
15.505833 -16.062368 2.630551 16.000000
20.644505 24.760725 4.118347 10.000000
40.422142 -16.669058 7.364003 10.000000
15.438407 -16.104649 2.640478 24.000000
20.754038 24.698662 4.098360 7.000000
15.412547 -16.196087 2.658061 21.000000
21.311363 25.191826 4.174342 8.000000
15.382488 -16.283596 2.679013 25.000000
21.466110 25.186945 4.168938 8.000000
39.915089 -16.951174 7.326921 8.000000
15.359096 -16.378674 2.697301 25.000000
39.813286 -17.088678 7.351339 8.000000
15.324546 -16.456581 2.713250 25.000000
24.303797 28.086773 4.632886 9.000000
7.075637 -7.654381 1.263256 8.000000
22.312145 25.594921 4.211246 10.000000
7.248432 -7.899197 1.304963 7.000000
22.410473 25.536261 4.207778 8.000000
38.835781 -17.169121 7.242859 27.000000
15.243065 -16.734299 2.771329 25.000000
24.379427 27.575319 4.532373 23.000000
38.651443 -17.241074 7.226704 19.000000
15.196898 -16.801046 2.785622 24.000000
24.374805 27.376917 4.494237 9.000000
38.395088 -17.303787 7.198709 9.000000
15.157448 -16.881393 2.801773 26.000000
24.433901 27.260727 4.468985 25.000000
38.275742 -17.402939 7.209773 16.000000
15.137414 -16.983892 2.821652 27.000000
24.521910 27.157986 4.447403 21.000000
37.989971 -17.441313 7.182960 18.000000
6.998974 -7.905340 1.315120 10.000000
24.536524 26.974745 4.406262 16.000000
37.804173 -17.500019 7.165674 16.000000
6.959520 -7.919068 1.320626 14.000000
24.529461 26.769207 4.368057 25.000000
6.928118 -7.939053 1.325522 8.000000
24.671432 26.736177 4.357370 25.000000
6.960228 -8.035108 1.342946 31.000000
24.750530 26.625422 4.334769 32.000000
6.849273 -7.965826 1.334614 15.000000
25.097765 26.801300 4.352354 25.000000
25.493826 26.836731 4.348319 9.000000
6.620706 -7.870702 1.324841 9.000000
6.540519 -7.833479 1.319964 26.000000
6.392439 -7.710677 1.300835 33.000000
25.771847 26.538815 4.280259 21.000000
6.382604 -7.756499 1.309959 24.000000
27.237677 27.853071 4.486863 20.000000
25.826067 -13.102311 5.069880 26.000000
6.331744 -7.752429 1.310674 35.000000
27.307138 27.739483 4.462478 9.000000
100.043015 39.448338 17.995964 1.000000
77.211555 -3.789783 14.620813 1.000000
25.419100 -13.007610 5.009145 9.000000
6.302565 -7.774693 1.319409 68.000000
29.634920 29.863377 4.800933 8.000000
100.061203 39.032356 17.954113 1.000000
76.874062 -4.042253 14.559487 1.000000
24.870882 -12.842318 4.920426 8.000000
6.275099 -7.796286 1.322902 96.000000
30.058584 30.090076 4.830818 11.000000
100.198097 38.683319 17.915800 1.000000
76.922485 -4.327570 14.571567 1.000000
24.016405 -12.507477 4.769731 12.000000
6.233674 -7.803201 1.325511 31.000000
32.024174 31.823587 5.103991 13.000000
100.207726 38.305695 17.913958 1.000000
23.415359 -12.303767 4.668807 28.000000
6.203962 -7.819038 1.333564 16.000000
100.349289 37.898823 17.834957 1.000000
22.885807 -12.132758 4.581379 9.000000
6.247173 -7.935891 1.352981 26.000000
25.653692 25.130722 4.009127 11.000000
100.322166 37.488964 17.787561 1.000000
22.118200 -11.824906 4.435952 24.000000
6.235766 -7.981417 1.364036 25.000000
25.588364 24.866222 3.964372 24.000000
101.177269 37.386463 17.876070 1.000000
78.271553 -5.528194 14.826407 7.000000
21.536030 -11.615359 4.336512 10.000000
6.114946 -7.886183 1.349241 35.000000
101.512230 37.108028 17.873495 1.000000
78.158440 -5.794458 14.837056 1.000000
20.947803 -11.392673 4.243220 12.000000
6.188305 -8.041482 1.377332 17.000000
26.413309 25.311760 4.032386 20.000000
102.054131 36.882652 17.925528 1.000000
20.461376 -11.225495 4.152995 19.000000
6.150589 -8.050458 1.382387 58.000000
32.934845 31.319614 4.969461 13.000000
101.971504 36.430790 17.848614 1.000000
20.390011 -11.279118 4.159064 10.000000
6.039793 -7.965791 1.369370 19.000000
32.986244 31.139055 4.935927 7.000000
101.911469 36.008694 17.757870 1.000000
19.397381 -10.823065 3.972658 23.000000
30.483507 28.585897 4.532459 10.000000
18.942198 -10.655964 3.894859 10.000000
18.482361 -10.486646 3.815842 10.000000
18.073996 -10.338511 3.738960 9.000000
6.007160 -8.165803 1.410284 28.000000
30.769360 28.224575 4.447453 10.000000
17.698111 -10.209772 3.676279 20.000000
5.946058 -8.142135 1.407984 22.000000
30.860840 28.091051 4.422956 8.000000
79.263123 -8.163084 15.070542 1.000000
17.639984 -10.258473 3.678975 18.000000
5.959180 -8.223217 1.425448 31.000000
32.718525 29.584208 4.651758 10.000000
17.609091 -10.327061 3.691439 28.000000
6.061381 -8.429093 1.464666 26.000000
32.902554 29.532139 4.639096 12.000000
17.602583 -10.405992 3.697667 22.000000
6.011341 -8.421370 1.465195 28.000000
29.273380 26.081631 4.093141 9.000000
17.554766 -10.464741 3.703022 13.000000
6.051791 -8.537768 1.485673 29.000000
29.374107 25.978876 4.073129 21.000000
17.546537 -10.543023 3.716407 10.000000
5.880327 -8.360654 1.458373 10.000000
29.452566 25.856501 4.043185 24.000000
17.507223 -10.606929 3.719980 23.000000
5.833669 -8.356152 1.459472 22.000000
29.607445 25.810026 4.038198 10.000000
17.476265 -10.671745 3.736064 14.000000
5.810876 -8.388842 1.468723 16.000000
29.786720 25.774780 4.021949 10.000000
79.440575 -10.176573 15.176551 1.000000
17.465242 -10.753094 3.749506 13.000000
5.826998 -8.484678 1.488730 24.000000
79.672836 -10.489127 15.198770 1.000000
17.435402 -10.818835 3.754886 21.000000
5.800021 -8.502513 1.492323 20.000000
78.569939 -10.637036 15.010045 1.000000
17.398687 -10.884578 3.762950 14.000000
5.690420 -8.414202 1.480043 53.000000
78.751289 -10.941655 15.051896 1.000000
17.359476 -10.944544 3.770114 10.000000
5.956661 -8.877829 1.565367 46.000000
25.345327 21.289877 3.303871 11.000000
17.368492 -11.039396 3.784547 29.000000
5.862597 -8.797244 1.551672 6.000000
25.523874 21.280788 3.299384 8.000000
17.337019 -11.104548 3.793543 10.000000
5.873513 -8.884014 1.568866 1.000000
25.503361 21.105713 3.269207 7.000000
17.303909 -11.172993 3.798950 12.000000
5.804668 -8.856961 1.567515 1.000000
31.291286 25.712099 3.978205 10.000000
17.288418 -11.248691 3.811591 16.000000
13.625560 -20.949488 3.712598 16.000000
31.607279 25.778267 3.977592 10.000000
17.237736 -11.305858 3.816970 18.000000
32.039692 25.935972 3.998231 10.000000
85.957268 -13.798900 16.512701 7.000000
17.218988 -11.375403 3.832328 16.000000
5.512757 -8.606813 1.531178 6.000000
32.187138 25.860632 3.975682 24.000000
17.191549 -11.452337 3.835979 18.000000
13.550819 -21.319761 3.793428 26.000000
30.983589 24.707325 3.794870 10.000000
17.149797 -11.511156 3.846795 25.000000
5.389524 -8.548488 1.524724 8.000000
85.658211 -14.734164 16.454409 1.000000
17.143576 -11.598349 3.858647 25.000000
13.432151 -21.470911 3.834768 23.000000
33.766743 26.524124 4.058891 11.000000
85.497780 -15.014030 16.417870 1.000000
17.276505 -11.776399 3.905347 12.000000
13.414770 -21.635809 3.872752 20.000000
33.857555 26.395369 4.035472 18.000000
17.317734 -11.897698 3.928293 10.000000
13.371938 -21.718784 3.889175 14.000000
33.935310 26.275524 4.004107 11.000000
9.466759 -6.547764 2.152061 1.000000
13.309566 -21.796015 3.903366 10.000000
59.180862 45.443905 6.908767 18.000000
9.439472 -6.585067 2.158088 3.000000
13.248342 -21.892857 3.934008 17.000000
59.262772 45.162479 6.859612 4.000000
85.123360 -16.176567 16.372082 1.000000
9.398630 -6.600567 2.153481 4.000000
13.250054 -22.051794 3.964262 10.000000
85.002808 -16.476688 16.376055 13.000000
17.142548 -12.133109 3.949369 10.000000
