VERSION .7
FIELDS x y z intensity
SIZE 4 4 4 4
TYPE F F F F
COUNT 1 1 1 1
WIDTH 1213
HEIGHT 1
VIEWPOINT 0 0 0 1 0 0 0
POINTS 1213
DATA ascii
33.084751 3.086653 -3.381080 5.000000
28.470583 -9.625686 -3.259575 6.000000
16.797546 -15.435318 -2.112229 18.000000
7.099527 9.366854 -0.523439 1.000000
44.336571 24.647020 -4.072470 2.000000
33.863182 3.034124 -3.465467 5.000000
28.488462 -9.748226 -3.249740 7.000000
16.559246 -15.328662 -2.073426 2.000000
7.125782 9.333633 -0.535291 19.000000
44.070564 24.288132 -4.075191 7.000000
28.509985 -9.872468 -3.245647 7.000000
16.438011 -15.323330 -2.041202 4.000000
7.174883 9.326874 -0.546699 27.000000
44.341721 24.226112 -4.109780 1.000000
35.932354 2.941550 -3.681158 1.000000
28.546118 -10.002302 -3.232553 7.000000
16.528496 -15.521292 -2.035551 1.000000
7.219082 9.323574 -0.560208 35.000000
44.637695 24.195955 -4.174357 2.000000
37.315361 2.923677 -3.828375 3.000000
25.015566 -8.863391 -2.831556 6.000000
16.294992 -15.414797 -2.001899 5.000000
7.268318 9.309719 -0.575587 15.000000
36.640659 2.735732 -3.764580 6.000000
24.971359 -8.960714 -2.821234 33.000000
16.369949 -15.599792 -1.990276 1.000000
7.318815 9.313928 -0.587628 26.000000
35.985603 2.554229 -3.696290 1.000000
24.925711 -9.047590 -2.805764 6.000000
16.407089 -15.750332 -1.985796 6.000000
7.374299 9.307386 -0.603623 28.000000
25.974495 1.747992 -2.671907 7.000000
24.818613 -9.111805 -2.788118 6.000000
16.082165 -15.552077 -1.929751 7.000000
7.443643 9.334510 -0.617341 1.000000
25.688145 1.629665 -2.641788 10.000000
24.735134 -9.184175 -2.768535 6.000000
15.904295 -15.487870 -1.891465 4.000000
7.508803 9.339067 -0.632214 1.000000
25.604116 1.530134 -2.637076 10.000000
24.459412 -9.188817 -2.723162 6.000000
15.823698 -15.522785 -1.869151 5.000000
7.566072 9.343322 -0.646912 1.000000
25.569824 1.434052 -2.632985 14.000000
24.207508 -9.195570 -2.694283 9.000000
16.083281 -15.893525 -1.886811 3.000000
7.741857 9.489073 -0.671826 1.000000
25.534714 1.338218 -2.633357 25.000000
24.021746 -9.225895 -2.663734 29.000000
15.948388 -15.876181 -1.858027 6.000000
25.475082 1.237026 -2.626698 64.000000
22.806767 -8.855322 -2.519642 7.000000
15.792171 -15.830804 -1.822680 7.000000
25.444662 1.142085 -2.623112 92.000000
15.570333 -15.723263 -1.784278 28.000000
37.000973 18.335257 -3.641871 9.000000
25.473068 1.049824 -2.630123 52.000000
24.422497 -9.689280 -2.673483 6.000000
15.601037 -15.870189 -1.774905 6.000000
36.865032 18.099901 -3.643609 9.000000
25.422239 0.949964 -2.624479 116.000000
24.459415 -9.812792 -2.676981 6.000000
15.376529 -15.756915 -1.740454 58.000000
31.094282 15.111987 -3.091555 4.000000
25.440466 0.857283 -2.626018 137.000000
24.622818 -9.983274 -2.684797 6.000000
15.413098 -15.905084 -1.723642 8.000000
30.946089 14.899999 -3.089499 3.000000
25.443436 0.764033 -2.626018 144.000000
24.439619 -10.013453 -2.659492 6.000000
15.321380 -15.926832 -1.696620 15.000000
31.061268 14.828776 -3.114240 2.000000
25.440634 0.670630 -2.629947 91.000000
24.587904 -10.179615 -2.665596 6.000000
15.288022 -16.009184 -1.679982 30.000000
30.708807 14.522544 -3.091477 34.000000
25.502686 0.574284 -2.636115 50.000000
24.703184 -10.333565 -2.668021 6.000000
15.226615 -16.062340 -1.664153 26.000000
30.651648 14.358281 -3.104232 115.000000
25.489704 0.480527 -2.634573 33.000000
24.771837 -10.469130 -2.665342 6.000000
15.233162 -16.182007 -1.647629 20.000000
30.614738 14.197902 -3.112770 109.000000
25.536049 0.387778 -2.639198 31.000000
15.277061 -16.348286 -1.635289 26.000000
24.473211 11.246071 -2.508026 21.000000
25.576109 0.299093 -2.652239 22.000000
15.421498 -16.624578 -1.637368 31.000000
24.521494 11.149256 -2.522594 29.000000
25.577103 0.196422 -2.652239 9.000000
24.648035 -10.742857 -2.622124 6.000000
15.431916 -16.752718 -1.624693 11.000000
8.508710 9.496442 -0.864785 1.000000
24.264832 10.930510 -2.496936 21.000000
25.648169 0.111912 -2.650506 9.000000
24.763443 -10.891018 -2.628696 6.000000
15.573689 -17.031473 -1.617844 9.000000
8.669842 9.611953 -0.891535 1.000000
24.207268 10.798026 -2.510260 1.000000
25.847349 0.009022 -2.671064 8.000000
29.282518 -13.019051 -3.091347 9.000000
9.651783 -10.633241 -0.996625 1.000000
24.465618 10.816136 -2.538028 1.000000
24.639343 -11.042361 -2.595104 5.000000
9.668738 -10.726922 -0.987042 6.000000
24.474878 10.702988 -2.558034 7.000000
24.899820 -11.279344 -2.612841 6.000000
15.906395 -17.765358 -1.608918 9.000000
24.088877 10.439166 -2.527932 4.000000
25.017982 -11.443564 -2.615088 14.000000
15.977984 -17.977468 -1.601730 32.000000
24.180639 10.373828 -2.547460 5.000000
35.511028 -0.502059 -3.682605 4.000000
24.895353 -11.497996 -2.597000 7.000000
15.939346 -18.060568 -1.578831 42.000000
24.432552 10.376037 -2.584005 5.000000
35.439556 -0.618600 -3.675385 9.000000
24.808681 -11.557938 -2.577484 7.000000
16.097706 -18.375315 -1.575487 9.000000
24.340721 10.231896 -2.584266 5.000000
35.740223 -0.761132 -3.706842 7.000000
24.894318 -11.709070 -2.566604 6.000000
16.260334 -18.692194 -1.576071 8.000000
24.302881 10.111337 -2.594850 7.000000
35.368000 -0.882905 -3.681031 9.000000
24.892483 -11.830470 -2.566438 6.000000
16.463301 -19.066189 -1.580436 8.000000
24.202232 9.960618 -2.593839 9.000000
34.038475 -0.974563 -3.530989 9.000000
25.054552 -12.025643 -2.573213 6.000000
16.576426 -19.340048 -1.566850 5.000000
24.195847 9.854443 -2.603080 38.000000
33.870255 -1.105838 -3.513971 9.000000
24.859571 -12.044361 -2.538255 6.000000
16.642317 -19.554655 -1.557029 4.000000
24.263680 9.778542 -2.611116 34.000000
33.702782 -1.218155 -3.491067 9.000000
24.905685 -12.168845 -2.532434 30.000000
16.845352 -19.940842 -1.555418 6.000000
24.297234 9.688699 -2.633944 35.000000
33.731655 -1.343010 -3.506455 9.000000
16.972183 -20.233831 -1.550513 8.000000
24.372940 9.615501 -2.652172 42.000000
33.651978 -1.463392 -3.498706 9.000000
17.106369 -20.546282 -1.546231 8.000000
9.309620 9.394498 -1.080399 9.000000
24.470295 9.540570 -2.672470 22.000000
34.983051 -1.655878 -3.631551 90.000000
30.714375 -15.441006 -3.080187 7.000000
17.217033 -20.826616 -1.529674 9.000000
9.325719 9.342010 -1.089883 8.000000
24.584455 9.491282 -2.690780 26.000000
34.961849 -1.783326 -3.630003 9.000000
30.526730 -15.473698 -3.048435 14.000000
17.416931 -21.226370 -1.530299 8.000000
9.389113 9.340080 -1.109767 9.000000
25.255119 9.638942 -2.783951 5.000000
35.064327 -1.917430 -3.641349 9.000000
17.617456 -21.631952 -1.525570 15.000000
9.458040 9.339928 -1.125543 5.000000
25.377773 9.579339 -2.803152 6.000000
35.236439 -2.056403 -3.653754 9.000000
9.612316 9.422939 -1.153983 1.000000
25.360085 9.466616 -2.811673 33.000000
35.471508 -2.206817 -3.678980 9.000000
25.738928 9.500695 -2.859476 11.000000
35.184639 -2.318458 -3.656304 9.000000
25.786844 -13.549880 -2.533182 10.000000
26.080481 9.518301 -2.908221 15.000000
35.175903 -2.447400 -3.656304 9.000000
25.597340 -13.570258 -2.504151 8.000000
40.136398 -50.748611 -3.277663 1.000000
36.743412 35.247978 -4.499401 1.000000
26.338268 9.503136 -2.947886 10.000000
34.967846 -2.567878 -3.635676 9.000000
33.961319 -18.164135 -3.301791 32.000000
39.908333 -50.823868 -3.216973 13.000000
36.659752 34.910610 -4.526888 1.000000
26.626509 9.491748 -2.986023 8.000000
35.162140 -2.711753 -3.650665 9.000000
33.937866 -18.327177 -3.286294 32.000000
39.705414 -50.948792 -3.147841 1.000000
36.549355 34.550926 -4.541833 1.000000
35.316189 -2.853881 -3.661470 9.000000
33.874535 -18.438330 -3.258945 34.000000
45.232258 -58.460415 -3.524580 15.000000
22.630606 7.880811 -2.560964 7.000000
35.138031 -2.956799 -3.643996 9.000000
33.807228 -18.562635 -3.252214 28.000000
45.070435 -58.652103 -3.462413 19.000000
15.509498 14.452723 -1.959170 6.000000
22.479435 7.735902 -2.553222 18.000000
35.129658 -3.104340 -3.650665 9.000000
25.686007 -14.226267 -2.455318 24.000000
15.235848 14.093740 -1.936332 1.000000
22.539736 7.664374 -2.565270 10.000000
35.033848 -3.225325 -3.641912 9.000000
25.643883 -14.326008 -2.435645 28.000000
15.106240 13.871449 -1.935052 1.000000
22.614418 7.593021 -2.587281 9.000000
34.740227 -3.326746 -3.606476 29.000000
33.693287 -18.985191 -3.186374 38.000000
15.026976 13.697486 -1.936358 4.000000
22.608641 7.498987 -2.587664 10.000000
34.639339 -3.445254 -3.591149 9.000000
33.690388 -19.146582 -3.165479 35.000000
15.098215 13.661443 -1.953417 5.000000
22.512306 7.375556 -2.581894 10.000000
33.765640 -3.489340 -3.495946 9.000000
33.634872 -19.278467 -3.139637 39.000000
15.073690 13.543856 -1.969104 6.000000
22.589485 7.309268 -2.604429 5.000000
33.227207 -3.556830 -3.453315 31.000000
33.620552 -19.434311 -3.138106 39.000000
15.024677 13.410038 -1.971075 6.000000
22.842058 7.298617 -2.643155 7.000000
30.556194 -3.373435 -3.171438 26.000000
33.550976 -19.558504 -3.110994 34.000000
15.012325 13.300479 -1.987788 6.000000
23.152517 7.299961 -2.692972 3.000000
30.642395 -3.502095 -3.176317 33.000000
33.511005 -19.700119 -3.086651 30.000000
43.012993 -59.420120 -2.856457 18.000000
15.007362 13.198219 -1.998325 8.000000
30.427383 -3.590549 -3.149968 111.000000
33.482479 -19.840942 -3.063043 39.000000
15.031831 13.122345 -2.012754 8.000000
29.994883 -3.651029 -3.101229 98.000000
33.437035 -19.979961 -3.038204 37.000000
14.947677 12.943519 -2.011945 10.000000
31.173838 9.453508 -3.653951 1.000000
30.177624 -3.785568 -3.132265 142.000000
33.385834 -20.115789 -3.026543 34.000000
15.022849 12.921689 -2.037252 22.000000
31.431183 9.399918 -3.703051 1.000000
30.202868 -3.906588 -3.131048 40.000000
33.364361 -20.269901 -3.010747 53.000000
15.055159 12.858320 -2.052997 22.000000
31.460936 9.295268 -3.714502 1.000000
30.129725 -4.009459 -3.119606 131.000000
33.287373 -20.390537 -2.983111 34.000000
15.161641 12.844365 -2.085011 29.000000
29.205961 8.501701 -3.465716 5.000000
30.114286 -4.119789 -3.124912 122.000000
33.272686 -20.549627 -2.974794 36.000000
15.241079 12.825090 -2.104135 30.000000
29.093678 8.353469 -3.448736 7.000000
29.892653 -4.201138 -3.098166 63.000000
33.270851 -20.717339 -2.953880 36.000000
15.351440 12.822144 -2.130520 29.000000
29.003719 8.207226 -3.455630 7.000000
26.731129 -3.861540 -2.767249 5.000000
27.106970 -17.017357 -2.389684 5.000000
46.140621 -67.715752 -2.517849 28.000000
15.416032 12.780466 -2.150644 21.000000
29.295589 8.173965 -3.497568 7.000000
26.594267 -3.941329 -2.749816 5.000000
26.662401 -16.874817 -2.333778 6.000000
15.522436 12.772974 -2.180238 17.000000
28.836529 7.942904 -3.460757 7.000000
28.501917 -4.330865 -2.953771 192.000000
26.483355 -16.897762 -2.312486 6.000000
15.640810 12.774526 -2.208106 24.000000
28.865648 7.831804 -3.471198 7.000000
28.609743 -4.454591 -2.956404 8.000000
26.372263 -16.963211 -2.286191 7.000000
15.740075 12.759713 -2.233397 24.000000
28.785318 7.686086 -3.468341 7.000000
29.814968 -4.759574 -3.088137 9.000000
26.235043 -17.004704 -2.252001 7.000000
15.870081 12.768996 -2.266781 24.000000
28.662069 7.540744 -3.471110 7.000000
32.885639 -5.373444 -3.402328 18.000000
26.173199 -17.101175 -2.241087 9.000000
15.965698 12.749812 -2.291801 29.000000
28.871006 7.482680 -3.503622 7.000000
32.984058 -5.513720 -3.408681 20.000000
26.128305 -17.208820 -2.220676 14.000000
49.783680 -76.572342 -2.216183 1.000000
16.092514 12.754769 -2.321426 19.000000
16.191294 4.130118 -1.965901 1.000000
32.937542 -5.636034 -3.411978 76.000000
26.045565 -17.291529 -2.197081 11.000000
49.479340 -76.718079 -2.135427 22.000000
16.234846 12.770978 -2.357100 31.000000
16.003386 4.019773 -1.947124 1.000000
32.976631 -5.767205 -3.406387 53.000000
25.941196 -17.359560 -2.182680 9.000000
16.336094 12.758565 -2.387311 36.000000
16.175745 4.000096 -1.978094 1.000000
32.964481 -5.889678 -3.413244 81.000000
25.948637 -17.502577 -2.172221 6.000000
16.454645 12.749736 -2.408508 29.000000
15.971866 3.890568 -1.957309 1.000000
27.425098 -4.993875 -2.836463 13.000000
26.015490 -17.673471 -2.160650 4.000000
17.574539 -27.875515 -0.673008 11.000000
16.615129 12.781519 -2.447702 25.000000
15.575625 3.727878 -1.918242 6.000000
25.952789 -17.776899 -2.139032 1.000000
17.433350 -27.888359 -0.631500 10.000000
16.730862 12.773211 -2.480184 30.000000
15.510893 3.652330 -1.917072 6.000000
32.736107 -22.599998 -2.683999 16.000000
17.301922 -27.894272 -0.601608 12.000000
16.858942 12.773460 -2.510930 30.000000
15.514477 3.590357 -1.921436 6.000000
30.237108 -5.866546 -3.134079 9.000000
32.670971 -22.732296 -2.657559 37.000000
17.228704 -28.004858 -0.568184 10.000000
16.998766 12.781602 -2.547349 23.000000
15.545581 3.537576 -1.934963 6.000000
30.996162 -6.131784 -3.215063 9.000000
32.641289 -22.889656 -2.647974 36.000000
17.156479 -28.084776 -0.545726 10.000000
17.130875 12.782920 -2.582816 24.000000
15.473902 3.467335 -1.933025 6.000000
31.823624 -6.410988 -3.297467 16.000000
32.627571 -23.058889 -2.632688 21.000000
17.141596 -28.281853 -0.507976 7.000000
17.283125 12.798178 -2.621533 34.000000
15.501510 3.405392 -1.945921 7.000000
33.300732 -6.835659 -3.453094 9.000000
28.939245 -20.611696 -2.322477 6.000000
17.412048 12.795101 -2.653095 20.000000
15.489299 3.343246 -1.945644 6.000000
33.567005 -7.018627 -3.489396 9.000000
28.953995 -20.782576 -2.304771 5.000000
17.697132 12.904970 -2.712594 6.000000
15.518385 3.295704 -1.959157 6.000000
33.318432 -7.094208 -3.454222 9.000000
32.468773 -23.477573 -2.569993 30.000000
17.782194 12.867433 -2.741726 8.000000
15.374474 3.203494 -1.947771 1.000000
33.329250 -7.230399 -3.464210 9.000000
35.239330 -25.659296 -2.780732 10.000000
19.713766 -33.601299 -0.448777 9.000000
17.935694 12.878613 -2.781584 8.000000
15.457689 3.161763 -1.968017 6.000000
33.210236 -7.332131 -3.454609 9.000000
35.109829 -25.781301 -2.740492 19.000000
19.576426 -33.635670 -0.414354 9.000000
18.052706 12.862614 -2.819916 6.000000
15.477213 3.106700 -1.983032 1.000000
33.004181 -7.419657 -3.465941 9.000000
35.051846 -25.918072 -2.750299 8.000000
19.473181 -33.742134 -0.380783 10.000000
18.079140 12.886206 -2.859842 6.000000
15.488038 3.108873 -2.015233 6.000000
32.489365 -7.303921 -3.464743 9.000000
35.091942 -25.957191 -2.822643 10.000000
19.425449 -33.659431 -0.427334 8.000000
17.945189 12.890178 -2.826508 6.000000
15.515759 3.173641 -2.017530 1.000000
32.364201 -7.151269 -3.460273 9.000000
35.168350 -25.814827 -2.867039 14.000000
19.547577 -33.599590 -0.474936 9.000000
17.774469 12.866570 -2.795351 7.000000
15.420918 3.215980 -2.006789 1.000000
32.328323 -7.019167 -3.488687 9.000000
35.231613 -25.672501 -2.910724 11.000000
19.722509 -33.629650 -0.537581 9.000000
17.692305 12.906180 -2.778198 8.000000
15.520616 3.296177 -2.021322 1.000000
32.254787 -6.879506 -3.495469 9.000000
32.460918 -23.471895 -2.716831 28.000000
19.910666 -33.680511 -0.587313 1.000000
17.409472 12.797886 -2.737300 9.000000
15.609541 3.374902 -2.040166 1.000000
32.371025 -6.774453 -3.528571 9.000000
28.961411 -20.787899 -2.467860 3.000000
17.274427 12.801076 -2.704714 36.000000
15.746969 3.467959 -2.056993 1.000000
32.174686 -6.610367 -3.521899 11.000000
29.088455 -20.717968 -2.503515 6.000000
17.141819 12.800403 -2.672316 29.000000
15.411777 3.447765 -2.009088 10.000000
31.680931 -6.387997 -3.476677 26.000000
32.649746 -23.091652 -2.824456 10.000000
17.172134 -28.354563 -0.624920 7.000000
17.020575 12.807302 -2.649388 27.000000
15.441336 3.519524 -2.014766 1.000000
30.698927 -6.072984 -3.371972 9.000000
32.673996 -22.912592 -2.867578 43.000000
17.153391 -28.101765 -0.660903 9.000000
16.884047 12.801760 -2.620402 31.000000
15.490520 3.593359 -2.022969 1.000000
30.441088 -5.906121 -3.357676 9.000000
32.673534 -22.742542 -2.902459 37.000000
17.195938 -27.951599 -0.698891 12.000000
16.739876 12.789345 -2.590354 21.000000
15.472763 3.649053 -2.019564 1.000000
28.405415 -5.398073 -3.151254 8.000000
32.759098 -22.624311 -2.930617 13.000000
17.350437 -27.972488 -0.746980 10.000000
16.599577 12.778780 -2.564740 32.000000
15.468285 3.710751 -2.020824 1.000000
17.418404 -27.864449 -0.780145 14.000000
16.464186 12.770931 -2.532583 27.000000
16.063852 3.910005 -2.094449 1.000000
27.375446 -5.004582 -3.042871 9.000000
25.982479 -17.677568 -2.368439 5.000000
17.557671 -27.870317 -0.822288 9.000000
16.348257 12.777254 -2.507239 24.000000
15.860946 3.928125 -2.064238 1.000000
31.253416 -5.583966 -3.493832 34.000000
25.903452 -17.478678 -2.388013 6.000000
16.217224 12.770865 -2.476030 27.000000
31.146736 -5.441578 -3.485130 38.000000
26.011166 -17.412958 -2.419520 7.000000
16.078316 12.757228 -2.447410 29.000000
15.660090 3.997529 -2.036037 1.000000
31.113825 -5.329563 -3.496181 36.000000
26.013739 -17.290031 -2.430866 10.000000
49.594501 -76.896637 -2.619828 7.000000
15.979801 12.779355 -2.429001 30.000000
15.595900 4.047897 -2.029787 1.000000
29.761368 -4.975005 -3.352600 19.000000
26.080435 -17.183821 -2.469026 10.000000
49.795479 -76.619743 -2.728037 13.000000
15.841698 12.764389 -2.397101 26.000000
15.783855 4.155542 -2.050337 1.000000
29.625101 -4.851296 -3.340723 49.000000
26.187687 -17.117167 -2.495202 10.000000
15.738594 12.776731 -2.370636 29.000000
15.644589 4.180251 -2.028482 1.000000
29.662560 -4.740553 -3.348178 160.000000
26.273306 -17.055567 -2.520251 7.000000
15.623419 12.778516 -2.349614 34.000000
28.532965 -4.452838 -3.244327 222.000000
26.304453 -16.939070 -2.544748 4.000000
15.486059 12.761183 -2.318228 26.000000
25.847736 7.124506 -3.349071 7.000000
28.514149 -4.342907 -3.245454 195.000000
26.579615 -16.965708 -2.603541 1.000000
15.371939 12.762030 -2.290465 26.000000
25.631439 7.166072 -3.314991 7.000000
26.583132 -3.949162 -3.028749 6.000000
26.749531 -16.936502 -2.636342 2.000000
48.196247 -71.346382 -3.081903 6.000000
15.260222 12.759526 -2.262857 28.000000
25.954592 7.359089 -3.350689 7.000000
26.646744 -3.854098 -3.039048 7.000000
27.012392 -16.964558 -2.678528 7.000000
46.047848 -67.655708 -3.015220 26.000000
15.132236 12.751556 -2.240627 33.000000
25.785681 7.408538 -3.332201 7.000000
29.646461 -4.177092 -3.384687 99.000000
33.213634 -20.697803 -3.313769 36.000000
15.020927 12.747689 -2.213310 27.000000
25.766375 7.515092 -3.324065 7.000000
29.669657 -4.069513 -3.401491 56.000000
33.062202 -20.435579 -3.325330 38.000000
14.930243 12.765160 -2.189470 30.000000
26.331202 7.779667 -3.390684 7.000000
29.417870 -3.925182 -3.376200 111.000000
33.076851 -20.293350 -3.347308 28.000000
14.843092 12.785112 -2.169702 26.000000
26.131939 7.825046 -3.363862 7.000000
29.368093 -3.803825 -3.374022 123.000000
33.322033 -20.260113 -3.391293 33.000000
14.752511 12.801577 -2.146052 31.000000
26.265667 7.970106 -3.375087 7.000000
29.355436 -3.692839 -3.386684 114.000000
33.030457 -19.917383 -3.394866 29.000000
14.714380 12.863333 -2.130090 9.000000
29.461876 -3.596587 -3.402668 95.000000
32.803680 -19.632599 -3.391746 31.000000
43.190140 -60.639847 -3.263510 15.000000
14.646912 12.890290 -2.109272 9.000000
30.027376 -3.548660 -3.471727 26.000000
32.775383 -19.452864 -3.401540 17.000000
43.381721 -60.461082 -3.353113 11.000000
14.581545 12.937001 -2.090112 25.000000
23.089388 7.297782 -2.956098 7.000000
29.921137 -3.424954 -3.463295 8.000000
32.734737 -19.251465 -3.422681 93.000000
42.008865 -58.096989 -3.305754 9.000000
14.535670 12.982700 -2.079374 26.000000
22.725653 7.265795 -2.904146 6.000000
30.283415 -3.354020 -3.509170 8.000000
32.629120 -19.044004 -3.424959 87.000000
42.076668 -57.765030 -3.382704 1.000000
14.493295 13.040664 -2.059489 10.000000
30.838169 -3.301093 -3.577512 9.000000
32.630939 -18.885071 -3.457671 40.000000
35.256039 -48.047993 -2.883418 9.000000
14.505678 13.148335 -2.050809 8.000000
22.168205 7.271390 -2.819144 32.000000
30.780201 -3.175395 -3.580292 9.000000
32.651905 -18.745356 -3.472819 103.000000
14.534867 13.281466 -2.045088 9.000000
22.165892 7.360723 -2.813990 34.000000
31.127094 -3.095924 -3.624830 9.000000
32.653381 -18.587412 -3.492162 24.000000
14.503034 13.340896 -2.029442 9.000000
22.170868 7.457014 -2.814094 71.000000
31.127714 -2.980809 -3.629137 9.000000
32.762512 -18.490871 -3.523054 10.000000
39.355846 -52.436123 -3.390085 25.000000
14.475916 13.409539 -2.014784 9.000000
22.158413 7.543339 -2.807715 34.000000
31.099361 -2.857630 -3.624526 9.000000
25.590736 -14.319769 -2.766842 32.000000
14.493159 13.524551 -2.010087 7.000000
22.132006 7.624982 -2.795459 24.000000
31.221821 -2.764504 -3.643254 9.000000
25.627871 -14.217457 -2.791010 24.000000
14.546514 13.674425 -2.003304 7.000000
22.161087 7.725982 -2.794382 22.000000
31.210970 -2.637316 -3.657346 9.000000
25.621401 -14.091308 -2.805262 7.000000
14.551750 13.780162 -1.993304 6.000000
22.474436 7.932138 -2.825057 6.000000
31.165535 -2.523944 -3.650967 9.000000
25.632256 -13.975159 -2.816252 9.000000
14.657216 13.982288 -1.996907 6.000000
31.135164 -2.395720 -3.651778 9.000000
25.493315 -13.778433 -2.815839 6.000000
14.754232 14.178490 -1.999162 6.000000
31.237043 -2.299387 -3.662812 9.000000
25.616909 -13.724155 -2.839276 6.000000
39.835957 -50.786423 -3.755599 18.000000
14.756217 14.279806 -1.984466 6.000000
31.042643 -2.154380 -3.644432 9.000000
25.519377 -13.551759 -2.853492 8.000000
9.569306 9.328518 -1.279732 9.000000
31.099169 -2.054701 -3.650249 9.000000
25.532766 -13.439129 -2.859633 7.000000
9.475312 9.304864 -1.262359 9.000000
31.045105 -1.936873 -3.659556 9.000000
25.438477 -13.270661 -2.868893 6.000000
38.127068 -47.539326 -3.748591 23.000000
9.388994 9.287941 -1.241432 9.000000
25.282053 9.558335 -3.136875 1.000000
30.953167 -1.811851 -3.647872 9.000000
25.295584 -13.078396 -2.862412 6.000000
38.302834 -47.418396 -3.813653 1.000000
9.316862 9.284397 -1.224807 8.000000
25.109196 9.598313 -3.105508 1.000000
31.082918 -1.705155 -3.667911 9.000000
25.270727 -12.948385 -2.874235 7.000000
17.609890 -21.638083 -1.779656 10.000000
9.253938 9.292783 -1.207365 5.000000
24.662504 9.531307 -3.045209 6.000000
26.050919 -1.324241 -3.073462 137.000000
25.289654 -12.830173 -2.890509 6.000000
17.440575 -21.277893 -1.783957 9.000000
9.216805 9.317083 -1.195012 3.000000
24.539301 9.592152 -3.020544 7.000000
26.040503 -1.232594 -3.071707 136.000000
25.184080 -12.671781 -2.888539 6.000000
17.272627 -20.916157 -1.787453 9.000000
9.190299 9.358649 -1.184474 1.000000
24.408422 9.644272 -2.994843 27.000000
25.134619 -12.531658 -2.902347 7.000000
17.108261 -20.570446 -1.791144 9.000000
24.319000 9.712138 -2.974330 32.000000
29.700024 -1.187684 -3.507519 8.000000
25.000664 -12.350669 -2.896390 31.000000
16.935631 -20.211739 -1.793042 10.000000
24.257036 9.790631 -2.957248 35.000000
29.684519 -1.072918 -3.505175 8.000000
24.916538 -12.190312 -2.900775 22.000000
16.792740 -19.899689 -1.793378 9.000000
24.152937 9.851714 -2.939718 23.000000
29.647936 -0.962803 -3.505665 8.000000
16.664034 -19.600958 -1.799019 9.000000
24.143436 9.956136 -2.933961 7.000000
30.837517 -0.888302 -3.645915 9.000000
16.494326 -19.264668 -1.800117 9.000000
24.057745 10.024127 -2.914175 1.000000
31.117662 -0.765934 -3.689642 9.000000
24.968594 -11.877328 -2.935370 8.000000
16.348600 -18.953405 -1.802966 9.000000
23.907280 10.064428 -2.891231 4.000000
31.194494 -0.664325 -3.698471 7.000000
24.933641 -11.748831 -2.945640 8.000000
16.249905 -18.713158 -1.811318 9.000000
24.095703 10.247878 -2.904661 7.000000
31.127214 -0.548762 -3.690231 7.000000
24.858009 -11.602045 -2.946190 7.000000
16.070604 -18.363770 -1.813435 9.000000
24.009148 10.315144 -2.884915 68.000000
31.064550 -0.428348 -3.682580 8.000000
24.849325 -11.487264 -2.954651 7.000000
15.968381 -18.112572 -1.819824 23.000000
24.004477 10.417522 -2.875055 64.000000
31.046053 -0.314287 -3.680226 7.000000
24.839195 -11.372272 -2.972590 8.000000
15.954316 -17.969780 -1.832153 40.000000
24.025305 10.536371 -2.863839 70.000000
31.260496 -0.201874 -3.705533 6.000000
24.748011 -11.220987 -2.971133 7.000000
15.849961 -17.733444 -1.834284 9.000000
24.174234 10.707499 -2.872243 7.000000
25.903030 -0.067814 -3.075005 7.000000
24.734087 -11.105563 -2.969344 6.000000
9.599501 -10.661325 -1.121515 6.000000
24.213341 10.831151 -2.867535 7.000000
25.660353 0.017914 -3.041645 16.000000
24.661345 -10.969625 -2.979835 6.000000
9.642559 -10.634262 -1.137327 3.000000
24.160528 10.903821 -2.851506 7.000000
25.565775 0.111552 -3.030462 30.000000
24.686310 -10.872523 -2.992313 6.000000
15.448725 -16.912582 -1.838973 8.000000
24.248428 11.050645 -2.852528 25.000000
25.510578 0.204816 -3.023988 34.000000
24.606125 -10.729700 -2.992036 7.000000
15.377909 -16.711637 -1.843188 11.000000
24.312998 11.187872 -2.850755 10.000000
25.405342 0.301531 -3.011629 107.000000
24.534353 -10.591553 -2.992735 6.000000
15.265256 -16.473438 -1.850404 16.000000
31.961414 14.849558 -3.735245 1.000000
25.428888 0.395030 -3.014571 8.000000
24.521309 -10.479464 -3.000577 6.000000
15.205639 -16.288942 -1.851591 28.000000
31.935549 14.980100 -3.719938 1.000000
25.387556 0.487466 -3.009863 132.000000
24.448286 -10.342449 -3.001059 6.000000
15.185399 -16.148201 -1.865282 9.000000
31.637619 14.975306 -3.672770 6.000000
25.390663 0.576195 -3.010452 30.000000
24.493740 -10.256001 -3.016087 6.000000
15.186990 -16.048567 -1.878695 39.000000
31.454699 15.030086 -3.633302 6.000000
25.388380 0.669252 -3.010452 32.000000
24.417793 -10.124168 -3.016385 6.000000
15.275049 -16.023573 -1.909556 38.000000
25.381050 0.771027 -3.005431 39.000000
24.341867 -9.978364 -3.015988 6.000000
15.272280 -15.892437 -1.924474 90.000000
25.343166 0.867289 -3.001317 39.000000
24.284750 -9.851142 -3.018321 7.000000
15.347504 -15.859535 -1.942491 9.000000
25.374550 0.961486 -3.005431 35.000000
24.240866 -9.730024 -3.022272 6.000000
15.463200 -15.862337 -1.973143 5.000000
32.169636 15.955152 -3.660162 8.000000
25.376183 1.045831 -3.006019 27.000000
24.150751 -9.591226 -3.015827 6.000000
15.701462 -15.989084 -2.015767 2.000000
31.965275 16.013996 -3.618978 9.000000
25.382425 1.143731 -3.002760 35.000000
24.093473 -9.461538 -3.017852 5.000000
15.499846 -15.673956 -2.010000 4.000000
31.743790 16.048851 -3.581723 8.000000
25.397900 1.237721 -3.005107 185.000000
22.899820 -8.896051 -2.877275 6.000000
15.851112 -15.912093 -2.067739 6.000000
31.545158 16.093870 -3.540971 8.000000
25.403635 1.331348 -3.001841 8.000000
23.983076 -9.215847 -3.022756 32.000000
15.745565 -15.690700 -2.069933 5.000000
31.434517 16.182899 -3.516489 8.000000
25.408251 1.429439 -3.003013 118.000000
24.182802 -9.191015 -3.052819 13.000000
15.939702 -15.768144 -2.107580 6.000000
31.355087 16.287664 -3.489349 8.000000
25.516844 1.529388 -3.016490 28.000000
24.516933 -9.215310 -3.104620 6.000000
16.070919 -15.781823 -2.133132 8.000000
31.963745 16.738667 -3.544166 8.000000
25.595837 1.628294 -3.021975 29.000000
24.599123 -9.148333 -3.120256 6.000000
16.139914 -15.750281 -2.163514 8.000000
31.567461 16.692953 -3.495042 8.000000
25.672564 1.732175 -3.040903 10.000000
24.744925 -9.089652 -3.157429 6.000000
16.144436 -15.628662 -2.175483 6.000000
7.365591 9.383563 -0.706629 1.000000
24.866215 -9.030907 -3.173344 7.000000
16.228661 -15.595383 -2.202909 8.000000
7.253539 9.307523 -0.684526 1.000000
24.958841 -8.961140 -3.190342 31.000000
16.349403 -15.596555 -2.227451 8.000000
7.216685 9.330566 -0.673943 1.000000
31.361704 2.468220 -3.695545 6.000000
16.517628 -15.647270 -2.266975 2.000000
7.205781 9.383971 -0.663550 1.000000
33.067253 18.096292 -3.583149 8.000000
31.402580 2.587280 -3.695880 7.000000
27.856667 -9.766184 -3.577421 6.000000
7.208068 9.458517 -0.654457 1.000000
33.815666 18.682655 -3.645130 9.000000
31.569708 2.717580 -3.727910 7.000000
27.790833 -9.628871 -3.590456 6.000000
7.057936 9.328879 -0.631492 1.000000
34.551117 19.238804 -3.710374 9.000000
31.674742 2.849186 -3.724696 7.000000
28.091906 -9.623487 -3.624991 6.000000
7.003104 9.327258 -0.617391 1.000000
34.161407 19.186171 -3.648459 9.000000
31.565842 2.956060 -3.707530 5.000000
27.898947 -9.443273 -3.616472 6.000000
6.932217 9.300282 -0.597760 18.000000
34.443962 19.511271 -3.658374 7.000000
31.510952 3.067467 -3.696778 5.000000
27.786873 -9.291965 -3.602697 6.000000
6.882257 9.300838 -0.584100 17.000000
28.012737 -9.253481 -3.638014 6.000000
6.809997 9.274079 -0.570782 35.000000
24.752731 -22.279636 -3.535535 6.000000
6.766221 9.282207 -0.555758 14.000000
32.562233 3.537390 -3.812920 1.000000
24.717447 -22.084427 -3.542313 13.000000
6.758836 9.343832 -0.545857 16.000000
31.946951 3.594717 -3.736774 2.000000
18.965448 -6.030770 -2.478828 6.000000
24.509527 -21.737637 -3.529991 4.000000
6.738217 9.384130 -0.532688 1.000000
31.583933 3.671145 -3.690238 2.000000
18.774204 -5.890677 -2.461320 105.000000
24.571321 -21.632065 -3.562132 8.000000
6.728932 9.440583 -0.522391 1.000000
44.014359 26.227411 -4.518626 5.000000
31.842775 3.819569 -3.710746 6.000000
18.638458 -5.773131 -2.447651 32.000000
24.289278 -21.226242 -3.532730 12.000000
6.746515 9.539032 -0.514207 1.000000
43.839512 26.341436 -4.474576 8.000000
31.936966 3.955319 -3.717772 2.000000
18.639700 -5.698728 -2.451966 53.000000
24.357063 -21.128531 -3.559781 9.000000
6.762277 9.632464 -0.505620 1.000000
43.536568 26.377071 -4.417686 8.000000
31.967369 4.066763 -3.728561 6.000000
18.735626 -5.653051 -2.468782 34.000000
24.417105 -21.039124 -3.586812 6.000000
43.417091 26.512308 -4.379146 7.000000
31.919704 4.179640 -3.707683 4.000000
18.885155 -5.619144 -2.489118 35.000000
23.951281 -20.470789 -3.534122 9.000000
43.093136 26.531813 -4.320661 1.000000
32.431557 4.367628 -3.763185 3.000000
18.870636 -5.539618 -2.498462 92.000000
24.058334 -20.424618 -3.567795 8.000000
42.995193 26.689327 -4.267244 1.000000
18.795527 -5.442823 -2.485859 109.000000
23.662737 -19.925875 -3.524582 10.000000
32.369659 4.606884 -3.748345 1.000000
18.762987 -5.355401 -2.485739 39.000000
22.659449 -18.952959 -3.391878 32.000000
32.497044 4.746599 -3.747664 1.000000
18.795977 -5.290390 -2.494451 10.000000
22.834402 -18.957485 -3.423388 10.000000
46.112347 29.331568 -4.493098 4.000000
32.985909 4.947435 -3.794410 3.000000
26.345892 -7.311315 -3.502536 6.000000
22.932077 -18.897024 -3.453904 10.000000
30.833649 19.772060 -2.985669 22.000000
32.569180 5.007057 -3.754385 7.000000
26.401295 -7.217624 -3.515902 6.000000
22.947363 -18.762142 -3.482038 10.000000
45.692051 29.536892 -4.396650 29.000000
26.220488 -7.065013 -3.497988 6.000000
22.864801 -18.561850 -3.475291 10.000000
42.355289 27.590004 -4.040421 4.000000
26.197100 -6.955823 -3.501062 6.000000
22.764061 -18.342058 -3.475608 9.000000
45.239418 29.705441 -4.287882 31.000000
26.025740 -6.803455 -3.484191 6.000000
22.600479 -18.074039 -3.460985 9.000000
45.212936 29.925789 -4.238609 41.000000
16.573696 2.800256 -1.894298 1.000000
26.093716 -6.719149 -3.489971 6.000000
22.806850 -18.095938 -3.512850 10.000000
46.461140 72.509766 -2.525835 38.000000
44.951962 29.990570 -4.186466 33.000000
16.657328 2.877220 -1.896087 1.000000
25.993172 -6.586939 -3.482633 6.000000
22.482416 -17.710985 -3.468540 9.000000
23.347498 36.718903 -1.215429 11.000000
44.701668 30.049599 -4.116160 29.000000
16.808474 2.966812 -1.911500 1.000000
25.919746 -6.467324 -3.479079 6.000000
22.553087 -17.633085 -3.489730 9.000000
23.120102 36.657322 -1.165158 9.000000
44.411987 30.091789 -4.061945 24.000000
16.553751 2.987439 -1.871933 1.000000
25.976982 -6.380558 -3.483598 6.000000
22.242672 -17.259405 -3.456824 9.000000
23.090857 36.895752 -1.116955 11.000000
44.220795 30.199322 -4.026357 27.000000
16.244265 2.993104 -1.841082 1.000000
26.042887 -6.290815 -3.503439 6.000000
22.232618 -17.121422 -3.470345 8.000000
22.849142 36.794510 -1.066083 10.000000
44.018799 30.298548 -3.961777 31.000000
16.311640 3.067376 -1.847048 1.000000
25.872831 -6.149464 -3.477507 6.000000
21.997623 -16.812370 -3.443649 8.000000
48.341606 78.516739 -2.140731 194.000000
43.705971 30.319910 -3.887592 22.000000
25.962782 -6.070396 -3.486583 6.000000
22.065081 -16.736172 -3.464218 8.000000
48.178566 78.836304 -2.048274 126.000000
43.560101 30.444494 -3.865396 28.000000
25.896557 -5.950134 -3.493464 6.000000
21.573408 -16.239027 -3.396806 9.000000
26.718922 44.066093 -1.079477 17.000000
43.312881 30.508614 -3.797587 31.000000
25.975620 -5.868152 -3.505933 6.000000
21.479389 -16.045259 -3.396489 9.000000
26.483047 44.022964 -1.022327 16.000000
43.260395 30.709486 -3.756296 24.000000
25.954405 -5.758706 -3.500059 6.000000
21.511755 -15.946932 -3.416089 9.000000
26.524637 44.442570 -0.957623 17.000000
43.219692 30.919445 -3.706653 9.000000
25.993513 -5.667502 -3.511957 6.000000
21.085232 -15.511316 -3.353235 35.000000
26.346992 44.497139 -0.893613 17.000000
42.931484 30.940386 -3.654053 13.000000
25.965042 -5.561683 -3.510048 6.000000
21.095985 -15.400383 -3.364482 17.000000
26.024710 44.322594 -0.834347 16.000000
42.727528 31.031971 -3.600049 13.000000
25.903742 -5.444611 -3.498909 6.000000
21.028080 -15.227386 -3.367337 9.000000
11.809141 20.273855 -0.348098 7.000000
42.494743 31.101452 -3.553084 9.000000
17.539885 3.840351 -1.941067 1.000000
25.898054 -5.344376 -3.504864 6.000000
20.933338 -15.042130 -3.357040 14.000000
25.575521 44.262413 -0.704894 13.000000
42.236301 31.139290 -3.485344 13.000000
17.377281 3.865180 -1.918194 1.000000
25.773235 -5.215523 -3.480566 7.000000
20.950085 -14.938034 -3.369192 9.000000
11.871573 20.712166 -0.295848 7.000000
41.948093 31.164766 -3.425162 9.000000
25.781260 -5.118857 -3.488429 9.000000
20.898037 -14.785686 -3.365718 9.000000
11.737617 20.645161 -0.261140 6.000000
41.448986 31.030376 -3.339222 33.000000
25.849098 -5.033920 -3.490411 10.000000
20.719391 -14.545630 -3.341823 9.000000
41.223667 31.086826 -3.275502 26.000000
25.959541 -4.952047 -3.512118 6.000000
20.650663 -14.379327 -3.344153 9.000000
41.016354 31.166969 -3.222951 26.000000
16.654678 3.964633 -1.805434 1.000000
25.909910 -4.844227 -3.498296 6.000000
20.811392 -14.378271 -3.379598 9.000000
24.526337 44.228477 -0.361904 16.000000
40.815723 31.239855 -3.143695 26.000000
16.573286 4.009500 -1.789165 1.000000
25.889315 -4.737567 -3.493034 6.000000
40.758438 31.196009 -3.094326 28.000000
16.566032 4.007745 -1.764325 1.000000
26.267895 -4.816322 -3.506401 6.000000
20.963522 -14.370151 -3.382182 9.000000
41.042103 31.175238 -3.134251 36.000000
16.765156 3.987840 -1.783888 1.000000
26.472025 -4.949323 -3.521591 6.000000
21.093058 -14.572870 -3.384356 9.000000
11.604378 20.577654 -0.197918 1.000000
41.255283 31.099377 -3.150855 28.000000
16.465189 3.852781 -1.747473 1.000000
26.546885 -5.073694 -3.515041 6.000000
21.327686 -14.850747 -3.398413 9.000000
11.635138 20.456598 -0.217701 2.000000
41.467567 31.021702 -3.185580 28.000000
16.551899 3.809138 -1.755183 1.000000
26.668001 -5.188565 -3.518872 6.000000
21.491127 -15.081813 -3.405281 9.000000
11.768508 20.524046 -0.247762 4.000000
42.024933 31.187714 -3.265019 11.000000
16.691271 3.776849 -1.774519 1.000000
26.808336 -5.332510 -3.525755 6.000000
21.551004 -15.242025 -3.404861 9.000000
11.834960 20.473988 -0.268295 6.000000
42.234741 31.126759 -3.310055 13.000000
16.618561 3.693377 -1.762266 1.000000
26.781990 -5.419657 -3.514938 6.000000
11.840760 20.319984 -0.291449 8.000000
42.540936 31.112459 -3.343563 12.000000
16.855495 3.681256 -1.785948 1.000000
27.043522 -5.585679 -3.537479 6.000000
11.882041 20.220093 -0.319296 5.000000
42.797684 31.060114 -3.401108 13.000000
27.061905 -5.697905 -3.532908 6.000000
26.338093 44.464405 -0.748695 17.000000
42.979969 30.941151 -3.433973 11.000000
16.935263 3.565732 -1.800673 1.000000
27.057196 -5.800560 -3.520320 6.000000
21.246996 -15.499257 -3.294418 33.000000
26.567049 44.495983 -0.805065 17.000000
43.332024 30.976950 -3.491219 13.000000
16.617044 3.435176 -1.765487 1.000000
27.149450 -5.919537 -3.525134 6.000000
21.260778 -15.629023 -3.277353 9.000000
26.430389 43.918072 -0.858913 16.000000
43.262226 30.665382 -3.522126 29.000000
16.628616 3.374064 -1.774372 1.000000
27.373020 -6.083491 -3.552332 6.000000
23.174479 -17.167000 -3.566692 9.000000
26.650345 43.918411 -0.914637 16.000000
43.325951 30.495199 -3.537639 32.000000
16.562838 3.297558 -1.766051 1.000000
27.361425 -6.186239 -3.543797 6.000000
23.241648 -17.349045 -3.555960 10.000000
43.545826 30.411896 -3.583714 27.000000
16.819725 3.281611 -1.789062 1.000000
27.438166 -6.304342 -3.541590 6.000000
23.295898 -17.522867 -3.543082 10.000000
48.401737 78.522285 -1.851652 149.000000
43.827812 30.359135 -3.644042 36.000000
16.752878 3.204874 -1.786709 1.000000
27.549097 -6.446366 -3.549188 6.000000
23.384304 -17.723936 -3.540402 10.000000
22.906107 36.857533 -0.909006 11.000000
44.049438 30.296986 -3.691596 29.000000
16.690891 3.129646 -1.781860 1.000000
27.429956 -6.524620 -3.526899 6.000000
23.538631 -17.977123 -3.547499 10.000000
23.076561 36.844307 -0.956208 11.000000
44.274479 30.213327 -3.719950 27.000000
16.941902 3.112478 -1.807427 1.000000
27.592077 -6.665032 -3.535620 6.000000
23.647669 -18.198011 -3.552831 9.000000
23.199055 36.754063 -1.009089 9.000000
44.547421 30.160873 -3.780746 23.000000
16.668509 3.002141 -1.780120 1.000000
27.785511 -6.819634 -3.553444 6.000000
23.575890 -18.280745 -3.520410 9.000000
23.451105 36.853428 -1.059940 11.000000
44.750687 30.059879 -3.826444 30.000000
27.727825 -6.913324 -3.539155 6.000000
23.847689 -18.631855 -3.544394 8.000000
23.498047 36.644161 -1.101888 8.000000
44.966232 29.966076 -3.873374 31.000000
17.007956 2.934727 -1.820116 1.000000
27.784046 -7.040765 -3.539598 6.000000
23.762146 -18.705681 -3.515096 7.000000
46.037762 71.245316 -2.236050 1.000000
45.232140 29.904453 -3.915351 28.000000
17.151358 2.888620 -1.840346 1.000000
27.954981 -7.203629 -3.544570 6.000000
25.217426 -20.001421 -3.712729 6.000000
46.197376 70.947807 -2.335270 20.000000
45.283348 29.711670 -3.958295 14.000000
27.876768 -7.292536 -3.527809 9.000000
24.823881 -19.837934 -3.642990 4.000000
45.565727 29.658613 -4.002069 7.000000
27.703030 -7.350501 -3.503971 28.000000
25.176250 -20.271179 -3.665577 6.000000
45.742977 29.535866 -4.046323 28.000000
27.701046 -7.458757 -3.496991 34.000000
25.204090 -20.446314 -3.657569 9.000000
52.627213 78.941017 -2.915274 1.000000
30.859591 19.765900 -2.749072 28.000000
27.722578 -7.573638 -3.493009 90.000000
25.223780 -20.616034 -3.642580 10.000000
52.931366 78.799889 -3.016373 1.000000
46.216175 29.340992 -4.144996 29.000000
27.817310 -7.724881 -3.488541 8.000000
25.189285 -20.757061 -3.620765 12.000000
53.120281 78.487831 -3.110858 1.000000
46.572262 29.350826 -4.206834 15.000000
34.875801 5.087830 -3.760379 3.000000
18.808823 -5.290464 -2.354063 14.000000
25.264259 -20.959898 -3.612517 7.000000
46.798733 29.265814 -4.256799 15.000000
33.239700 4.724791 -3.588006 4.000000
18.751902 -5.348698 -2.342472 35.000000
22.550579 -18.848522 -3.208390 33.000000
47.027267 29.169506 -4.287265 15.000000
33.277916 4.599934 -3.584268 3.000000
18.650940 -5.397426 -2.325556 10.000000
25.271099 -21.280241 -3.571521 6.000000
47.275658 29.084179 -4.339148 15.000000
34.352024 4.620158 -3.716465 6.000000
18.641336 -5.468771 -2.319964 38.000000
25.410915 -21.557650 -3.578889 4.000000
47.511246 28.989609 -4.390085 15.000000
35.112427 4.591470 -3.803137 3.000000
18.653708 -5.553823 -2.313924 59.000000
47.832024 28.945286 -4.449169 13.000000
35.123432 4.462036 -3.808783 5.000000
18.688255 -5.631641 -2.313604 39.000000
7.165733 10.120528 -0.485050 1.000000
48.204342 28.929750 -4.513407 4.000000
35.139648 4.327058 -3.814962 1.000000
18.672012 -5.705044 -2.307378 35.000000
7.145596 10.017756 -0.494223 1.000000
45.647858 27.168409 -4.302016 1.000000
34.454983 4.114607 -3.732842 1.000000
18.665976 -5.778085 -2.302317 40.000000
7.155715 9.954564 -0.505256 1.000000
44.972038 26.543447 -4.265826 12.000000
33.832146 3.914513 -3.669798 1.000000
28.325905 -8.882230 -3.487288 20.000000
6.943988 9.589220 -0.500359 1.000000
44.885815 26.271208 -4.285038 12.000000
34.537262 3.867871 -3.750856 7.000000
28.284435 -8.988654 -3.465403 30.000000
6.912650 9.469191 -0.509827 1.000000
45.027260 26.132898 -4.316814 7.000000
34.719902 3.753395 -3.769098 7.000000
28.257757 -9.094339 -3.450440 10.000000
28.932377 -25.841284 -3.919873 6.000000
6.928900 9.425657 -0.520992 1.000000
44.731445 25.742504 -4.315660 1.000000
34.826706 3.635854 -3.785403 8.000000
28.357601 -9.241310 -3.456193 21.000000
29.176556 -26.252254 -3.931368 5.000000
6.926052 9.346369 -0.530282 8.000000
44.775272 25.549723 -4.347069 1.000000
34.408848 3.464789 -3.744686 4.000000
28.288406 -9.344543 -3.441766 30.000000
6.965633 9.334908 -0.543163 16.000000
34.520199 3.342160 -3.761504 4.000000
28.516432 -9.530397 -3.457583 29.000000
6.997830 9.310078 -0.555359 32.000000
33.458187 3.115602 -3.644514 1.000000
28.468336 -9.630462 -3.445379 10.000000
16.737307 -15.390741 -2.209440 1.000000
7.049642 9.307784 -0.569016 21.000000
33.566719 3.013466 -3.661178 1.000000
28.527977 -9.767310 -3.446243 22.000000
16.645401 -15.419208 -2.188764 3.000000
7.124192 9.338306 -0.582673 14.000000
34.572323 2.976051 -3.775774 3.000000
28.620432 -9.916307 -3.445713 28.000000
16.521299 -15.417147 -2.155979 1.000000
7.174777 9.330105 -0.598292 10.000000
35.060081 2.870143 -3.827697 3.000000
28.714544 -10.072573 -3.450916 29.000000
7.217712 9.315086 -0.611394 1.000000
34.261959 2.678425 -3.745534 7.000000
28.754047 -10.204940 -3.443955 19.000000
16.409378 -15.533862 -2.120014 3.000000
7.305081 9.360175 -0.628491 1.000000
34.216370 2.548720 -3.745564 8.000000
25.006086 -8.987958 -2.989955 26.000000
16.438797 -15.687314 -2.103931 2.000000
7.375772 9.386412 -0.644429 1.000000
34.363884 2.439121 -3.760756 8.000000
24.856178 -9.027262 -2.961573 8.000000
16.280283 -15.639525 -2.070402 6.000000
37.366528 19.726145 -3.808215 8.000000
25.891771 1.742425 -2.837440 9.000000
28.816614 -10.585322 -3.427202 10.000000
16.134430 -15.613523 -2.043312 1.000000
36.020515 18.847082 -3.685431 2.000000
25.680298 1.624667 -2.813528 40.000000
28.861282 -10.727681 -3.421066 12.000000
16.085497 -15.680743 -2.024615 6.000000
35.998653 18.667900 -3.704714 8.000000
25.571474 1.523704 -2.805499 32.000000
29.042082 -10.916202 -3.430772 9.000000
15.993072 -15.699897 -1.996210 4.000000
35.321121 18.152590 -3.649084 9.000000
25.541901 1.432486 -2.801689 35.000000
24.162193 -9.183183 -2.849129 16.000000
16.160017 -15.980507 -2.000358 2.000000
35.198811 17.926952 -3.657447 9.000000
25.501820 1.336494 -2.801247 39.000000
24.027695 -9.232992 -2.823600 57.000000
15.852252 -15.791500 -1.945802 5.000000
35.025276 17.692541 -3.654022 9.000000
25.481726 1.241806 -2.798521 34.000000
22.859947 -8.880562 -2.677185 7.000000
15.858754 -15.914207 -1.933994 6.000000
34.818249 17.412884 -3.645664 9.000000
25.461481 1.142840 -2.795795 47.000000
29.289597 -11.507963 -3.424212 7.000000
15.565997 -15.729862 -1.885523 7.000000
34.808186 17.248655 -3.665326 9.000000
25.460047 1.049287 -2.799697 42.000000
29.216545 -11.603055 -3.403966 10.000000
15.592954 -15.873046 -1.880177 4.000000
34.958805 17.163986 -3.695112 9.000000
25.389551 0.944305 -2.791506 99.000000
29.304649 -11.762573 -3.402505 9.000000
15.370959 -15.773221 -1.830061 38.000000
30.873985 15.018248 -3.287744 1.000000
25.381784 0.855305 -2.799279 107.000000
29.267591 -11.872438 -3.386503 10.000000
15.308834 -15.814053 -1.817295 131.000000
30.990555 14.934736 -3.306425 1.000000
25.405594 0.762897 -2.792598 104.000000
24.426981 -10.013254 -2.821311 6.000000
15.237798 -15.851018 -1.788376 65.000000
30.821524 14.707717 -3.300389 1.000000
25.407734 0.669762 -2.797035 57.000000
15.297441 -16.030249 -1.786689 22.000000
30.603703 14.466304 -3.289255 102.000000
25.474812 0.569207 -2.804145 38.000000
15.220541 -16.078398 -1.761898 26.000000
30.596373 14.325876 -3.300659 112.000000
25.481613 0.480374 -2.804692 27.000000
15.225646 -16.185339 -1.748853 9.000000
30.624002 14.202198 -3.321795 111.000000
25.498108 0.387202 -2.806332 30.000000
24.724684 -10.566379 -2.816542 6.000000
15.249326 -16.330029 -1.730972 24.000000
24.330517 11.175357 -2.648834 27.000000
25.549053 0.294317 -2.811802 31.000000
15.329555 -16.537037 -1.723194 32.000000
24.224279 11.019223 -2.656307 32.000000
25.593740 0.196550 -2.825659 33.000000
24.758663 -10.796216 -2.800760 6.000000
15.414365 -16.745390 -1.723307 28.000000
24.208799 10.905270 -2.664250 9.000000
25.630062 0.102886 -2.820553 26.000000
15.522065 -16.986917 -1.722102 9.000000
24.149010 10.782148 -2.658383 7.000000
25.724695 0.008980 -2.830944 16.000000
9.624957 -10.611127 -1.057068 6.000000
24.227182 10.710726 -2.686001 9.000000
26.120674 -0.077502 -2.888377 7.000000
24.569159 -11.026359 -2.749695 5.000000
9.631982 -10.693645 -1.046780 5.000000
24.156914 10.584036 -2.683606 9.000000
33.764069 -0.229828 -3.727674 2.000000
24.817896 -11.252674 -2.767932 6.000000
15.838828 -17.702326 -1.706857 9.000000
24.177399 10.482540 -2.699979 9.000000
33.668705 -0.340837 -3.717250 4.000000
24.903904 -11.391383 -2.767236 10.000000
15.940420 -17.947817 -1.703828 37.000000
24.117414 10.341721 -2.702507 10.000000
33.378841 -0.471914 -3.685427 7.000000
24.768970 -11.450118 -2.742895 6.000000
15.905239 -18.034607 -1.681480 28.000000
24.172163 10.260474 -2.718306 17.000000
33.646507 -0.599051 -3.703309 5.000000
24.903959 -11.623492 -2.748008 6.000000
16.073463 -18.360571 -1.680690 9.000000
24.125763 10.136582 -2.722742 26.000000
33.145805 -0.717456 -3.660188 9.000000
24.893995 -11.730149 -2.737082 6.000000
16.226440 -18.672966 -1.677804 9.000000
24.142628 10.039720 -2.738926 30.000000
33.162827 -0.839440 -3.662383 9.000000
24.887642 -11.838820 -2.731421 6.000000
16.318550 -18.911896 -1.672246 9.000000
24.133963 9.942373 -2.738794 92.000000
32.211014 -0.922241 -3.557586 9.000000
24.993389 -12.001656 -2.733177 6.000000
16.483931 -19.245726 -1.669758 9.000000
24.171457 9.844509 -2.761571 9.000000
31.972178 -1.049454 -3.542965 9.000000
25.053509 -12.143723 -2.729882 27.000000
16.611347 -19.532076 -1.671583 9.000000
24.234901 9.776778 -2.778937 6.000000
31.964174 -1.155314 -3.536833 9.000000
24.921135 -12.192562 -2.700755 33.000000
16.743542 -19.834362 -1.664895 9.000000
24.297380 9.683842 -2.795276 13.000000
32.013905 -1.285811 -3.542878 9.000000
25.020338 -12.354957 -2.701647 8.000000
16.912714 -20.177233 -1.656414 9.000000
24.308218 9.585065 -2.806302 52.000000
31.839922 -1.401297 -3.524193 9.000000
17.043835 -20.485712 -1.653252 9.000000
24.426941 9.538404 -2.825600 27.000000
26.092081 -1.235035 -2.883818 29.000000
30.763699 -15.465802 -3.297276 7.000000
17.217604 -20.849527 -1.649086 8.000000
9.296134 9.322131 -1.147168 9.000000
24.576281 9.493054 -2.852787 18.000000
26.112196 -1.331925 -2.886561 34.000000
30.482464 -15.464637 -3.249106 15.000000
17.436766 -21.265675 -1.653090 7.000000
9.357766 9.315398 -1.162163 9.000000
25.003237 9.552809 -2.921898 1.000000
33.074020 -1.814383 -3.656896 9.000000
30.762819 -15.748907 -3.279034 7.000000
17.539373 -21.551435 -1.641094 9.000000
9.454738 9.343187 -1.183974 9.000000
25.247316 9.540166 -2.946315 1.000000
33.340660 -1.951604 -3.681244 9.000000
17.556089 -21.726444 -1.620392 6.000000
9.548612 9.367029 -1.203189 1.000000
25.408028 9.489564 -2.975167 27.000000
33.134869 -2.061446 -3.659332 9.000000
26.567083 -13.859428 -2.795583 9.000000
38.121700 -47.532635 -3.470595 26.000000
25.794498 9.526323 -3.040599 8.000000
33.046730 -2.183375 -3.656347 9.000000
26.468966 -13.920098 -2.779570 30.000000
26.265713 9.580709 -3.101466 7.000000
33.211216 -2.328179 -3.675551 9.000000
26.488907 -14.066615 -2.771733 16.000000
35.139328 33.732742 -4.527270 1.000000
33.213863 -2.439074 -3.670836 9.000000
33.291813 -17.820999 -3.463151 8.000000
39.888084 -50.834602 -3.488162 17.000000
15.014161 14.312790 -1.953506 4.000000
27.081814 9.664710 -3.225353 3.000000
33.269119 -2.565760 -3.677957 9.000000
33.483894 -18.097122 -3.477263 11.000000
15.112276 14.300964 -1.977758 6.000000
22.602730 7.959678 -2.700621 3.000000
32.997116 -2.672275 -3.643146 9.000000
33.633156 -18.337393 -3.479496 27.000000
45.187149 -58.444252 -3.832872 1.000000
15.051122 14.138889 -1.977508 6.000000
22.515507 7.845136 -2.695505 24.000000
32.997002 -2.794035 -3.644239 9.000000
44.892979 -58.505669 -3.748654 7.000000
14.974907 13.954557 -1.985358 6.000000
22.521990 7.746150 -2.705168 36.000000
32.966103 -2.913151 -3.647828 9.000000
25.684650 -14.248957 -2.631746 26.000000
14.818974 13.717717 -1.976432 6.000000
