VERSION .7
FIELDS x y z intensity
SIZE 4 4 4 4
TYPE F F F F
COUNT 1 1 1 1
WIDTH 1241
HEIGHT 1
VIEWPOINT 0 0 0 1 0 0 0
POINTS 1241
DATA ascii
7.579008 9.194072 -1.034065 1.000000
14.011795 7.034947 -2.033522 6.000000
13.179616 0.589263 -1.976383 6.000000
12.479793 -4.931024 -1.952786 6.000000
11.782923 -11.982020 -1.882007 6.000000
7.565816 9.113070 -1.040416 1.000000
13.833217 6.878910 -2.014725 6.000000
13.211080 0.539850 -1.983135 6.000000
12.535473 -5.006219 -1.961951 6.000000
11.993247 -12.285645 -1.910644 5.000000
7.560120 9.038596 -1.047506 1.000000
13.745894 6.772761 -2.009259 6.000000
13.222852 0.491793 -1.984618 6.000000
12.508564 -5.051249 -1.948741 6.000000
11.974192 -12.356408 -1.890492 6.000000
7.595875 9.020392 -1.058683 1.000000
13.748034 6.711306 -2.008679 6.000000
13.210354 0.445157 -1.977780 6.000000
12.577655 -5.132846 -1.957582 7.000000
12.007953 -12.478109 -1.887394 3.000000
7.574719 8.925484 -1.067429 1.000000
13.676932 6.614633 -2.010921 6.000000
13.156975 0.390490 -1.974235 6.000000
12.646319 -5.215019 -1.966357 6.000000
12.100621 -12.667003 -1.893776 6.000000
7.713547 9.021832 -1.092771 1.000000
13.650963 6.540446 -2.011630 6.000000
13.237119 0.342002 -1.988413 6.000000
12.649993 -5.273457 -1.962738 6.000000
12.144189 -12.806254 -1.892348 1.000000
7.851438 9.118477 -1.120499 1.000000
13.553001 6.432539 -2.001700 6.000000
13.129530 0.291073 -1.972078 6.000000
12.673212 -5.337742 -1.957118 6.000000
12.240973 -12.998893 -1.889274 1.000000
7.890641 9.102783 -1.134506 1.000000
13.486630 6.337703 -1.998878 6.000000
13.209566 0.246718 -1.983958 6.000000
12.745608 -5.423321 -1.963956 7.000000
12.367556 -13.230136 -1.900302 1.000000
7.970330 9.123695 -1.157985 1.000000
13.427954 6.250149 -1.994669 6.000000
13.205505 0.193617 -1.983215 6.000000
12.789636 -5.497506 -1.971353 7.000000
12.546752 -13.520831 -1.919165 2.000000
8.013018 9.111400 -1.170478 1.000000
13.364010 6.160893 -1.992263 6.000000
13.151713 0.146912 -1.975048 6.000000
12.796624 -5.558820 -1.968255 6.000000
12.726651 -13.811072 -1.934167 1.000000
8.063767 9.098419 -1.183488 1.000000
13.286399 6.066166 -1.985154 6.000000
13.181865 0.094329 -1.979503 6.000000
12.836679 -5.632236 -1.965102 8.000000
12.808468 -14.002503 -1.930961 3.000000
8.052871 9.019310 -1.194074 1.000000
13.234737 5.984057 -1.987055 6.000000
13.146829 0.043597 -1.978895 6.000000
12.847952 -5.693429 -1.967508 6.000000
12.968874 -14.282625 -1.946014 6.000000
13.222949 5.923222 -1.989898 6.000000
13.141956 0.000000 -1.978150 5.000000
12.923173 -5.783522 -1.972183 7.000000
13.013584 -14.432774 -1.939715 6.000000
14.412247 15.922396 -2.162559 6.000000
13.175698 5.844169 -1.987240 6.000000
13.195908 -0.048366 -1.988640 6.000000
12.998627 -5.871837 -1.979201 7.000000
13.087822 -14.622518 -1.941461 7.000000
14.132003 15.509103 -2.131277 6.000000
13.091778 5.749614 -1.979021 6.000000
13.146564 -0.094076 -1.978895 6.000000
13.032033 -5.944534 -1.979948 5.000000
13.248911 -14.901641 -1.951593 7.000000
14.308321 15.587461 -2.171626 6.000000
13.029743 5.665494 -1.976602 6.000000
13.190627 -0.142742 -1.985593 6.000000
13.042592 -6.007198 -1.977223 8.000000
13.188277 -14.938128 -1.929266 8.000000
13.969486 15.112104 -2.133961 6.000000
12.990340 5.591837 -1.975051 5.000000
13.160319 -0.192954 -1.981127 6.000000
13.075323 -6.080462 -1.977857 7.000000
13.243015 -15.111403 -1.924126 8.000000
13.721639 14.735268 -2.109150 6.000000
12.974317 5.525988 -1.976903 5.000000
13.134807 -0.240735 -1.977406 6.000000
13.066578 -6.137527 -1.969817 5.000000
13.332010 -15.320515 -1.923354 8.000000
13.604815 14.507939 -2.104455 6.000000
12.879470 5.429909 -1.966868 5.000000
13.202989 -0.292701 -1.987825 6.000000
13.174748 -6.247379 -1.981786 5.000000
13.436534 -15.555393 -1.924929 8.000000
13.567356 14.362133 -2.114915 6.000000
12.870919 5.370830 -1.969990 5.000000
13.167228 -0.340197 -1.982616 6.000000
13.188451 -6.313187 -1.979518 6.000000
13.610823 -15.874411 -1.936133 8.000000
13.392197 14.073026 -2.100136 6.000000
12.872188 5.313419 -1.974485 5.000000
13.205362 -0.391926 -1.988570 6.000000
13.275783 -6.409191 -1.985326 7.000000
13.688972 -16.078802 -1.932921 8.000000
13.317316 13.887167 -2.100402 6.000000
12.766253 5.215011 -1.967568 5.000000
13.134310 -0.438005 -1.980444 6.000000
13.290655 -6.482285 -1.986170 6.000000
13.823878 -16.358351 -1.941578 8.000000
13.158357 13.630637 -2.084923 3.000000
12.743026 5.151104 -1.968409 5.000000
13.122649 -0.488066 -1.978954 6.000000
13.337733 -6.568762 -1.989036 8.000000
13.992071 -16.675100 -1.950383 8.000000
12.898358 13.263672 -2.055621 1.000000
12.724099 5.089277 -1.969914 5.000000
13.130652 -0.536563 -1.980444 6.000000
13.367756 -6.644538 -1.989176 7.000000
14.094715 -16.923008 -1.950078 8.000000
12.845471 13.117363 -2.062593 1.000000
12.653639 5.007375 -1.968273 5.000000
13.098859 -0.585652 -1.975973 6.000000
13.459742 -6.751894 -1.995834 7.000000
14.224138 -17.200140 -1.952724 8.000000
12.745399 12.920102 -2.058154 1.000000
12.589506 4.926171 -1.957750 5.000000
13.151293 -0.636303 -1.981871 6.000000
13.436145 -6.801809 -1.985321 7.000000
14.468861 -17.627220 -1.971115 8.000000
12.574046 12.653300 -2.041904 5.000000
12.578194 4.868660 -1.965221 5.000000
13.152998 -0.687018 -1.987213 6.000000
13.491515 -6.892076 -1.989152 8.000000
14.644588 -17.968842 -1.979133 8.000000
12.416104 12.407438 -2.030939 5.000000
12.604231 4.825696 -1.973730 5.000000
13.086565 -0.731653 -1.975229 6.000000
13.519659 -6.969054 -1.991653 8.000000
14.770850 -18.260021 -1.984584 8.000000
12.404073 12.304884 -2.033943 5.000000
12.529486 4.741997 -1.963936 5.000000
13.118343 -0.781671 -1.980444 6.000000
13.524819 -7.037576 -1.985554 9.000000
14.783411 -18.406582 -1.965847 8.000000
12.253632 12.058438 -2.019570 6.000000
12.499489 4.678341 -1.963672 5.000000
13.130048 -0.832975 -1.982679 6.000000
13.596437 -7.138289 -1.991720 9.000000
15.040167 -18.867493 -1.983731 8.000000
12.164464 11.891544 -2.013416 6.000000
12.450643 4.608103 -1.960434 5.000000
13.142051 -0.882110 -1.982616 6.000000
13.668428 -7.240116 -1.989672 10.000000
15.309740 -19.343811 -1.997841 8.000000
12.083011 11.729715 -2.014010 6.000000
12.337216 4.512339 -1.946861 5.000000
13.148432 -0.933265 -1.984104 6.000000
13.703649 -7.323215 -1.993179 8.000000
15.544605 -19.789179 -2.015838 7.000000
12.010014 11.573654 -2.012477 6.000000
12.333788 4.459900 -1.953086 5.000000
13.179090 -0.984002 -1.991620 6.000000
13.668900 -7.369179 -1.983776 8.000000
15.541308 -19.927790 -1.993349 8.000000
11.853815 11.339633 -1.993851 3.000000
12.283896 4.391017 -1.949606 5.000000
13.181182 -1.035067 -1.985443 6.000000
13.782450 -7.495723 -1.993098 7.000000
15.765398 -20.368637 -2.004514 7.000000
11.775018 11.181890 -1.990948 4.000000
12.271727 4.333598 -1.951986 5.000000
13.161825 -1.082099 -1.987825 6.000000
13.825686 -7.585031 -1.992172 8.000000
15.886844 -20.674236 -2.001652 5.000000
11.598004 10.933229 -1.968350 4.000000
12.198187 4.257409 -1.942405 5.000000
13.128361 -1.130114 -1.981060 6.000000
13.820710 -7.648336 -1.984278 8.000000
16.217356 -21.265215 -2.024932 7.000000
11.471336 10.738443 -1.959972 3.000000
12.132649 4.184713 -1.940969 5.000000
13.128711 -1.178635 -1.984104 6.000000
13.801851 -7.704113 -1.980007 8.000000
16.854601 -22.261539 -2.084785 1.000000
11.494572 10.681415 -1.973929 5.000000
12.138628 4.134690 -1.943950 5.000000
13.129012 -1.229498 -1.984848 6.000000
13.740133 -7.735850 -1.964027 9.000000
17.034794 -22.671730 -2.087478 2.000000
11.422993 10.537144 -1.968770 3.000000
12.141937 4.090932 -1.949160 5.000000
13.145579 -1.275038 -1.980910 6.000000
13.778669 -7.821013 -1.965002 8.000000
17.052263 -22.860708 -2.069359 3.000000
11.269550 10.319406 -1.954763 5.000000
12.096316 4.021564 -1.946059 5.000000
13.149618 -1.331052 -1.984700 6.000000
13.967944 -8.002755 -1.985150 8.000000
17.172707 -23.190649 -2.058348 3.000000
11.335643 10.303796 -1.970534 4.000000
12.106327 3.973335 -1.949752 5.000000
13.100873 -1.370022 -1.978018 6.000000
14.054274 -8.114239 -1.989731 7.000000
17.121349 -23.299368 -2.031984 1.000000
11.164039 10.083944 -1.951204 4.000000
12.099338 3.926644 -1.955608 5.000000
13.149243 -1.426143 -1.988494 6.000000
14.080795 -8.198508 -1.991954 7.000000
17.208511 -23.590111 -2.026483 1.000000
11.092348 9.945607 -1.948156 4.000000
12.009815 3.846683 -1.945496 1.000000
13.085308 -1.467752 -1.977275 6.000000
14.171694 -8.321134 -1.997471 8.000000
11.082500 9.856812 -1.955261 5.000000
11.949123 3.774424 -1.937673 1.000000
13.119899 -1.522665 -1.976300 7.000000
14.210637 -8.414194 -1.995594 7.000000
10.991009 9.710353 -1.949054 5.000000
12.007766 3.749201 -1.951901 1.000000
13.113887 -1.570701 -1.978605 6.000000
14.232041 -8.497471 -1.991220 8.000000
10.932093 9.587188 -1.945277 5.000000
11.912176 3.669216 -1.942970 1.000000
13.054119 -1.614409 -1.968161 6.000000
14.329290 -8.626934 -2.000353 7.000000
10.886698 9.470335 -1.945802 5.000000
11.855255 3.599642 -1.935743 1.000000
13.161281 -1.676661 -1.982863 7.000000
14.363627 -8.726357 -1.998121 8.000000
10.725044 9.260877 -1.923422 5.000000
11.915338 3.567973 -1.949975 1.000000
13.066150 -1.715551 -1.971861 6.000000
14.387779 -8.813388 -1.994016 8.000000
10.766796 9.231521 -1.942768 5.000000
11.851238 3.501499 -1.946212 1.000000
13.118922 -1.771416 -1.978429 6.000000
14.483312 -8.945075 -1.999736 8.000000
10.723825 9.126690 -1.941486 5.000000
11.792216 3.437118 -1.938831 1.000000
13.112682 -1.819535 -1.976118 6.000000
14.459746 -9.003901 -1.991984 9.000000
10.661322 9.006326 -1.936594 5.000000
11.814169 3.394354 -1.944682 1.000000
13.105942 -1.869919 -1.973808 6.000000
14.562427 -9.142077 -1.998565 7.000000
19.850309 -29.121296 -2.087661 1.000000
10.555843 8.851127 -1.928685 5.000000
11.730527 3.323828 -1.935439 1.000000
12.995906 -1.902847 -1.960616 6.000000
14.588754 -9.233323 -1.994594 8.000000
20.189060 -29.852774 -2.103222 1.000000
10.480361 8.722614 -1.921173 5.000000
11.751410 3.281053 -1.945525 1.000000
13.076867 -1.966019 -1.971596 6.000000
14.655560 -9.343815 -1.995659 8.000000
20.136227 -29.999784 -2.064324 1.000000
10.407915 8.597945 -1.914120 5.000000
11.719859 3.225986 -1.942683 1.000000
13.098559 -2.018401 -1.978333 6.000000
14.697019 -9.446190 -1.999827 7.000000
10.341855 8.479792 -1.912913 5.000000
11.649846 3.158644 -1.937696 1.000000
13.101164 -2.070333 -1.975180 6.000000
14.726300 -9.541461 -1.993044 8.000000
10.294798 8.378296 -1.910337 5.000000
11.617768 3.104280 -1.934761 1.000000
13.162177 -2.129450 -1.983163 6.000000
14.722309 -9.623004 -1.985279 8.000000
10.259391 8.293078 -1.912757 5.000000
11.557342 3.040637 -1.927019 1.000000
13.173079 -2.183151 -1.988436 6.000000
14.799087 -9.743383 -1.990584 8.000000
10.229269 8.201055 -1.915008 5.000000
11.543214 2.991727 -1.931365 1.000000
13.131198 -2.225691 -1.980956 6.000000
14.834815 -9.845035 -1.987644 8.000000
10.107784 8.048739 -1.901079 5.000000
11.523727 2.945931 -1.930720 1.000000
13.068954 -2.266797 -1.972865 6.000000
14.927541 -9.985574 -1.995438 9.000000
10.104033 7.979684 -1.903518 5.000000
11.492234 2.886650 -1.927646 1.000000
13.154104 -2.331261 -1.979846 6.000000
14.959096 -10.093838 -1.985927 8.000000
10.042114 7.871194 -1.900061 5.000000
11.458316 2.833524 -1.928662 1.000000
13.149997 -2.380277 -1.982912 6.000000
15.005054 -10.205083 -1.987365 7.000000
9.969041 7.760686 -1.894880 1.000000
11.385657 2.773419 -1.921091 1.000000
13.117290 -2.421675 -1.979242 7.000000
15.000406 -10.274837 -1.984828 8.000000
9.906122 7.653559 -1.888748 1.000000
11.423880 2.738414 -1.930045 1.000000
13.083503 -2.469788 -1.973249 6.000000
15.045883 -10.387213 -1.979726 9.000000
9.842308 7.546812 -1.884580 1.000000
11.371228 2.679664 -1.923585 1.000000
13.054496 -2.516263 -1.970317 6.000000
15.134774 -10.530699 -1.989976 9.000000
9.852329 7.497314 -1.896703 1.000000
11.321994 2.624297 -1.921951 1.000000
13.070009 -2.564234 -1.976307 6.000000
15.048644 -10.552838 -1.967499 9.000000
9.756170 7.367832 -1.883900 1.000000
11.316249 2.577220 -1.927607 1.000000
13.094691 -2.621331 -1.976783 7.000000
14.974164 -10.582693 -1.953109 8.000000
9.682944 7.256956 -1.875423 1.000000
11.219401 2.511945 -1.911591 1.000000
13.090180 -2.670366 -1.975183 7.000000
14.905835 -10.612616 -1.936098 8.000000
9.652400 7.178966 -1.877301 1.000000
11.179491 2.457971 -1.911382 1.000000
13.060460 -2.716580 -1.972258 7.000000
14.883819 -10.679361 -1.928612 5.000000
9.609499 7.092504 -1.876702 1.000000
11.182298 2.415656 -1.918546 1.000000
13.054917 -2.765384 -1.975318 6.000000
14.946137 -10.807278 -1.932042 6.000000
9.558139 7.000625 -1.874364 1.000000
11.127801 2.359198 -1.913751 1.000000
13.015194 -2.809230 -1.970926 7.000000
14.968073 -10.906905 -1.923694 6.000000
9.490010 6.897427 -1.870728 4.000000
11.062664 2.303052 -1.909198 1.000000
12.966163 -2.848423 -1.965068 6.000000
14.972903 -10.994668 -1.919651 6.000000
28.947632 -49.657242 -2.177971 1.000000
9.445563 6.812355 -1.869540 1.000000
10.969012 2.239647 -1.897567 1.000000
13.003061 -2.908912 -1.974715 6.000000
15.032726 -11.123632 -1.929236 6.000000
28.820185 -49.877808 -2.132435 1.000000
9.350770 6.694494 -1.862616 7.000000
10.951030 2.194195 -1.905086 1.000000
12.938595 -2.944326 -1.971284 7.000000
15.060179 -11.229601 -1.931401 6.000000
9.208478 6.592623 -1.848474 1.000000
10.793475 2.162627 -1.895477 1.000000
12.732224 -2.899702 -1.963219 6.000000
15.079683 -11.248240 -1.964023 6.000000
28.556456 -49.822048 -2.125776 1.000000
9.247908 6.674710 -1.855390 1.000000
10.766165 2.198230 -1.892083 1.000000
12.587374 -2.818225 -1.946186 6.000000
15.017293 -11.120326 -1.970613 6.000000
28.823471 -49.883495 -2.223304 6.000000
9.252368 6.729643 -1.853023 1.000000
10.742849 2.236472 -1.891452 1.000000
12.519522 -2.752595 -1.943200 7.000000
14.932358 -10.972920 -1.970529 7.000000
28.844055 -49.539158 -2.282351 1.000000
9.272215 6.796181 -1.855797 1.000000
10.724544 2.275660 -1.889754 1.000000
12.518534 -2.704316 -1.950643 6.000000
14.934086 -10.890123 -1.991579 6.000000
9.246831 6.832310 -1.849778 1.000000
10.721592 2.316132 -1.886774 1.000000
12.445167 -2.640762 -1.944506 6.000000
14.845773 -10.746547 -1.990968 7.000000
9.282160 6.911152 -1.853612 1.000000
10.716786 2.358199 -1.891452 1.000000
12.376469 -2.576563 -1.941245 1.000000
14.733437 -10.583150 -1.996319 6.000000
9.293605 6.972764 -1.850591 1.000000
10.694290 2.394377 -1.885079 1.000000
12.312869 -2.516273 -1.932055 1.000000
14.616925 -10.418455 -1.991200 6.000000
9.312087 7.040122 -1.853130 1.000000
10.704555 2.439875 -1.886553 1.000000
12.340495 -2.472594 -1.943881 1.000000
14.548393 -10.289404 -1.989308 6.000000
9.366080 7.135041 -1.858534 9.000000
10.709510 2.484301 -1.889094 3.000000
12.261538 -2.410063 -1.934506 3.000000
14.435829 -10.134382 -1.990888 6.000000
9.375156 7.199012 -1.855236 1.000000
10.772921 2.540655 -1.897931 1.000000
12.255402 -2.362237 -1.934389 1.000000
14.390201 -10.023815 -1.991915 6.000000
9.423965 7.291553 -1.861648 1.000000
10.715165 2.570506 -1.889481 1.000000
12.140553 -2.296176 -1.926028 3.000000
14.281524 -9.870568 -1.996407 6.000000
9.466757 7.374978 -1.868486 1.000000
10.811924 2.631665 -1.908072 1.000000
12.182227 -2.257842 -1.935743 4.000000
14.172795 -9.718855 -1.991412 6.000000
9.516068 7.474970 -1.873312 1.000000
10.729697 2.659307 -1.891538 6.000000
12.108608 -2.191776 -1.924770 1.000000
14.083985 -9.582250 -1.986038 6.000000
9.536386 7.547612 -1.871878 1.000000
10.686590 2.692219 -1.881788 1.000000
12.071376 -2.143719 -1.922096 1.000000
13.995982 -9.451077 -1.989881 6.000000
9.551230 7.611011 -1.868827 1.000000
10.764201 2.749763 -1.893058 4.000000
12.063925 -2.094645 -1.926184 1.000000
13.934495 -9.335378 -1.988134 6.000000
9.606390 7.718217 -1.876864 1.000000
10.762130 2.797308 -1.894738 1.000000
12.013470 -2.036240 -1.918987 1.000000
13.810334 -9.179038 -1.977346 6.000000
9.671526 7.829053 -1.884074 1.000000
10.771509 2.841933 -1.894209 1.000000
12.043855 -2.000327 -1.927138 1.000000
13.580769 -8.954866 -1.959925 6.000000
9.691140 7.901085 -1.884328 1.000000
10.779881 2.888460 -1.895614 1.000000
12.045574 -1.953115 -1.932748 1.000000
13.417117 -8.776570 -1.943008 6.000000
9.668251 7.947245 -1.874897 1.000000
10.812674 2.939765 -1.899238 1.000000
11.979817 -1.893130 -1.923132 1.000000
13.314821 -8.640141 -1.934840 6.000000
9.716493 8.046755 -1.878704 1.000000
10.782934 2.976190 -1.891991 1.000000
11.917696 -1.840697 -1.914274 1.000000
13.257058 -8.533770 -1.938646 9.000000
9.686962 8.076602 -1.869163 1.000000
10.844225 3.031843 -1.904499 1.000000
11.952665 -1.801270 -1.925307 1.000000
13.155704 -8.403721 -1.933353 9.000000
9.829887 8.262884 -1.891675 5.000000
10.832388 3.077513 -1.898603 1.000000
11.914862 -1.748811 -1.922432 1.000000
13.076303 -8.285674 -1.928183 9.000000
9.864113 8.347633 -1.892058 5.000000
10.841713 3.119053 -1.897990 1.000000
11.871983 -1.698090 -1.916644 1.000000
12.995660 -8.167974 -1.928190 10.000000
9.887166 8.429526 -1.893129 5.000000
10.848120 3.170157 -1.897363 1.000000
11.901870 -1.655756 -1.926881 1.000000
12.952801 -8.074961 -1.928252 33.000000
9.962559 8.557058 -1.901855 5.000000
10.836428 3.209896 -1.897363 1.000000
11.858603 -1.605454 -1.921053 1.000000
12.938688 -8.000459 -1.935261 26.000000
16.727861 -24.203201 -2.010906 3.000000
9.985025 8.640154 -1.898061 5.000000
10.810804 3.247510 -1.888970 1.000000
11.849664 -1.557934 -1.920761 1.000000
12.961962 -7.949326 -1.950554 11.000000
16.846607 -24.185009 -2.045523 3.000000
10.007704 8.730276 -1.894826 5.000000
10.889100 3.314590 -1.900676 1.000000
11.805330 -1.508109 -1.919059 1.000000
12.862741 -7.823744 -1.941980 9.000000
16.854778 -24.017548 -2.077493 5.000000
10.035731 8.813503 -1.893764 5.000000
10.867818 3.353762 -1.893074 1.000000
11.850558 -1.467664 -1.923343 6.000000
12.733073 -7.681080 -1.928695 9.000000
15.612706 -22.083290 -1.948094 6.000000
10.119881 8.959613 -1.906790 5.000000
10.864868 3.396515 -1.894716 1.000000
11.756843 -1.412325 -1.913641 2.000000
12.682818 -7.587504 -1.932596 9.000000
16.528616 -23.197948 -2.081740 2.000000
10.146798 9.043645 -1.905406 5.000000
10.880903 3.447446 -1.893666 1.000000
11.801068 -1.371692 -1.922097 1.000000
12.666744 -7.514984 -1.936396 8.000000
15.779342 -21.983559 -2.010934 2.000000
10.203253 9.161285 -1.910100 4.000000
10.921713 3.500271 -1.898664 1.000000
11.732112 -1.320114 -1.912179 1.000000
12.663129 -7.450225 -1.942091 9.000000
15.497912 -21.433144 -2.002660 9.000000
10.260860 9.277907 -1.912170 5.000000
10.931356 3.553922 -1.896729 1.000000
11.799881 -1.281877 -1.928786 1.000000
12.615810 -7.360275 -1.946249 8.000000
15.286673 -20.986336 -1.993232 9.000000
10.293932 9.376615 -1.912343 3.000000
10.965748 3.609596 -1.900840 1.000000
11.716149 -1.229350 -1.914351 1.000000
12.474812 -7.216858 -1.925523 9.000000
14.978576 -20.405785 -1.974405 9.000000
10.362927 9.509192 -1.919119 4.000000
10.956802 3.653341 -1.899636 1.000000
11.710632 -1.183328 -1.914801 1.000000
12.439246 -7.135561 -1.931272 7.000000
14.855440 -20.090639 -1.984021 9.000000
10.384051 9.598919 -1.914451 4.000000
10.977319 3.704944 -1.897229 1.000000
11.739116 -1.142757 -1.920874 1.000000
12.378587 -7.040592 -1.922896 7.000000
14.733901 -19.781452 -1.980217 5.000000
10.379030 9.665064 -1.907442 4.000000
10.992650 3.752911 -1.900050 1.000000
11.747996 -1.098101 -1.923737 1.000000
12.329185 -6.952811 -1.926346 6.000000
14.633501 -19.511261 -1.988009 4.000000
10.435110 9.788943 -1.911618 5.000000
10.988776 3.796615 -1.897606 1.000000
11.756188 -1.055417 -1.928662 1.000000
12.331790 -6.894830 -1.932838 7.000000
14.508500 -19.190638 -1.990592 7.000000
10.559123 9.978288 -1.925540 5.000000
11.011648 3.854067 -1.897941 1.000000
11.686073 -1.003904 -1.918614 1.000000
12.269149 -6.800900 -1.929078 7.000000
14.220946 -18.674421 -1.966935 5.000000
10.602684 10.093271 -1.927219 5.000000
11.053530 3.916431 -1.901435 1.000000
11.709011 -0.962656 -1.923893 1.000000
12.244766 -6.728835 -1.933778 7.000000
14.166507 -18.462151 -1.978666 7.000000
10.640420 10.200231 -1.924837 5.000000
11.003930 3.939977 -1.890953 1.000000
11.702783 -0.916919 -1.922277 1.000000
12.177989 -6.631386 -1.929064 6.000000
13.802682 -17.858583 -1.950878 5.000000
10.711412 10.343892 -1.928668 5.000000
11.049982 4.004401 -1.895181 1.000000
11.621779 -0.871806 -1.910575 1.000000
12.140018 -6.553134 -1.929050 7.000000
13.435262 -17.252140 -1.913069 7.000000
10.724398 10.432663 -1.924604 4.000000
11.077876 4.060505 -1.896167 1.000000
11.654571 -0.829277 -1.915429 1.000000
12.082223 -6.470289 -1.923764 6.000000
13.589963 -17.338154 -1.942829 7.000000
10.807722 10.591096 -1.933089 6.000000
11.118057 4.123727 -1.903618 1.000000
11.672240 -0.783454 -1.919897 1.000000
12.050049 -6.390947 -1.924252 7.000000
13.379769 -16.935650 -1.937641 5.000000
10.904167 10.764237 -1.943795 6.000000
11.159273 4.185606 -1.906888 1.000000
11.640360 -0.736429 -1.916265 1.000000
12.019617 -6.318470 -1.925351 6.000000
13.133465 -16.499203 -1.915464 7.000000
10.962958 10.898095 -1.944598 4.000000
11.126323 4.219829 -1.897498 1.000000
11.642192 -0.695752 -1.920336 1.000000
11.957495 -6.229984 -1.926135 6.000000
13.111855 -16.354567 -1.926109 6.000000
11.005010 11.020386 -1.942643 6.000000
11.170897 4.285869 -1.901469 1.000000
11.620035 -0.651695 -1.916274 1.000000
11.930977 -6.160674 -1.925388 7.000000
12.932468 -16.010223 -1.916484 8.000000
11.074267 11.171332 -1.945357 5.000000
11.234314 4.357503 -1.908500 1.000000
11.587629 -0.605254 -1.912613 1.000000
11.881789 -6.080218 -1.923351 6.000000
12.751179 -15.673547 -1.906402 8.000000
11.163466 11.344173 -1.951397 3.000000
11.320352 4.438677 -1.919342 1.000000
11.560205 -0.561343 -1.907734 1.000000
11.846468 -6.004858 -1.923353 5.000000
12.671590 -15.459625 -1.907139 8.000000
11.197835 11.458832 -1.950194 6.000000
11.308438 4.484179 -1.915875 1.000000
11.566871 -0.517157 -1.910568 1.000000
11.843310 -5.953975 -1.926711 6.000000
12.579467 -15.249265 -1.906947 8.000000
11.316170 11.665154 -1.960967 7.000000
11.343293 4.546182 -1.918033 1.000000
11.603192 -0.476175 -1.916266 1.000000
11.666594 -5.806583 -1.903446 5.000000
12.511800 -15.043804 -1.911650 8.000000
11.384717 11.822209 -1.965811 9.000000
11.308059 4.582533 -1.910673 1.000000
11.580286 -0.430701 -1.912196 1.000000
11.624188 -5.732415 -1.904640 6.000000
12.399996 -14.803957 -1.907078 8.000000
11.365623 11.885137 -1.949289 6.000000
11.333874 4.641429 -1.906948 1.000000
11.626162 -0.389742 -1.919523 1.000000
11.575880 -5.660947 -1.898233 8.000000
12.415652 -14.723186 -1.922334 6.000000
11.316314 11.920740 -1.933769 6.000000
11.362745 4.701957 -1.912494 1.000000
11.567397 -0.343312 -1.915813 1.000000
11.565853 -5.598625 -1.904347 9.000000
12.235175 -14.396634 -1.912464 3.000000
11.369531 12.065052 -1.929875 1.000000
11.386338 4.765344 -1.908639 1.000000
11.623598 -0.298284 -1.920738 1.000000
11.550987 -5.536785 -1.902954 9.000000
12.222067 -14.274851 -1.918793 7.000000
11.807256 12.617508 -1.993300 1.000000
11.424562 4.828274 -1.915643 1.000000
11.555521 -0.256178 -1.909329 1.000000
11.527581 -5.478630 -1.907480 8.000000
12.205544 -14.155237 -1.928210 4.000000
12.056005 12.978350 -2.030781 1.000000
11.434978 4.882150 -1.913712 1.000000
11.551487 -0.211716 -1.908514 1.000000
11.448258 -5.389582 -1.897847 18.000000
12.128602 -13.962200 -1.930796 6.000000
12.085090 13.096486 -2.024079 1.000000
11.513534 4.965659 -1.920932 1.000000
11.556451 -0.169439 -1.913364 1.000000
11.444326 -5.336577 -1.902955 6.000000
12.020526 -13.750293 -1.926041 2.000000
12.141198 13.263728 -2.023307 2.000000
11.531551 5.026031 -1.920403 1.000000
11.542219 -0.124904 -1.910914 1.000000
11.400986 -5.263166 -1.899099 1.000000
11.847240 -13.442787 -1.911751 5.000000
12.314886 13.538630 -2.039924 1.000000
11.563737 5.090576 -1.922088 1.000000
11.552464 -0.082669 -1.912547 1.000000
11.401009 -5.212570 -1.904860 5.000000
11.713474 -13.207127 -1.899043 5.000000
12.278512 13.607985 -2.023501 1.000000
11.541403 5.131324 -1.914723 1.000000
11.507969 -0.038162 -1.907206 1.000000
11.326358 -5.123569 -1.895596 2.000000
11.601501 -12.984692 -1.891609 7.000000
11.572439 5.198433 -1.914110 6.000000
11.508364 0.000000 -1.905197 1.000000
11.305414 -5.071371 -1.896054 1.000000
11.423796 -12.700778 -1.873859 7.000000
8.176270 9.186522 -1.331659 1.000000
11.610091 5.261685 -1.916388 5.000000
11.547742 0.044340 -1.911730 1.000000
11.257013 -4.995475 -1.891158 1.000000
11.364353 -12.537532 -1.874133 7.000000
8.130297 9.202566 -1.316648 1.000000
11.609624 5.312850 -1.912676 5.000000
11.532703 0.086554 -1.909280 1.000000
11.218327 -4.933845 -1.888469 1.000000
11.294978 -12.369579 -1.872962 7.000000
7.931677 9.034797 -1.276340 1.000000
11.694232 5.403493 -1.922969 5.000000
11.606274 0.131675 -1.921530 1.000000
11.207942 -4.880332 -1.892435 1.000000
11.240455 -12.228186 -1.874799 7.000000
7.909184 9.076057 -1.265317 1.000000
11.773208 5.494941 -1.930139 6.000000
11.521864 0.172954 -1.907647 1.000000
11.175168 -4.815100 -1.894640 4.000000
11.144192 -12.030420 -1.868419 7.000000
7.875139 9.107356 -1.252710 1.000000
11.812066 5.565892 -1.932854 5.000000
11.614823 0.218960 -1.923163 1.000000
11.093510 -4.727207 -1.884031 1.000000
11.064424 -11.856841 -1.870688 7.000000
7.790865 9.076925 -1.229817 1.000000
11.855340 5.639475 -1.933939 5.000000
11.525173 0.259530 -1.908464 1.000000
11.119562 -4.690227 -1.887681 5.000000
10.992608 -11.697753 -1.862988 7.000000
7.706553 9.039176 -1.210759 1.000000
11.906854 5.717590 -1.938682 5.000000
11.593128 0.305602 -1.919897 1.000000
11.043189 -4.612673 -1.882672 1.000000
10.900693 -11.515076 -1.859881 8.000000
7.611483 8.991046 -1.188283 1.000000
11.894931 5.768173 -1.930906 5.000000
11.562800 0.343176 -1.912978 1.000000
11.008902 -4.551034 -1.880362 1.000000
10.852279 -11.388053 -1.856301 7.000000
7.659308 9.121540 -1.188857 1.000000
11.962890 5.855382 -1.943035 5.000000
11.590174 0.392586 -1.921921 1.000000
10.985026 -4.489617 -1.879560 1.000000
10.780640 -11.226248 -1.858699 9.000000
7.692108 9.219259 -1.183625 1.000000
12.076262 5.965838 -1.950584 6.000000
11.564754 0.432145 -1.913794 1.000000
10.953943 -4.432353 -1.877926 1.000000
10.716393 -11.085527 -1.857652 10.000000
7.668645 9.266505 -1.170892 1.000000
12.037512 6.001682 -1.940675 5.000000
11.548473 0.477967 -1.909329 1.000000
10.924583 -4.369522 -1.878293 1.000000
10.669603 -10.948831 -1.855444 17.000000
7.624336 9.272116 -1.157995 1.000000
12.118327 6.097534 -1.947627 5.000000
11.551661 0.518497 -1.910144 1.000000
10.910862 -4.322119 -1.877660 1.000000
10.628026 -10.834053 -1.858085 13.000000
7.561247 9.267701 -1.139062 1.000000
12.101521 6.144764 -1.938863 5.000000
11.603687 0.567515 -1.919108 1.000000
10.886577 -4.259829 -1.876672 1.000000
10.570264 -10.692732 -1.859442 9.000000
7.515549 9.274308 -1.124192 1.000000
12.166840 6.236808 -1.945846 6.000000
11.616750 0.608808 -1.919523 1.000000
10.849093 -4.203730 -1.874047 1.000000
10.503019 -10.554473 -1.854640 16.000000
7.519683 9.349257 -1.117254 1.000000
12.259431 6.341118 -1.954528 5.000000
11.614213 0.655436 -1.919523 1.000000
10.831247 -4.151221 -1.874555 1.000000
10.484194 -10.451308 -1.859637 34.000000
7.447457 9.325930 -1.096647 1.000000
12.235151 6.380077 -1.944194 5.000000
11.567201 0.693296 -1.914219 1.000000
10.800033 -4.091767 -1.872626 8.000000
10.410096 -10.312442 -1.853729 29.000000
12.342381 6.499143 -1.952950 6.000000
11.599712 0.737923 -1.915866 1.000000
10.773057 -4.036456 -1.867431 9.000000
10.344110 -10.172228 -1.848192 17.000000
7.178679 9.122474 -1.042141 1.000000
12.362809 6.567888 -1.954996 5.000000
11.651273 0.786133 -1.922773 1.000000
10.815017 -4.004888 -1.880290 1.000000
10.326438 -10.073631 -1.855709 34.000000
7.037183 9.007184 -1.012082 1.000000
12.451306 6.667941 -1.962424 5.000000
11.648169 0.830864 -1.922773 4.000000
10.786994 -3.949614 -1.879063 3.000000
10.226868 -9.910523 -1.844534 19.000000
6.955934 8.970769 -0.993140 1.000000
12.512778 6.765634 -1.966256 5.000000
11.645380 0.873577 -1.920735 1.000000
10.721602 -3.881166 -1.871312 4.000000
10.172399 -9.785699 -1.843260 49.000000
6.976971 9.063053 -0.986575 1.000000
12.479214 6.809540 -1.954962 6.000000
11.646857 0.918673 -1.921546 1.000000
10.749438 -3.844623 -1.879719 1.000000
10.133404 -9.680307 -1.844988 32.000000
6.942994 9.084345 -0.972177 1.000000
12.570914 6.913776 -1.960154 6.000000
11.628996 0.960164 -1.917075 1.000000
10.720978 -3.790181 -1.876378 4.000000
10.084921 -9.563545 -1.842107 55.000000
6.829067 9.003487 -0.946935 1.000000
12.652242 7.024804 -1.969498 6.000000
11.655049 1.007387 -1.919897 1.000000
10.687951 -3.732400 -1.874165 5.000000
10.046015 -9.450348 -1.842755 34.000000
6.798190 9.028057 -0.935100 1.000000
12.615232 7.064869 -1.952335 6.000000
11.662107 1.051074 -1.915386 3.000000
10.682599 -3.686658 -1.872871 1.000000
10.018425 -9.361966 -1.841734 36.000000
6.732918 9.009909 -0.916824 1.000000
12.762729 7.209046 -1.971423 6.000000
11.676970 1.097630 -1.922708 1.000000
10.704137 -3.650241 -1.882402 1.000000
10.018559 -9.293540 -1.850055 24.000000
6.690118 9.018112 -0.903441 1.000000
12.767555 7.273628 -1.965830 6.000000
11.692846 1.142373 -1.923893 1.000000
10.647029 -3.585190 -1.875971 5.000000
10.047239 -9.251863 -1.866072 12.000000
6.620823 8.990117 -0.884588 1.000000
12.815054 7.363032 -1.966784 6.000000
11.708344 1.189290 -1.925072 1.000000
10.659476 -3.545936 -1.879892 1.000000
10.027091 -9.168837 -1.868454 7.000000
6.614842 9.051288 -0.876403 1.000000
12.870357 7.457684 -1.971527 6.000000
11.704240 1.232231 -1.923018 1.000000
10.625228 -3.489288 -1.877496 2.000000
9.889947 -8.970801 -1.850422 8.000000
6.586759 9.079218 -0.863089 1.000000
12.973116 7.580877 -1.975502 6.000000
11.764197 1.284234 -1.927303 1.000000
10.599800 -3.437949 -1.874763 7.000000
9.752885 -8.787704 -1.830993 16.000000
6.473970 8.989602 -0.840748 1.000000
13.053211 7.691998 -1.981219 6.000000
11.675382 1.317858 -1.917742 1.000000
10.626073 -3.401433 -1.883094 1.000000
9.761450 -8.730809 -1.840564 31.000000
6.366197 8.908624 -0.817533 1.000000
13.068742 7.765822 -1.977090 6.000000
11.744759 1.371380 -1.923632 1.000000
10.605561 -3.352063 -1.877269 4.000000
9.688058 -8.595414 -1.829426 65.000000
6.436810 9.067522 -0.818547 1.000000
13.129187 7.860769 -1.979304 6.000000
11.760080 1.412714 -1.924776 1.000000
10.569726 -3.296151 -1.878610 5.000000
9.659599 -8.513085 -1.830173 62.000000
6.356740 9.027968 -0.795331 1.000000
13.298201 8.034655 -1.998603 6.000000
11.788676 1.466268 -1.928317 1.000000
10.558180 -3.250137 -1.874428 3.000000
9.644826 -8.437462 -1.832913 35.000000
6.288518 8.997637 -0.779166 1.000000
13.375739 8.148573 -2.003617 6.000000
11.793347 1.510763 -1.927844 1.000000
10.531908 -3.197830 -1.873500 4.000000
9.606973 -8.342386 -1.833495 30.000000
6.207716 8.951721 -0.759839 1.000000
13.482814 8.281713 -2.007350 6.000000
11.807365 1.558662 -1.928967 1.000000
10.519324 -3.151947 -1.873139 2.000000
9.606283 -8.280225 -1.838858 12.000000
6.171222 8.965768 -0.747746 1.000000
13.654726 8.449801 -2.025716 6.000000
11.802465 1.597854 -1.926888 1.000000
10.525994 -3.109950 -1.876129 4.000000
9.586473 -8.202101 -1.840542 8.000000
6.166060 9.018804 -0.737140 1.000000
13.767969 8.589824 -2.035664 6.000000
11.796909 1.643253 -1.922730 1.000000
10.498842 -3.060134 -1.873207 1.000000
9.520732 -8.085601 -1.835578 9.000000
6.094184 8.984175 -0.721060 1.000000
13.817690 8.691363 -2.033244 6.000000
11.860215 1.696407 -1.927613 1.000000
10.476418 -3.010002 -1.873006 6.000000
9.496128 -8.004984 -1.836240 9.000000
6.032624 8.960589 -0.704218 1.000000
13.891703 8.809142 -2.037211 3.000000
11.863050 1.743321 -1.931294 3.000000
10.486751 -2.971405 -1.876810 2.000000
9.486242 -7.937358 -1.839722 8.000000
6.032343 9.028039 -0.692636 1.000000
13.944738 8.914604 -2.032171 6.000000
11.872224 1.789147 -1.927393 1.000000
10.464860 -2.921842 -1.870871 8.000000
9.419176 -7.822728 -1.829881 9.000000
5.979192 9.016468 -0.676873 1.000000
14.117581 9.098162 -2.050304 6.000000
11.958299 1.849105 -1.940339 39.000000
10.413113 -2.866294 -1.863611 6.000000
9.412210 -7.758828 -1.833874 8.000000
5.887392 8.952479 -0.657226 1.000000
14.078278 9.153024 -2.035045 1.000000
11.849374 1.876756 -1.921620 145.000000
10.418657 -2.824830 -1.866529 7.000000
9.393428 -7.685694 -1.835546 9.000000
5.934059 9.095886 -0.652835 1.000000
14.295236 9.368800 -2.056224 1.000000
11.789788 1.913753 -1.904584 39.000000
10.385160 -2.774926 -1.864491 6.000000
9.308762 -7.559632 -1.826422 8.000000
5.951962 9.186264 -0.646474 1.000000
14.547025 9.602928 -2.084666 4.000000
11.826204 1.964178 -1.913762 56.000000
10.380816 -2.731103 -1.865674 1.000000
9.304379 -7.499647 -1.830829 8.000000
5.904144 9.182542 -0.629463 1.000000
14.570808 9.695492 -2.080761 4.000000
11.834166 2.012223 -1.909842 37.000000
10.400133 -2.693531 -1.871137 1.000000
9.295824 -7.436710 -1.834404 7.000000
5.971756 9.359354 -0.628486 1.000000
14.686857 9.846850 -2.086581 1.000000
11.866289 2.062464 -1.911923 1.000000
10.366347 -2.644276 -1.867150 4.000000
9.228891 -7.327851 -1.826413 7.000000
5.855110 9.251139 -0.604440 1.000000
14.784142 9.990811 -2.086647 4.000000
11.985025 2.130542 -1.930179 1.000000
10.351906 -2.598299 -1.866577 5.000000
9.223639 -7.268722 -1.828485 8.000000
5.910740 9.411576 -0.601897 1.000000
15.064695 10.261034 -2.118641 6.000000
12.109663 2.198515 -1.942729 1.000000
10.370922 -2.562702 -1.868300 4.000000
9.178922 -7.179101 -1.824809 9.000000
5.825422 9.348018 -0.583033 1.000000
15.180017 10.421239 -2.123933 4.000000
12.100799 2.244935 -1.944878 1.000000
10.394408 -2.526197 -1.874618 3.000000
9.168796 -7.117175 -1.827977 7.000000
5.887718 9.521873 -0.576917 1.000000
15.216768 10.528733 -2.118099 2.000000
12.219999 2.313411 -1.956487 1.000000
10.354516 -2.480166 -1.867846 1.000000
9.138783 -7.040351 -1.827154 8.000000
15.460459 10.781355 -2.144175 5.000000
12.114778 2.339518 -1.938793 1.000000
10.363329 -2.440240 -1.871562 1.000000
9.151488 -6.996841 -1.834862 8.000000
6.294415 10.340295 -0.594172 1.000000
15.697258 11.028125 -2.158604 6.000000
12.145140 2.393790 -1.940682 1.000000
10.368024 -2.395553 -1.874411 6.000000
9.094401 -6.898025 -1.828307 10.000000
6.072752 10.055009 -0.562173 1.000000
15.986447 11.319035 -2.190215 6.000000
12.238987 2.458922 -1.950408 1.000000
10.351905 -2.355695 -1.870074 2.000000
9.071527 -6.828443 -1.824763 8.000000
16.125017 11.506110 -2.190462 6.000000
12.298759 2.515626 -1.956832 1.000000
10.403482 -2.325454 -1.881602 1.000000
9.083351 -6.785330 -1.832278 9.000000
16.213099 11.658877 -2.194106 13.000000
12.308239 2.569083 -1.957718 1.000000
10.363844 -2.276743 -1.872911 3.000000
9.059809 -6.716149 -1.828611 12.000000
16.465616 11.932261 -2.216225 10.000000
12.279623 2.612355 -1.950259 1.000000
10.328235 -2.227383 -1.870622 3.000000
8.995111 -6.617239 -1.824649 8.000000
5.346335 9.141829 -0.451275 1.000000
16.533825 12.069938 -2.212989 13.000000
12.300268 2.663907 -1.946078 1.000000
10.327077 -2.185670 -1.868878 3.000000
9.007723 -6.573362 -1.828069 9.000000
5.304636 9.143620 -0.437510 1.000000
16.507353 12.143607 -2.193679 31.000000
12.343835 2.720745 -1.952277 1.000000
10.372941 -2.155686 -1.879550 1.000000
8.946548 -6.478601 -1.820723 9.000000
5.272987 9.162602 -0.422749 1.000000
16.588085 12.296954 -2.192158 6.000000
12.436858 2.786805 -1.959406 6.000000
10.318750 -2.103125 -1.866358 1.000000
8.941416 -6.425059 -1.820796 18.000000
17.050676 12.736979 -2.236909 6.000000
12.489869 2.846800 -1.964812 6.000000
10.325749 -2.065163 -1.870034 3.000000
8.915416 -6.356957 -1.820563 20.000000
17.155317 12.908691 -2.230019 5.000000
12.485500 2.893984 -1.956623 6.000000
10.328772 -2.024553 -1.869159 4.000000
8.878581 -6.279408 -1.813956 32.000000
17.073765 12.945607 -2.206672 3.000000
12.556413 2.961269 -1.967199 6.000000
10.355487 -1.988530 -1.874497 2.000000
8.880055 -6.231750 -1.819311 32.000000
17.956903 13.719160 -2.303382 10.000000
12.647759 3.031789 -1.973948 6.000000
10.343354 -1.946919 -1.870996 1.000000
8.902054 -6.198617 -1.824991 37.000000
12.666718 3.085471 -1.969348 6.000000
10.433380 -1.922414 -1.884022 1.000000
8.880377 -6.133027 -1.821517 39.000000
18.149263 13.966724 -2.285844 29.000000
12.794294 3.116547 -1.970381 6.000000
10.566383 -1.946920 -1.894502 1.000000
8.930632 -6.167734 -1.820138 39.000000
18.111486 13.827252 -2.278399 10.000000
12.791739 3.063942 -1.968161 6.000000
10.589512 -1.991340 -1.892189 1.000000
8.950005 -6.229686 -1.816989 33.000000
17.056183 12.927589 -2.155045 4.000000
12.861311 3.030806 -1.972427 6.000000
10.617265 -2.038798 -1.888809 1.000000
8.957191 -6.283549 -1.809375 22.000000
17.085512 12.846828 -2.156271 5.000000
12.843947 2.974705 -1.967998 6.000000
10.673168 -2.092058 -1.894301 2.000000
9.056504 -6.402875 -1.822235 9.000000
17.299528 12.913468 -2.204225 5.000000
12.853759 2.927381 -1.974901 6.000000
10.685399 -2.135154 -1.893929 1.000000
9.102586 -6.485623 -1.826262 10.000000
17.337820 12.843367 -2.214507 5.000000
12.849925 2.877008 -1.972679 6.000000
10.716386 -2.184169 -1.896961 4.000000
9.128151 -6.554412 -1.826132 8.000000
5.285807 9.103842 -0.408090 1.000000
17.547825 12.899591 -2.250643 6.000000
12.875366 2.830833 -1.974901 6.000000
10.685160 -2.218626 -1.886975 4.000000
9.205585 -6.661284 -1.834283 9.000000
5.387959 9.205627 -0.426545 1.000000
17.786888 12.975178 -2.286841 6.000000
12.836649 2.773037 -1.972078 6.000000
10.725410 -2.269975 -1.891667 1.000000
9.210320 -6.716282 -1.829914 12.000000
5.320788 9.018501 -0.431547 1.000000
17.393631 12.590890 -2.249274 6.000000
12.874933 2.734303 -1.978830 6.000000
10.712524 -2.308303 -1.888905 1.000000
9.222734 -6.777251 -1.827060 9.000000
17.082676 12.270627 -2.221790 6.000000
12.885806 2.682598 -1.978830 6.000000
10.777067 -2.365548 -1.893942 1.000000
9.266832 -6.862102 -1.828385 8.000000
6.255567 10.431622 -0.528943 1.000000
17.057755 12.158197 -2.223829 18.000000
12.851735 2.624060 -1.976719 6.000000
10.750052 -2.400951 -1.884791 3.000000
9.316189 -6.956728 -1.829059 9.000000
6.203753 10.263818 -0.536210 1.000000
17.110996 12.106296 -2.240047 30.000000
12.865776 2.577842 -1.979754 6.000000
10.770230 -2.448913 -1.885996 3.000000
9.321723 -7.009130 -1.826356 10.000000
6.208064 10.190428 -0.546026 1.000000
17.190266 12.068079 -2.263158 12.000000
12.869845 2.531962 -1.979008 6.000000
10.775794 -2.493732 -1.884660 1.000000
9.351132 -7.087611 -1.826947 10.000000
6.418389 10.453372 -0.574185 1.000000
16.801041 11.703139 -2.217099 17.000000
12.782472 2.461516 -1.966361 6.000000
10.844637 -2.551575 -1.890320 1.000000
9.415926 -7.193812 -1.830164 9.000000
5.946302 9.605370 -0.542633 1.000000
16.916147 11.691468 -2.241145 6.000000
12.776159 2.411771 -1.968659 6.000000
10.835401 -2.593350 -1.886431 1.000000
9.438766 -7.263581 -1.831008 8.000000
6.005874 9.626354 -0.558894 1.000000
16.703133 11.454009 -2.225232 6.000000
12.774439 2.365296 -1.969429 6.000000
10.878836 -2.645940 -1.893659 1.000000
9.471929 -7.344533 -1.831946 6.000000
5.975383 9.503455 -0.562787 1.000000
16.583786 11.283027 -2.214438 6.000000
12.729518 2.308756 -1.961186 6.000000
10.860304 -2.685642 -1.884181 1.000000
9.528509 -7.444487 -1.833038 9.000000
6.155088 9.713851 -0.592613 1.000000
16.318314 11.015132 -2.194455 6.000000
12.723350 2.257210 -1.961193 6.000000
10.917336 -2.742245 -1.895807 2.000000
9.532990 -7.504417 -1.832681 8.000000
6.008579 9.409821 -0.587065 1.000000
16.163572 10.824655 -2.178609 6.000000
12.731633 2.206001 -1.965704 6.000000
10.965341 -2.799107 -1.897872 3.000000
9.569154 -7.589858 -1.829710 6.000000
6.012908 9.340944 -0.597749 1.000000
15.941150 10.591275 -2.156913 6.000000
12.739671 2.157041 -1.967959 6.000000
10.941328 -2.835733 -1.891446 2.000000
9.578476 -7.660092 -1.826415 7.000000
6.194564 9.549736 -0.624445 1.000000
15.758436 10.386828 -2.143707 3.000000
12.547157 2.081668 -1.934872 14.000000
10.964381 -2.886681 -1.893265 2.000000
9.612047 -7.739339 -1.826694 8.000000
6.150961 9.410404 -0.630512 1.000000
15.741095 10.292839 -2.149502 3.000000
12.544631 2.031787 -1.937804 198.000000
11.003039 -2.935909 -1.897525 1.000000
9.715466 -7.881477 -1.840670 9.000000
6.164124 9.359044 -0.642244 1.000000
15.608991 10.128853 -2.139783 6.000000
12.527249 1.981880 -1.936249 32.000000
10.986523 -2.980854 -1.892729 1.000000
9.710985 -7.937034 -1.831904 8.000000
6.217336 9.364933 -0.656019 1.000000
15.489911 9.971090 -2.134725 3.000000
12.534432 1.933713 -1.938463 33.000000
11.014842 -3.031925 -1.891315 1.000000
9.755881 -8.033553 -1.832401 9.000000
6.074769 9.081237 -0.649108 1.000000
15.555025 9.932559 -2.145196 6.000000
12.575314 1.892858 -1.945970 28.000000
11.018008 -3.078356 -1.889771 4.000000
9.826627 -8.152430 -1.839913 21.000000
6.058563 8.988956 -0.657311 1.000000
15.489051 9.810700 -2.147342 6.000000
12.738634 1.867449 -1.972419 6.000000
11.068992 -3.136382 -1.896349 1.000000
9.851076 -8.233856 -1.838694 32.000000
6.148324 9.053782 -0.677038 1.000000
15.148791 9.517563 -2.114314 5.000000
12.656648 1.808069 -1.963253 6.000000
11.095754 -3.190041 -1.896810 1.000000
9.848561 -8.293258 -1.832421 11.000000
6.175426 9.022360 -0.687870 1.000000
15.187160 9.464211 -2.121147 4.000000
12.682430 1.764345 -1.968524 6.000000
11.127255 -3.243299 -1.900060 1.000000
9.864615 -8.368763 -1.829586 24.000000
6.169644 8.946749 -0.695170 1.000000
14.878403 9.196265 -2.085686 6.000000
12.620885 1.706411 -1.955664 6.000000
11.120087 -3.287587 -1.896821 1.000000
9.938437 -8.491228 -1.834803 22.000000
6.295629 9.064973 -0.717580 1.000000
14.859974 9.109772 -2.090751 2.000000
12.665915 1.665250 -1.963965 6.000000
11.123410 -3.332951 -1.891136 1.000000
9.946234 -8.561152 -1.828012 10.000000
6.280963 8.976812 -0.725775 1.000000
14.700833 8.938247 -2.078969 6.000000
12.691484 1.619063 -1.969237 6.000000
11.206516 -3.402663 -1.901078 1.000000
9.998551 -8.670184 -1.829330 7.000000
6.329247 8.972280 -0.740843 1.000000
14.706745 8.868176 -2.087360 6.000000
12.612941 1.562083 -1.962961 6.000000
11.216953 -3.452928 -1.905084 1.000000
10.050399 -8.786073 -1.835757 6.000000
6.406232 9.014444 -0.759740 1.000000
14.461029 8.647893 -2.059910 6.000000
12.599561 1.511329 -1.957694 6.000000
11.237840 -3.504501 -1.906583 1.000000
10.219509 -8.993871 -1.859980 6.000000
6.488135 9.059189 -0.777235 1.000000
14.435898 8.561189 -2.063740 6.000000
12.663575 1.471946 -1.969067 6.000000
11.287071 -3.567465 -1.906646 1.000000
10.303101 -9.134665 -1.864141 6.000000
6.522076 9.039755 -0.791202 1.000000
14.367555 8.449632 -2.061342 6.000000
12.614778 1.417203 -1.962888 6.000000
11.283957 -3.612023 -1.904101 1.000000
10.322977 -9.226565 -1.862121 6.000000
6.557388 9.025470 -0.803593 1.000000
14.332889 8.358693 -2.063721 6.000000
12.668669 1.376258 -1.972752 6.000000
11.322293 -3.672283 -1.908673 1.000000
10.286160 -9.255201 -1.848714 6.000000
6.594243 9.009890 -0.816004 1.000000
14.183223 8.208503 -2.049859 6.000000
12.575115 1.321698 -1.957454 1.000000
11.339150 -3.719353 -1.907175 1.000000
10.334393 -9.367370 -1.848676 6.000000
6.651875 9.015794 -0.832609 1.000000
14.180385 8.131046 -2.056306 6.000000
12.579979 1.271173 -1.959661 1.000000
11.357557 -3.775955 -1.908520 1.000000
10.387029 -9.481337 -1.851514 6.000000
6.690133 9.004988 -0.845469 1.000000
13.993229 7.955722 -2.036341 6.000000
12.594261 1.223783 -1.963401 6.000000
11.387377 -3.830063 -1.909316 1.000000
10.485012 -9.641462 -1.860093 6.000000
6.759914 9.032876 -0.860200 1.000000
13.932302 7.850449 -2.028745 6.000000
12.553637 1.177826 -1.958701 1.000000
11.397266 -3.879946 -1.909037 1.000000
10.592656 -9.812342 -1.872744 6.000000
6.766668 8.976411 -0.872855 1.000000
13.878475 7.759597 -2.034070 6.000000
12.518360 1.126043 -1.954755 1.000000
11.439258 -3.943319 -1.912099 1.000000
10.684949 -9.970851 -1.879949 6.000000
6.850222 9.018295 -0.891295 1.000000
13.773784 7.628649 -2.025395 6.000000
12.537171 1.081428 -1.957060 1.000000
11.527951 -4.021227 -1.925007 1.000000
10.721797 -10.079008 -1.879867 6.000000
6.941702 9.066244 -0.912700 1.000000
13.604812 7.470035 -2.007525 6.000000
12.521554 1.027259 -1.956179 1.000000
11.531295 -4.074388 -1.921718 3.000000
10.758285 -10.194965 -1.877652 6.000000
6.974184 9.046360 -0.925061 1.000000
13.675035 7.443491 -2.019373 6.000000
12.574146 0.985191 -1.966073 1.000000
11.511860 -4.117310 -1.914541 1.000000
10.885828 -10.380936 -1.886926 7.000000
7.014189 9.032868 -0.940244 1.000000
13.602113 7.345433 -2.018716 6.000000
12.572582 0.940924 -1.965303 1.000000
11.545231 -4.172479 -1.917992 1.000000
10.880857 -10.452610 -1.881994 7.000000
7.051179 9.008882 -0.954632 1.000000
13.464128 7.201259 -2.004774 6.000000
12.561132 0.889376 -1.965191 1.000000
11.584265 -4.241531 -1.920794 6.000000
10.950727 -10.604582 -1.885217 7.000000
7.108251 9.020011 -0.968396 1.000000
13.427876 7.118699 -2.006272 6.000000
12.480367 0.839885 -1.952084 1.000000
11.608149 -4.293984 -1.920468 1.000000
11.037496 -10.759763 -1.892631 7.000000
13.364881 7.022672 -2.003725 6.000000
12.503017 0.791005 -1.957355 1.000000
11.647916 -4.361930 -1.918815 1.000000
11.114857 -10.911105 -1.893103 6.000000
7.420117 9.278401 -1.028965 1.000000
13.306078 6.929658 -1.999082 6.000000
12.485979 0.746178 -1.954267 4.000000
11.706565 -4.430549 -1.931012 4.000000
11.096905 -10.973638 -1.885827 6.000000
7.520516 9.336939 -1.051012 1.000000
13.218859 6.825684 -1.992958 6.000000
12.488289 0.700390 -1.956450 1.000000
11.691190 -4.473786 -1.924458 1.000000
11.191656 -11.148765 -1.892079 5.000000
7.553990 9.308453 -1.063566 1.000000
13.187553 6.742605 -1.994669 6.000000
12.505686 0.653207 -1.958768 1.000000
11.775468 -4.560311 -1.934561 1.000000
11.204914 -11.244095 -1.881606 7.000000
7.610820 9.311861 -1.081795 1.000000
13.173554 6.680435 -1.997064 6.000000
12.487918 0.606392 -1.957860 1.000000
11.839299 -4.632621 -1.936339 6.000000
11.271766 -11.390426 -1.882482 7.000000
7.644175 9.283024 -1.094388 1.000000
13.026337 6.540174 -1.981113 6.000000
12.470414 0.557555 -1.954766 1.000000
11.859328 -4.690652 -1.940136 6.000000
11.418795 -11.623907 -1.902608 5.000000
7.580444 9.140424 -1.093229 1.000000
13.031235 6.482942 -1.988581 6.000000
12.486840 0.512438 -1.959268 1.000000
11.865949 -4.743639 -1.937205 6.000000
11.415643 -11.706216 -1.891865 5.000000
7.622485 9.122858 -1.111205 1.000000
12.993976 6.410739 -1.987369 6.000000
12.547263 0.466666 -1.972944 1.000000
11.926507 -4.821043 -1.943210 8.000000
11.456954 -11.835054 -1.888409 7.000000
7.535193 8.954672 -1.102158 1.000000
12.889284 6.294880 -1.977680 6.000000
12.455775 0.417553 -1.953847 1.000000
11.917150 -4.873007 -1.937962 10.000000
11.602629 -12.069557 -1.904552 5.000000
7.689268 9.070082 -1.136576 1.000000
12.829381 6.210255 -1.977827 6.000000
12.515852 0.371462 -1.967511 1.000000
11.933857 -4.926093 -1.936412 14.000000
11.587126 -12.142194 -1.891498 7.000000
7.755651 9.083911 -1.154318 1.000000
12.804146 6.134719 -1.977702 6.000000
12.437784 0.323523 -1.957264 1.000000
11.961426 -4.991313 -1.937042 23.000000
11.656673 -12.305058 -1.892228 6.000000
7.807571 9.077139 -1.169743 1.000000
12.695564 6.025582 -1.967508 5.000000
12.424121 0.275434 -1.954933 1.000000
11.960450 -5.047373 -1.933201 24.000000
11.747072 -12.496243 -1.893465 3.000000
7.838402 9.048899 -1.182280 1.000000
12.710685 5.981194 -1.969267 5.000000
12.450421 0.230365 -1.954471 1.000000
11.935476 -5.083528 -1.924936 38.000000
11.784714 -12.619884 -1.891018 1.000000
7.854477 9.000585 -1.190249 1.000000
12.601133 5.873327 -1.958843 5.000000
12.406763 0.181906 -1.947494 1.000000
11.916793 -5.129717 -1.918143 67.000000
11.935719 -12.875875 -1.904204 6.000000
8.031113 9.135191 -1.224799 1.000000
12.615699 5.815917 -1.964722 5.000000
12.432043 0.136703 -1.951370 1.000000
11.897330 -5.178045 -1.909085 102.000000
12.013482 -13.050842 -1.901943 6.000000
8.088332 9.135769 -1.243715 1.000000
12.588329 5.752760 -1.969799 5.000000
12.431794 0.088962 -1.955710 1.000000
11.948951 -5.247710 -1.913170 72.000000
12.053884 -13.191436 -1.900209 1.000000
8.104339 9.086527 -1.253931 1.000000
12.546925 5.673064 -1.969550 5.000000
12.461673 0.043500 -1.960372 1.000000
12.007434 -5.325977 -1.918621 67.000000
