VERSION .7
FIELDS x y z intensity
SIZE 4 4 4 4
TYPE F F F F
COUNT 1 1 1 1
WIDTH 1229
HEIGHT 1
VIEWPOINT 0 0 0 1 0 0 0
POINTS 1229
DATA ascii
10.678005 3.325828 -1.015852 241.000000
20.437647 -2.393639 -1.670073 7.000000
18.146132 -10.723044 -1.255933 9.000000
6.064171 -8.420565 -0.253606 23.000000
10.698734 3.377404 -1.015102 235.000000
18.188858 -10.658543 -1.270948 8.000000
6.152066 -8.473811 -0.268721 168.000000
10.680853 3.418968 -1.008779 229.000000
18.217777 -10.577476 -1.284753 8.000000
6.249331 -8.544885 -0.280909 38.000000
10.684004 3.459078 -1.006203 226.000000
18.256098 -10.518932 -1.303444 7.000000
6.321882 -8.577927 -0.297645 17.000000
10.694916 3.505970 -1.008434 229.000000
22.619944 -2.313606 -1.873396 4.000000
18.487869 -10.553849 -1.335606 9.000000
6.163940 -8.302779 -0.297873 220.000000
10.677602 3.543688 -1.004061 224.000000
23.338156 -2.296551 -1.928013 6.000000
19.004307 -10.765259 -1.377983 9.000000
10.679201 3.587724 -0.999496 226.000000
27.419388 -2.596724 -2.264371 7.000000
19.494728 -10.939931 -1.426016 6.000000
6.099493 -8.094299 -0.313198 14.000000
18.765436 17.340517 -2.015366 3.000000
10.698682 3.640045 -0.998644 171.000000
6.153251 -8.109548 -0.327025 23.000000
18.664127 17.386320 -1.989569 7.000000
10.713854 3.689076 -0.997330 1.000000
6.080912 -7.950626 -0.332049 17.000000
18.767633 17.599340 -1.984225 7.000000
10.738382 3.741602 -0.994883 1.000000
28.864853 -2.413703 -2.401765 4.000000
6.213778 -8.068755 -0.346739 249.000000
18.676348 17.655170 -1.959491 9.000000
10.753109 3.790987 -0.993518 1.000000
28.599903 -2.286022 -2.384048 8.000000
6.232232 -8.028757 -0.356702 35.000000
18.709227 17.804106 -1.946457 9.000000
10.743997 3.832105 -0.991961 1.000000
6.427783 -8.224228 -0.379100 31.000000
18.630667 17.859926 -1.922432 24.000000
10.758319 3.881719 -0.990567 1.000000
6.261497 -7.954086 -0.378268 32.000000
18.522293 17.880524 -1.904124 11.000000
6.290400 -7.930821 -0.387102 37.000000
18.387457 17.893513 -1.870619 10.000000
6.102235 -0.372160 -0.512297 7.000000
6.304907 -7.886721 -0.398483 19.000000
18.268616 17.896196 -1.842121 9.000000
6.063613 -0.348564 -0.510016 10.000000
6.343335 -7.881064 -0.408100 25.000000
18.200487 17.960655 -1.819449 8.000000
6.104588 -0.326338 -0.515498 9.000000
6.439698 -7.943857 -0.425028 186.000000
18.149414 18.035734 -1.798185 8.000000
6.487493 -7.943124 -0.435224 32.000000
18.200623 18.219690 -1.787279 7.000000
6.489029 -7.883029 -0.445790 30.000000
18.366852 18.521372 -1.782812 7.000000
6.501735 -7.839727 -0.451810 31.000000
19.042112 19.357109 -1.832080 7.000000
6.487078 -7.766719 -0.461293 34.000000
19.013573 19.456739 -1.816454 7.000000
18.856462 19.444773 -1.784823 7.000000
6.337854 -3.054291 -0.525291 1.000000
18.775642 19.490345 -1.759563 7.000000
6.357226 -3.036328 -0.529725 7.000000
6.687126 -7.837924 -0.498491 5.000000
18.553606 19.401674 -1.717178 7.000000
6.395101 -3.025682 -0.535678 8.000000
18.400888 19.376940 -1.685880 6.000000
6.432979 -3.014797 -0.541663 16.000000
6.735254 -7.775390 -0.519312 7.000000
18.214361 19.321850 -1.652004 7.000000
6.492768 -3.015220 -0.552092 20.000000
6.779822 -7.769118 -0.529571 61.000000
18.165052 19.411596 -1.626028 6.000000
6.776803 -7.711158 -0.539805 169.000000
17.986025 19.355268 -1.592898 7.000000
6.848403 -7.740711 -0.550697 54.000000
17.780754 19.289074 -1.553993 6.000000
6.888937 -7.723828 -0.564140 40.000000
17.717598 19.348921 -1.531099 6.000000
17.560171 19.311913 -1.500456 6.000000
17.450176 19.332832 -1.469740 7.000000
17.316832 19.313484 -1.441188 7.000000
17.160458 19.280790 -1.411452 7.000000
6.896340 -2.961476 -0.609138 1.000000
17.051037 19.293037 -1.380941 7.000000
6.911440 -2.938004 -0.613474 1.000000
7.025765 -7.547405 -0.619834 212.000000
16.915144 19.281235 -1.353202 7.000000
7.045880 -2.964710 -0.628468 1.000000
6.949299 -7.413205 -0.619701 33.000000
16.750261 19.228266 -1.318596 7.000000
6.918395 -2.881266 -0.620102 1.000000
6.989679 -7.401722 -0.631579 74.000000
16.621481 19.222233 -1.296208 7.000000
7.281102 -3.020399 -0.656389 1.000000
6.961348 -7.317803 -0.635440 33.000000
16.503147 19.227369 -1.261431 7.000000
6.949759 -7.252207 -0.640752 37.000000
16.378555 19.203957 -1.234434 7.000000
7.065633 -7.326907 -0.658230 26.000000
16.189264 19.137074 -1.199636 6.000000
7.136237 -7.340916 -0.672823 113.000000
16.113396 19.182791 -1.177057 7.000000
7.260417 -7.414093 -0.691060 32.000000
15.954199 19.135239 -1.144398 7.000000
7.344073 -7.449939 -0.705837 7.000000
15.849685 19.152170 -1.115842 7.000000
7.372188 -7.421245 -0.714966 9.000000
15.764318 19.184967 -1.092828 7.000000
7.209377 -7.209377 -0.705793 36.000000
15.590422 19.115746 -1.059742 6.000000
7.248354 -7.190392 -0.717521 78.000000
15.436263 19.062199 -1.028047 6.000000
7.673015 -2.903983 -0.712000 1.000000
7.218424 -7.113365 -0.721108 24.000000
15.426640 19.180014 -1.014423 3.000000
7.644704 -2.864322 -0.715666 1.000000
7.260488 -7.105032 -0.733521 6.000000
23.204208 29.057009 -1.487015 9.000000
16.666937 -6.168594 -1.557960 8.000000
7.361227 -7.150984 -0.748248 29.000000
23.206808 29.279705 -1.467925 9.000000
16.849697 -6.172783 -1.588903 8.000000
7.358104 -7.095717 -0.756044 29.000000
23.158081 29.428671 -1.425511 21.000000
17.009087 -6.157203 -1.601692 10.000000
7.383678 -7.068335 -0.763180 9.000000
21.144152 27.073019 -1.271618 3.000000
17.204245 -6.156623 -1.627577 8.000000
7.599340 -7.224119 -0.792061 1.000000
20.945969 27.032598 -1.230073 8.000000
17.402020 -6.148709 -1.650432 8.000000
16.412369 -15.477054 -1.727893 7.000000
20.759340 26.976027 -1.194618 11.000000
17.633314 -6.164736 -1.676993 4.000000
20.614225 26.981802 -1.156079 8.000000
11.820031 -4.079196 -1.129163 1.000000
20.558184 27.113876 -1.122829 8.000000
11.814271 -4.033414 -1.131722 1.000000
9.105110 -8.404897 -0.979572 32.000000
20.542253 27.290207 -1.091348 8.000000
11.810233 -3.981468 -1.136442 1.000000
9.080101 -8.320379 -0.984409 32.000000
20.493608 27.434280 -1.058203 6.000000
11.721803 -3.899325 -1.130765 1.000000
9.118588 -8.291461 -0.998113 23.000000
23.839777 32.147148 -1.194822 10.000000
11.696455 -3.847861 -1.131418 1.000000
9.186194 -8.297451 -1.011195 10.000000
23.731409 32.247375 -1.153342 10.000000
11.658017 -3.787919 -1.130664 3.000000
16.587851 -14.872977 -1.839512 7.000000
23.589794 32.290455 -1.117005 9.000000
11.661776 -3.741941 -1.136158 7.000000
16.614990 -14.787818 -1.856043 8.000000
23.630598 32.596455 -1.068330 5.000000
4.831943 2.850778 -0.331344 1.000000
11.656050 -3.693039 -1.138579 3.000000
16.660391 -14.719147 -1.874613 6.000000
23.271963 32.338699 -1.022421 1.000000
6.070852 0.728204 -0.502693 1.000000
11.636503 -3.637739 -1.139590 1.000000
16.739212 -14.679893 -1.896984 7.000000
23.191648 32.477509 -0.982298 1.000000
4.760393 2.854681 -0.321025 1.000000
6.053392 0.748626 -0.500399 8.000000
11.611323 -3.583204 -1.140109 5.000000
16.743053 -14.575048 -1.906963 7.000000
27.420439 38.684311 -1.117440 1.000000
6.080355 0.774597 -0.501782 8.000000
11.595805 -3.531919 -1.137306 15.000000
16.799120 -14.515967 -1.922892 7.000000
27.213985 38.678516 -1.064970 18.000000
6.102267 0.800128 -0.502748 8.000000
11.555470 -3.473404 -1.140593 246.000000
16.749865 -14.371590 -1.934787 7.000000
27.086967 38.799389 -1.015981 6.000000
6.459910 0.871118 -0.531327 5.000000
11.553425 -3.426667 -1.143388 227.000000
16.831989 -14.335280 -1.949857 7.000000
19.914619 2.678406 -1.630839 6.000000
11.566306 -3.382225 -1.145491 220.000000
16.848881 -14.243449 -1.965158 8.000000
24.306101 35.352375 -0.831250 1.000000
19.845430 2.743191 -1.625985 35.000000
11.559111 -3.334180 -1.147798 216.000000
16.907282 -14.186894 -1.985306 7.000000
24.160484 35.404671 -0.785590 11.000000
19.839684 2.820072 -1.626390 33.000000
11.542143 -3.283510 -1.149137 214.000000
16.950176 -14.117343 -2.003662 7.000000
24.014914 35.456547 -0.725064 10.000000
19.958275 2.911597 -1.626345 7.000000
11.553905 -3.241130 -1.151232 220.000000
16.931644 -13.997122 -2.010857 7.000000
19.648108 2.932924 -1.598364 1.000000
11.541336 -3.192020 -1.153024 210.000000
16.962225 -13.918060 -2.027727 7.000000
19.843357 3.043549 -1.611702 1.000000
11.524307 -3.139726 -1.154318 17.000000
16.980864 -13.829525 -2.043158 7.000000
19.645248 3.086903 -1.593027 8.000000
11.593024 -3.112848 -1.164280 5.000000
17.057423 -13.788200 -2.061722 7.000000
19.664703 3.156816 -1.591946 1.000000
11.575097 -3.062595 -1.165563 10.000000
8.203925 -6.581992 -0.996090 5.000000
11.576219 -3.017537 -1.168771 21.000000
8.270004 -6.585331 -1.012347 8.000000
25.231739 39.032200 -0.486729 8.000000
19.695618 3.313588 -1.582386 1.000000
11.587721 -2.973065 -1.168771 14.000000
8.285858 -6.548474 -1.016923 9.000000
19.816246 3.408615 -1.589539 1.000000
11.578845 -2.925598 -1.170995 17.000000
8.262254 -6.480763 -1.018504 10.000000
21.364033 33.560658 -0.326355 10.000000
19.818893 3.483907 -1.583697 1.000000
11.589292 -2.883090 -1.173079 25.000000
8.269541 -6.437662 -1.025719 17.000000
21.112942 33.436119 -0.276074 9.000000
11.585280 -2.837043 -1.171613 25.000000
8.300529 -6.413064 -1.032185 18.000000
21.066353 33.595669 -0.242237 8.000000
11.600529 -2.793607 -1.176267 31.000000
8.351045 -6.403351 -1.042960 10.000000
20.903023 33.621338 -0.193472 9.000000
11.591321 -2.746481 -1.174305 28.000000
8.377981 -6.375382 -1.048965 13.000000
20.865032 33.809761 -0.152552 5.000000
13.470546 2.572081 -1.062451 3.000000
11.644723 -2.714097 -1.180806 8.000000
8.444229 -6.377058 -1.063653 18.000000
13.030959 2.537683 -1.021514 17.000000
11.649341 -2.670195 -1.184487 10.000000
8.490833 -6.363518 -1.074062 9.000000
13.061039 2.593263 -1.019934 1.000000
11.673666 -2.628633 -1.190143 8.000000
12.665146 2.565245 -0.987513 1.000000
11.736455 -2.597611 -1.197685 1.000000
12.475336 2.574436 -0.968970 1.000000
11.740625 -2.553432 -1.201383 3.000000
21.893133 36.916256 0.082400 9.000000
12.149164 2.553587 -0.937819 1.000000
11.827958 -2.527059 -1.207232 1.000000
4.599250 3.351372 -0.219612 6.000000
12.013278 2.571038 -0.923738 1.000000
11.817683 -2.477454 -1.209460 1.000000
4.599140 3.377169 -0.216207 3.000000
11.857780 2.583246 -0.910373 1.000000
11.933681 -2.456145 -1.222550 1.000000
4.602496 3.389534 -0.215588 4.000000
11.693072 2.592292 -0.890043 1.000000
11.986492 -2.421255 -1.227043 1.000000
4.606867 3.417620 -0.210335 1.000000
12.097980 -2.397659 -1.235373 1.000000
11.475234 2.632396 -0.864577 1.000000
12.175044 -2.364384 -1.246680 1.000000
4.737666 3.568791 -0.206093 1.000000
11.286263 2.632626 -0.844960 1.000000
12.325571 -2.346770 -1.258992 1.000000
23.474518 41.916771 0.503117 178.000000
4.812930 3.651888 -0.203586 1.000000
11.170355 2.648795 -0.828947 1.000000
23.335028 42.011002 0.561987 244.000000
11.050546 2.659122 -0.812730 1.000000
12.783526 -2.334687 -1.301652 1.000000
11.124242 2.676855 -0.804101 1.000000
23.488850 41.925190 0.561987 225.000000
11.172943 2.645290 -0.804901 1.000000
12.526610 -2.342029 -1.251773 1.000000
23.689468 41.939285 0.504426 8.000000
11.289157 2.629146 -0.816639 1.000000
12.391894 -2.359398 -1.236863 1.000000
12.251483 -2.383666 -1.212798 1.000000
12.155199 -2.413409 -1.195443 1.000000
11.736784 2.595536 -0.844761 1.000000
12.048914 -2.438242 -1.183695 1.000000
4.757619 3.449006 -0.209311 1.000000
11.945903 2.595893 -0.861267 1.000000
12.001102 -2.474389 -1.177722 1.000000
12.076380 2.582338 -0.870051 1.000000
11.866973 -2.487787 -1.156821 1.000000
21.891722 36.899193 0.202184 7.000000
12.227166 2.567754 -0.882422 1.000000
11.784517 -2.517777 -1.147594 1.000000
19.118124 31.969378 0.136528 28.000000
12.495391 2.576301 -0.901092 1.000000
11.766068 -2.558965 -1.140342 1.000000
19.206425 31.863997 0.103896 87.000000
12.662364 2.555480 -0.914620 1.000000
11.726928 -2.599797 -1.133320 3.000000
19.351694 31.840464 0.065031 53.000000
13.076497 2.593960 -0.948583 1.000000
11.684633 -2.631103 -1.125852 5.000000
8.606989 -6.396776 -1.049584 24.000000
13.071067 2.543126 -0.949843 1.000000
11.669230 -2.679042 -1.119115 11.000000
8.572265 -6.419877 -1.038777 19.000000
20.869106 33.789963 -0.006932 1.000000
13.575266 2.589621 -0.983361 1.000000
11.655813 -2.716682 -1.114472 17.000000
8.549397 -6.451796 -1.029431 13.000000
20.983065 33.736946 -0.048539 9.000000
11.636655 -2.757223 -1.107283 32.000000
8.578055 -6.522904 -1.024365 34.000000
21.117723 33.664536 -0.090167 10.000000
19.844358 3.627803 -1.446036 5.000000
11.625493 -2.803913 -1.107283 20.000000
8.639131 -6.624248 -1.029074 139.000000
21.208839 33.536102 -0.131584 10.000000
19.719080 3.537364 -1.432530 83.000000
11.611547 -2.843476 -1.098477 18.000000
8.669190 -6.693064 -1.023723 19.000000
21.354305 33.532459 -0.166525 10.000000
19.701948 3.459805 -1.437373 83.000000
11.606065 -2.887263 -1.096847 13.000000
8.723756 -6.786369 -1.025313 1.000000
19.739416 3.388305 -1.442660 29.000000
11.628541 -2.942473 -1.095857 20.000000
17.147478 -13.450172 -2.002513 7.000000
19.766205 3.318369 -1.447236 4.000000
11.600164 -2.976258 -1.085676 8.000000
17.116142 -13.517514 -1.981047 7.000000
19.896095 3.265242 -1.459397 1.000000
11.598126 -3.025409 -1.082395 14.000000
17.090088 -13.608685 -1.968962 8.000000
19.854013 3.183652 -1.451917 4.000000
11.621377 -3.074841 -1.083445 7.000000
17.053970 -13.672583 -1.950785 8.000000
19.736948 3.090724 -1.449528 16.000000
11.610394 -3.117512 -1.079249 8.000000
16.993176 -13.726461 -1.934202 8.000000
19.905640 3.042435 -1.464621 6.000000
11.556007 -3.148363 -1.071044 171.000000
16.994276 -13.830584 -1.920815 8.000000
19.778301 2.948829 -1.457956 4.000000
11.568751 -3.197429 -1.069082 175.000000
17.009985 -13.947317 -1.912881 8.000000
19.660419 2.857633 -1.451970 2.000000
11.576853 -3.245388 -1.062462 177.000000
16.960287 -14.010838 -1.889845 6.000000
19.789495 2.798845 -1.464205 1.000000
11.559516 -3.288453 -1.062022 179.000000
16.921318 -14.083306 -1.875760 7.000000
19.932747 2.744625 -1.477581 3.000000
11.572024 -3.337905 -1.055815 212.000000
16.893990 -14.165694 -1.855220 8.000000
20.164822 2.701309 -1.497610 1.000000
11.564670 -3.381746 -1.054149 166.000000
16.903843 -14.279798 -1.846481 7.000000
27.171749 38.891895 -0.786715 4.000000
6.327593 0.798239 -0.469471 3.000000
11.552724 -3.424266 -1.047840 53.000000
16.875380 -14.362074 -1.829638 7.000000
27.226282 38.681648 -0.833929 27.000000
6.241304 0.764124 -0.463962 6.000000
11.573842 -3.476723 -1.046654 1.000000
16.788513 -14.389497 -1.806229 8.000000
27.413721 38.646233 -0.876688 4.000000
6.194467 0.735356 -0.461371 8.000000
11.623323 -3.538085 -1.048021 1.000000
16.778339 -14.487785 -1.791362 7.000000
4.806723 2.829117 -0.289376 1.000000
6.177305 0.710369 -0.459896 9.000000
11.638562 -3.591610 -1.046348 1.000000
16.770090 -14.598585 -1.777196 7.000000
23.551901 32.703613 -0.823087 3.000000
4.855783 2.834081 -0.293670 1.000000
11.635524 -3.637433 -1.038693 1.000000
16.670494 -14.609340 -1.748407 7.000000
23.603662 32.535397 -0.870052 5.000000
4.943701 2.861154 -0.303349 1.000000
11.641112 -3.686071 -1.040391 1.000000
16.683378 -14.739454 -1.744221 8.000000
23.654444 32.355232 -0.902540 9.000000
11.694286 -3.750122 -1.042047 1.000000
16.628088 -14.789077 -1.724021 8.000000
23.740084 32.235588 -0.936464 10.000000
11.747496 -3.814726 -1.039343 1.000000
16.556543 -14.834485 -1.698811 7.000000
23.857475 32.147556 -0.978387 8.000000
11.752712 -3.864095 -1.036701 1.000000
9.209759 -8.309984 -0.937065 28.000000
23.858191 31.915121 -1.015595 6.000000
11.772079 -3.918331 -1.033128 1.000000
9.124496 -8.293923 -0.920656 28.000000
20.606153 27.355221 -0.908777 8.000000
11.913106 -4.016149 -1.042431 1.000000
9.068882 -8.304277 -0.907319 35.000000
20.598207 27.146976 -0.939954 8.000000
11.813761 -4.030938 -1.030637 8.000000
9.079283 -8.375187 -0.900588 1.000000
20.660635 27.022989 -0.967984 8.000000
11.832388 -4.085772 -1.026963 1.000000
16.446720 -15.283236 -1.621163 7.000000
20.781652 26.985525 -1.004933 8.000000
17.707689 -6.187270 -1.532261 7.000000
16.430145 -15.391202 -1.601910 6.000000
20.925720 26.967554 -1.042890 8.000000
17.535042 -6.199154 -1.512743 6.000000
16.391842 -15.463103 -1.583665 7.000000
17.301777 -6.188120 -1.484881 10.000000
16.341274 -15.518134 -1.567932 8.000000
17.106064 -6.188932 -1.463630 8.000000
16.913321 -6.196092 -1.439763 9.000000
7.393697 -7.130041 -0.694839 11.000000
25.218685 31.556995 -1.396537 1.000000
16.705095 -6.186032 -1.417610 8.000000
7.360789 -7.150559 -0.685209 9.000000
25.284046 31.413317 -1.429309 1.000000
16.552076 -6.198448 -1.400334 9.000000
7.250614 -7.092892 -0.668363 1.000000
25.372875 31.288204 -1.470077 9.000000
16.371435 -6.199315 -1.377742 11.000000
7.704751 -7.592613 -0.703306 8.000000
25.310446 30.989475 -1.495148 4.000000
16.205181 -6.204367 -1.353467 9.000000
7.393110 -7.333991 -0.666125 6.000000
25.432373 30.906849 -1.537624 1.000000
16.034225 -6.206391 -1.332022 8.000000
25.557192 30.827553 -1.580326 1.000000
7.412877 -2.903582 -0.615380 3.000000
7.418555 -7.465314 -0.656615 8.000000
25.551682 30.602858 -1.608217 1.000000
7.383118 -2.926165 -0.606909 6.000000
7.403100 -7.509816 -0.644978 14.000000
16.082525 19.118921 -1.034019 3.000000
7.293377 -2.936356 -0.598069 6.000000
7.256174 -7.409760 -0.628864 94.000000
16.235762 19.164885 -1.061522 3.000000
7.224868 -2.946943 -0.589432 3.000000
7.330238 -7.540482 -0.628464 76.000000
16.490007 19.320971 -1.100156 7.000000
7.179966 -2.965234 -0.582729 5.000000
6.978456 -7.228927 -0.589904 34.000000
16.537283 19.233154 -1.120778 7.000000
7.137119 -2.978206 -0.576061 6.000000
6.880686 -7.185147 -0.575362 39.000000
16.714712 19.302797 -1.155022 6.000000
7.052917 -2.973468 -0.566111 5.000000
7.039517 -7.399976 -0.581750 67.000000
16.833755 19.310499 -1.181219 7.000000
7.014626 -2.987652 -0.561237 5.000000
6.993421 -7.403096 -0.571157 40.000000
16.933393 19.281662 -1.205686 7.000000
6.944525 -2.987912 -0.549868 7.000000
6.973543 -7.436466 -0.559262 32.000000
17.085897 19.305302 -1.238315 6.000000
6.897026 -2.997481 -0.545654 6.000000
7.158133 -7.694984 -0.569179 18.000000
17.139051 19.222935 -1.264086 6.000000
6.854289 -3.008822 -0.539201 8.000000
17.348764 19.321941 -1.297288 7.000000
6.798048 -3.013900 -0.529120 8.000000
17.565760 19.447233 -1.336706 7.000000
6.732859 -3.013164 -0.524861 8.000000
17.612762 19.356174 -1.353194 7.000000
6.703839 -3.029717 -0.519590 8.000000
17.766958 19.389233 -1.387447 6.000000
6.643023 -3.031601 -0.511892 9.000000
7.002401 -7.793351 -0.519749 27.000000
17.853840 19.341248 -1.416329 5.000000
6.618519 -3.049778 -0.507027 8.000000
6.937524 -7.778303 -0.507928 34.000000
17.991758 19.347889 -1.444759 7.000000
6.643717 -3.090961 -0.505967 5.000000
6.922560 -7.819029 -0.497966 24.000000
18.266275 19.492474 -1.488842 7.000000
6.727318 -3.159901 -0.510606 1.000000
6.787230 -7.725742 -0.483166 77.000000
18.391575 19.496201 -1.517240 7.000000
6.742143 -7.725942 -0.472810 43.000000
18.461805 19.427502 -1.545306 6.000000
6.707561 -7.743420 -0.461621 10.000000
18.656065 19.495190 -1.584213 7.000000
6.728816 -3.251388 -0.501609 1.000000
6.684008 -7.770876 -0.452902 9.000000
18.761065 19.461611 -1.610735 7.000000
6.779865 -3.306761 -0.502347 1.000000
6.613619 -7.746291 -0.439367 255.000000
18.886917 19.448990 -1.639152 5.000000
6.840728 -3.364573 -0.503672 1.000000
6.754766 -7.967765 -0.441456 255.000000
19.089680 19.514168 -1.674442 6.000000
6.651831 -7.904902 -0.425782 203.000000
19.215975 19.506590 -1.708321 7.000000
10.992320 4.334423 -0.896747 1.000000
6.825271 -3.419331 -0.496337 1.000000
6.562198 -7.856657 -0.412937 15.000000
19.289799 19.438505 -1.732531 6.000000
10.935014 4.261186 -0.894790 10.000000
6.861377 -3.470442 -0.494537 1.000000
6.630686 -7.995214 -0.408106 27.000000
19.486834 19.493639 -1.767950 7.000000
10.883239 4.199492 -0.899649 1.000000
6.773737 -3.455860 -0.487755 1.000000
6.728531 -8.173981 -0.408567 23.000000
19.659721 19.522947 -1.801411 9.000000
10.819089 4.129245 -0.897155 1.000000
6.186386 -0.359955 -0.474646 4.000000
6.810053 -3.505904 -0.487265 1.000000
6.516829 -7.973361 -0.386600 255.000000
19.804777 19.530161 -1.832821 10.000000
10.796399 4.075313 -0.900108 1.000000
6.185107 -0.382632 -0.473564 8.000000
6.946109 -3.602059 -0.492278 1.000000
6.494068 -8.005213 -0.377980 27.000000
19.928549 19.508665 -1.862090 7.000000
10.773610 4.021659 -0.901012 1.000000
6.248336 -0.409538 -0.478517 7.000000
6.726764 -3.527138 -0.471208 1.000000
6.378606 -7.919224 -0.360427 26.000000
19.114628 18.575186 -1.812376 7.000000
10.733101 3.957522 -0.902315 1.000000
6.301586 -0.436229 -0.481605 7.000000
6.846200 -3.621817 -0.479144 1.000000
6.315408 -7.899858 -0.349652 22.000000
19.102455 18.427706 -1.828077 7.000000
10.728357 3.911166 -0.906721 1.000000
6.742396 -0.492764 -0.515436 3.000000
6.229356 -7.853858 -0.336046 88.000000
18.949394 18.152779 -1.830364 7.000000
10.774844 3.883432 -0.917488 1.000000
6.249843 -7.933583 -0.329745 81.000000
18.935120 18.006479 -1.845513 7.000000
10.755171 3.833975 -0.918679 6.000000
6.273262 -8.023634 -0.321853 230.000000
19.003199 17.939043 -1.873233 10.000000
10.769713 3.790502 -0.928643 1.000000
6.217772 -8.010127 -0.313353 156.000000
19.122204 17.919300 -1.901465 17.000000
10.769107 3.745986 -0.931407 1.000000
6.139767 -7.969772 -0.300347 23.000000
19.237679 17.901798 -1.939000 10.000000
10.752889 3.700418 -0.932934 12.000000
6.054347 -7.915893 -0.290554 77.000000
19.371504 17.894299 -1.969005 15.000000
10.696420 3.633027 -0.932716 241.000000
6.125456 -8.075841 -0.281356 11.000000
19.454571 17.839325 -1.984687 8.000000
10.708099 3.597433 -0.936659 232.000000
27.402502 -2.595124 -2.098613 7.000000
19.556238 -10.978938 -1.301005 18.000000
19.415045 17.672527 -2.001684 7.000000
10.678339 3.543933 -0.936868 229.000000
19.068666 -10.797321 -1.267355 20.000000
6.546580 -8.754179 -0.284337 24.000000
10.696433 3.502333 -0.947106 227.000000
18.557873 -10.606698 -1.221254 19.000000
6.191365 -8.339720 -0.261102 9.000000
10.698798 3.461805 -0.950192 226.000000
18.254948 -10.514026 -1.192541 9.000000
6.264684 -8.503424 -0.254439 16.000000
10.677877 3.411853 -0.951158 227.000000
18.203697 -10.573548 -1.184345 8.000000
6.232141 -8.521380 -0.245106 39.000000
10.699494 3.375591 -0.955920 223.000000
18.223391 -10.670235 -1.173254 7.000000
6.180462 -8.516048 -0.233275 20.000000
10.706720 3.334772 -0.959410 220.000000
18.128975 -10.704370 -1.154950 8.000000
6.162503 -8.553958 -0.224518 35.000000
10.727751 3.298237 -0.968098 3.000000
18.137327 -10.799149 -1.146910 8.000000
6.128335 -8.572606 -0.213376 68.000000
10.768044 3.267477 -0.974604 4.000000
19.725933 -2.456995 -1.501640 1.000000
18.081182 -10.855682 -1.131102 9.000000
6.063784 -8.545200 -0.201189 37.000000
10.751551 3.217440 -0.975933 1.000000
19.765985 -2.535588 -1.508884 2.000000
17.990688 -10.891256 -1.113207 9.000000
5.980734 -8.493958 -0.188583 16.000000
10.781724 3.183460 -0.985515 3.000000
19.450361 -2.567596 -1.482055 6.000000
17.967863 -10.967629 -1.110590 9.000000
6.039922 -8.641943 -0.182195 220.000000
4.338343 3.649343 -0.487012 1.000000
10.792989 3.143826 -0.989439 1.000000
19.440821 -2.638868 -1.482055 7.000000
17.940956 -11.041667 -1.096673 10.000000
5.942787 -8.569685 -0.169288 35.000000
4.378698 3.654672 -0.495980 1.000000
10.799152 3.102727 -0.994884 5.000000
19.331532 -2.699669 -1.477929 8.000000
17.911438 -11.109890 -1.082479 9.000000
5.873250 -8.532866 -0.157304 127.000000
4.329107 3.588991 -0.493957 1.000000
10.776576 3.053527 -0.995707 4.000000
19.311892 -2.769125 -1.473769 10.000000
17.879385 -11.180960 -1.075631 10.000000
6.207298 -9.085927 -0.159415 35.000000
4.299661 3.538069 -0.493032 1.000000
10.753951 3.004580 -0.994556 8.000000
19.301867 -2.839926 -1.470364 20.000000
17.817795 -11.233498 -1.059653 10.000000
6.131968 -9.046672 -0.146884 23.000000
4.277551 3.493661 -0.493883 1.000000
10.783941 2.968367 -1.004140 8.000000
19.276283 -2.908381 -1.472639 21.000000
17.819267 -11.325909 -1.047425 14.000000
6.220434 -9.246521 -0.138103 20.000000
4.390498 3.559163 -0.511381 1.000000
10.784798 2.926122 -1.007146 6.000000
19.275604 -2.980576 -1.469988 9.000000
17.769531 -11.385951 -1.039562 12.000000
6.125505 -9.177867 -0.127111 33.000000
10.809199 2.890251 -1.016304 5.000000
19.235508 -3.046605 -1.460935 8.000000
17.724091 -11.448686 -1.024586 12.000000
10.814561 2.849255 -1.019756 7.000000
17.717953 -11.532570 -1.015457 17.000000
4.381483 3.472720 -0.520612 3.000000
10.834225 2.812011 -1.024571 2.000000
14.564013 -2.418892 -1.107483 2.000000
17.676153 -11.597818 -1.000698 19.000000
10.873015 2.777561 -1.037099 34.000000
14.186193 -2.409603 -1.081943 1.000000
17.654501 -11.676399 -0.998186 12.000000
12.960539 -20.026279 -0.183191 27.000000
10.897256 2.741246 -1.042402 25.000000
13.971974 -2.420914 -1.063723 2.000000
17.624628 -11.749723 -0.984105 11.000000
12.908758 -20.107456 -0.158476 19.000000
10.897210 2.698806 -1.045397 1.000000
13.648124 -2.421272 -1.037366 1.000000
9.916570 -6.663658 -0.546712 7.000000
5.872593 -9.218123 -0.061044 17.000000
10.983701 2.677538 -1.060707 1.000000
13.491974 -2.444610 -1.026171 1.000000
9.883966 -6.694464 -0.542088 3.000000
5.788045 -9.159321 -0.051059 19.000000
11.008245 2.638782 -1.064085 1.000000
13.257646 -2.449980 -1.011359 1.000000
9.852596 -6.723505 -0.533307 1.000000
5.726844 -9.132913 -0.039511 18.000000
11.114013 2.621098 -1.081415 1.000000
13.061701 -2.468034 -0.994826 1.000000
9.869196 -6.787984 -0.531359 1.000000
5.700229 -9.161365 -0.030131 20.000000
4.374950 3.288389 -0.544348 1.000000
11.205606 2.599381 -1.093445 1.000000
12.896933 -2.481224 -0.980593 1.000000
17.476471 -12.114825 -0.924727 10.000000
5.776912 -9.360925 -0.019199 13.000000
4.510054 3.364140 -0.566563 1.000000
11.321258 2.582519 -1.109934 1.000000
12.730847 -2.497693 -0.973209 1.000000
17.473164 -12.207593 -0.919459 10.000000
4.367463 3.247114 -0.549928 1.000000
11.359026 2.547371 -1.120916 1.000000
12.467534 -2.493522 -0.951541 1.000000
17.428566 -12.271736 -0.912019 23.000000
5.303841 -8.730149 0.001783 6.000000
4.317717 3.187951 -0.548009 1.000000
11.470601 2.526173 -1.133030 1.000000
12.365485 -2.520282 -0.944451 1.000000
17.410587 -12.350206 -0.898399 11.000000
5.178909 -8.595347 0.010509 5.000000
4.374236 3.202629 -0.558327 2.000000
11.586015 2.507102 -1.151868 1.000000
12.214747 -2.536223 -0.931452 1.000000
17.373962 -12.420199 -0.880182 19.000000
12.327005 -20.621422 0.050318 34.000000
4.332145 3.149798 -0.556342 1.000000
11.901191 2.529676 -1.188704 1.000000
12.243944 -2.591365 -0.934430 1.000000
17.340733 -12.492733 -0.873340 22.000000
12.221758 -20.608360 0.075272 25.000000
4.306891 3.107371 -0.557255 1.000000
11.977761 2.500103 -1.204053 1.000000
11.966124 -2.578424 -0.916091 1.000000
17.303280 -12.562343 -0.862552 10.000000
12.222145 -20.782249 0.096783 40.000000
12.591105 2.577713 -1.271499 1.000000
11.893279 -2.608379 -0.911240 1.000000
17.299891 -12.652334 -0.857086 16.000000
12.124285 -20.781519 0.117579 32.000000
12.623763 2.536227 -1.285197 1.000000
11.819912 -2.637732 -0.912730 1.000000
17.249502 -12.712783 -0.853146 18.000000
12.068021 -20.860363 0.134599 23.000000
11.803283 -2.636183 -0.932713 1.000000
17.254101 -12.720820 -0.890959 17.000000
12.028033 -20.791243 0.104807 10.000000
12.349008 2.528150 -1.280383 1.000000
11.807197 -2.591660 -0.942878 1.000000
17.271624 -12.636290 -0.911917 16.000000
12.100596 -20.749235 0.071269 24.000000
11.969131 2.498302 -1.241982 1.000000
11.874441 -2.560838 -0.956024 1.000000
17.318888 -12.578290 -0.934545 21.000000
12.193257 -20.741413 0.041993 33.000000
12.066724 2.564861 -1.255251 1.000000
11.893008 -2.519260 -0.963174 1.000000
17.343807 -12.499547 -0.955843 17.000000
12.259016 -20.679409 0.012587 63.000000
11.848186 2.563833 -1.233487 1.000000
12.038132 -2.503935 -0.982816 1.000000
17.366198 -12.423809 -0.977087 10.000000
12.456794 -20.846800 -0.021193 19.000000
11.488939 2.530212 -1.197044 1.000000
12.106091 -2.469614 -0.989753 1.000000
17.398838 -12.351006 -0.991298 11.000000
4.419189 3.298764 -0.579610 1.000000
11.362447 2.548138 -1.186929 1.000000
12.266043 -2.455450 -1.008680 1.000000
17.459175 -12.297847 -1.022045 10.000000
5.220331 -8.599455 -0.033360 6.000000
11.304937 2.578795 -1.177811 1.000000
12.381850 -2.431467 -1.026330 1.000000
17.472776 -12.207322 -1.038734 10.000000
5.262615 -8.591173 -0.047477 10.000000
4.289198 3.266310 -0.557136 1.000000
11.154882 2.587615 -1.163158 1.000000
12.473693 -2.402055 -1.035438 1.000000
17.533064 -12.154056 -1.058325 8.000000
5.794212 -9.385293 -0.065453 32.000000
4.245444 3.258821 -0.548354 1.000000
11.101947 2.618252 -1.156620 1.000000
12.707493 -2.398809 -1.056381 1.000000
9.896963 -6.812172 -0.604439 5.000000
5.700112 -9.161177 -0.075328 30.000000
4.292717 3.320183 -0.553156 1.000000
11.038992 2.648190 -1.147108 3.000000
12.891871 -2.384713 -1.080189 1.000000
9.831789 -6.711822 -0.611379 7.000000
5.700136 -9.090320 -0.086145 21.000000
4.284671 3.339130 -0.550819 1.000000
10.961548 2.672137 -1.140071 1.000000
13.282407 -2.406639 -1.119281 1.000000
9.861902 -6.684543 -0.620209 5.000000
5.708827 -9.037456 -0.098884 25.000000
4.237491 3.327397 -0.542518 1.000000
10.917878 2.703924 -1.136552 2.000000
13.330195 -2.364869 -1.124949 1.000000
9.923080 -6.673062 -0.635072 7.000000
5.789075 -9.087028 -0.114714 19.000000
4.346591 3.438895 -0.553211 1.000000
10.902976 2.744708 -1.132125 1.000000
13.559300 -2.354285 -1.148385 1.000000
9.982651 -6.655084 -0.645569 1.000000
5.845001 -9.104524 -0.126523 20.000000
4.260262 3.396055 -0.540923 1.000000
10.849844 2.773659 -1.123708 7.000000
13.759225 -2.334610 -1.171908 1.000000
17.802052 -11.782921 -1.163657 7.000000
4.290828 3.446217 -0.541555 1.000000
10.839796 2.813456 -1.121753 1.000000
13.997689 -2.327344 -1.194049 1.000000
17.791975 -11.687141 -1.182684 9.000000
4.294008 3.474738 -0.538693 1.000000
10.848654 2.858237 -1.123746 3.000000
14.226802 -2.311884 -1.220463 1.000000
17.813082 -11.607772 -1.196141 9.000000
5.639075 -8.587937 -0.154220 171.000000
4.294182 3.498507 -0.538215 1.000000
10.808764 2.892156 -1.120756 6.000000
14.574481 -2.313587 -1.252147 1.000000
17.850430 -11.539124 -1.214409 9.000000
5.717298 -8.637895 -0.169960 27.000000
4.276547 3.512795 -0.533868 1.000000
10.817673 2.937069 -1.118837 8.000000
17.914717 -11.483391 -1.234405 9.000000
5.708692 -8.553353 -0.179498 111.000000
10.783227 2.970196 -1.112450 5.000000
17.897041 -11.388504 -1.249153 9.000000
5.715909 -8.506170 -0.189619 61.000000
4.239922 3.535078 -0.522794 1.000000
10.801394 3.017836 -1.111504 5.000000
17.946363 -11.327691 -1.264558 9.000000
5.929153 -8.754030 -0.206704 16.000000
4.375873 3.675699 -0.537189 1.000000
10.761005 3.051144 -1.108546 2.000000
19.220819 -2.759490 -1.674943 10.000000
17.948935 -11.237531 -1.276665 9.000000
5.911808 -8.656646 -0.219581 36.000000
10.769250 3.096171 -1.106606 5.000000
19.181179 -2.682085 -1.674027 99.000000
17.980953 -11.166050 -1.287146 10.000000
5.914876 -8.599766 -0.227747 40.000000
10.758384 3.135783 -1.100739 5.000000
19.230078 -2.617099 -1.680858 130.000000
17.982744 -11.076042 -1.299159 10.000000
5.913402 -8.533670 -0.237420 45.000000
10.761134 3.179423 -1.102206 1.000000
19.268879 -2.550483 -1.686839 134.000000
18.015867 -11.009884 -1.320963 10.000000
5.945844 -8.516831 -0.250225 42.000000
10.740243 3.216099 -1.097314 1.000000
19.347841 -2.481948 -1.696296 11.000000
18.101810 -10.962846 -1.338860 9.000000
5.951028 -8.451769 -0.261649 27.000000
10.732943 3.258871 -1.093886 5.000000
19.543325 -2.437714 -1.723069 4.000000
18.085737 -10.871304 -1.353487 9.000000
5.957170 -8.398065 -0.273217 31.000000
10.740316 3.304153 -1.091905 1.000000
19.838627 -2.400738 -1.751832 3.000000
18.137503 -10.812121 -1.369189 8.000000
6.006591 -8.411611 -0.285102 32.000000
10.747503 3.349532 -1.089910 5.000000
20.297157 -2.380777 -1.795134 7.000000
6.104388 -8.476409 -0.299074 54.000000
10.711606 3.381468 -1.085540 1.000000
6.183643 -8.523561 -0.312534 74.000000
10.723203 3.428398 -1.084015 1.000000
21.407253 -2.352038 -1.903102 2.000000
6.064220 -8.294815 -0.315729 117.000000
10.719790 3.472731 -1.081041 6.000000
22.093918 -2.345559 -1.967277 3.000000
6.036698 -8.202955 -0.325408 38.000000
10.693337 3.507520 -1.073716 7.000000
22.677151 -2.319457 -2.022411 6.000000
6.139402 -8.275761 -0.340031 217.000000
10.705268 3.550796 -1.076090 11.000000
23.259724 -2.292932 -2.081825 9.000000
6.621204 -8.863640 -0.374752 27.000000
10.696002 3.595447 -1.072626 8.000000
10.692708 3.638012 -1.067659 8.000000
6.173768 -8.142488 -0.367548 29.000000
17.618431 16.412216 -1.983837 5.000000
10.740195 3.700243 -1.069811 1.000000
6.072897 -7.948768 -0.370295 32.000000
17.713505 16.634089 -1.980697 7.000000
10.736491 3.743044 -1.064795 1.000000
6.118293 -7.944766 -0.385222 72.000000
17.756783 16.785885 -1.978871 7.000000
10.708615 3.777402 -1.063396 1.000000
6.207290 -8.008161 -0.398095 16.000000
17.743553 16.896957 -1.958461 7.000000
10.751487 3.836892 -1.063014 1.000000
17.933922 17.198013 -1.964266 7.000000
10.747066 3.879779 -1.059952 1.000000
6.384110 -8.109844 -0.427171 92.000000
18.029739 17.417200 -1.959728 9.000000
6.376601 -8.045268 -0.433856 31.000000
18.238525 17.748581 -1.967137 8.000000
5.984390 -0.364973 -0.542469 9.000000
6.375883 -7.981215 -0.446008 27.000000
18.224413 17.865366 -1.950261 8.000000
5.950673 -0.343114 -0.540355 9.000000
6.389546 -7.944153 -0.454033 28.000000
18.117443 17.891191 -1.923470 10.000000
5.966920 -0.320023 -0.541710 9.000000
6.375665 -7.864867 -0.461521 37.000000
18.006330 17.906044 -1.900469 10.000000
7.031940 2.719042 -0.680825 1.000000
6.433034 -7.882060 -0.472676 33.000000
17.864473 17.895679 -1.865781 9.000000
7.170906 2.803031 -0.688497 1.000000
6.480595 -7.881188 -0.484754 29.000000
17.743740 17.905514 -1.837897 15.000000
6.956790 2.748771 -0.668902 1.000000
6.215303 -3.083951 -0.548497 1.000000
6.475830 -7.819594 -0.494786 30.000000
17.633648 17.925346 -1.811228 9.000000
6.221833 -3.058824 -0.551733 7.000000
6.547070 -7.844109 -0.508650 28.000000
17.572067 17.987913 -1.789284 9.000000
6.241704 -3.040237 -0.556162 9.000000
17.601067 18.150209 -1.772391 7.000000
6.274984 -3.028043 -0.561806 18.000000
17.745594 18.421087 -1.779628 7.000000
6.308076 -3.015558 -0.569918 18.000000
6.657000 -7.808133 -0.541334 5.000000
18.152037 18.995022 -1.795768 7.000000
18.381798 19.370375 -1.806447 7.000000
18.240128 19.362724 -1.771505 7.000000
6.502808 -3.021262 -0.594554 1.000000
18.081486 19.335821 -1.739765 7.000000
17.981157 19.363581 -1.708816 6.000000
6.691221 -7.563049 -0.584023 37.000000
17.829901 19.342390 -1.678115 7.000000
6.778333 -7.605162 -0.598109 25.000000
17.719641 19.364717 -1.646810 7.000000
7.053085 -7.860792 -0.631148 7.000000
17.589172 19.343809 -1.617419 7.000000
7.069228 -3.131175 -0.662835 1.000000
17.365274 19.238770 -1.580602 6.000000
6.953133 -3.047871 -0.654852 1.000000
8.532855 -9.380774 -0.780048 23.000000
17.262310 19.252674 -1.554384 7.000000
6.895398 -2.992482 -0.652343 1.000000
17.146244 19.264822 -1.523178 7.000000
17.033491 19.273184 -1.496605 7.000000
6.898182 -2.933790 -0.658464 1.000000
6.950643 -7.477165 -0.658384 33.000000
16.838665 19.194057 -1.458831 6.000000
6.871847 -2.892893 -0.658868 1.000000
6.933271 -7.403873 -0.663052 27.000000
16.775667 19.271009 -1.432932 7.000000
7.056890 -2.940390 -0.678261 1.000000
6.944047 -7.358545 -0.672017 37.000000
16.607988 19.206629 -1.401815 7.000000
6.902723 -7.266329 -0.674468 35.000000
16.499249 19.222828 -1.376401 7.000000
6.990981 -7.305426 -0.689335 36.000000
16.384398 19.224392 -1.345881 7.000000
7.040163 -7.305596 -0.702340 32.000000
16.214752 19.167202 -1.311344 7.000000
7.017823 -7.229198 -0.706299 39.000000
16.074610 19.136616 -1.283536 6.000000
7.099631 -7.260037 -0.720755 29.000000
15.979630 19.165741 -1.255354 7.000000
7.293652 -7.403958 -0.748631 36.000000
15.852956 19.149317 -1.224549 7.000000
7.297916 -7.356744 -0.755519 255.000000
15.726053 19.152025 -1.194662 7.000000
7.224669 -7.224669 -0.753892 87.000000
15.625231 19.158426 -1.170200 6.000000
7.195057 -7.147495 -0.757224 28.000000
15.515018 19.159451 -1.141073 7.000000
7.213632 -7.113606 -0.765320 10.000000
15.364073 19.115885 -1.109381 7.000000
7.241404 -7.091307 -0.776311 31.000000
15.213727 19.064730 -1.081996 6.000000
7.959383 -2.947424 -0.797829 1.000000
7.269323 -7.061706 -0.785155 24.000000
15.085516 19.046839 -1.052342 7.000000
7.820289 -2.863367 -0.785762 1.000000
7.285031 -7.030160 -0.793218 32.000000
15.001083 19.076677 -1.025631 6.000000
7.848440 -2.842645 -0.793469 1.000000
14.876392 19.061478 -0.996511 5.000000
17.184114 -6.152804 -1.738219 9.000000
20.832472 26.886120 -1.366086 8.000000
17.372057 -6.141534 -1.764457 8.000000
7.728730 -7.298482 -0.860888 7.000000
20.728559 26.955490 -1.330077 8.000000
17.560871 -6.142849 -1.788110 5.000000
20.622910 27.012709 -1.299638 15.000000
11.782932 -4.073298 -1.202644 1.000000
16.404476 -15.265337 -1.854121 7.000000
20.548716 27.121046 -1.265535 8.000000
11.821638 -4.035929 -1.209405 1.000000
9.080385 -8.387945 -1.035866 29.000000
20.490879 27.241743 -1.226119 8.000000
11.705093 -3.943748 -1.202381 1.000000
9.073677 -8.320321 -1.042435 29.000000
20.568008 27.553934 -1.200717 8.000000
11.722430 -3.906352 -1.207179 2.000000
9.076203 -8.264503 -1.050194 30.000000
23.786827 32.099163 -1.353270 7.000000
11.674820 -3.843002 -1.205149 1.000000
9.161183 -8.280669 -1.067364 13.000000
23.708197 32.239403 -1.320549 10.000000
11.674031 -3.795375 -1.210113 1.000000
9.220574 -8.273149 -1.079458 1.000000
23.519707 32.218117 -1.274490 10.000000
11.631261 -3.732150 -1.208490 1.000000
16.640562 -14.820991 -1.961342 7.000000
23.410931 32.305309 -1.225908 10.000000
11.658689 -3.693875 -1.214236 4.000000
16.693483 -14.758760 -1.980787 7.000000
23.345623 32.464951 -1.186798 9.000000
5.963565 0.715335 -0.533936 3.000000
11.591021 -3.625741 -1.210078 2.000000
16.678783 -14.637204 -1.992184 7.000000
4.697780 2.819364 -0.349501 1.000000
5.946039 0.736403 -0.531562 8.000000
11.594521 -3.580235 -1.211204 1.000000
16.753796 -14.594684 -2.010379 6.000000
27.583231 38.942780 -1.316321 3.000000
5.958213 0.760094 -0.531839 8.000000
11.582959 -3.530216 -1.217175 10.000000
16.734280 -14.470147 -2.021125 6.000000
27.180557 38.659676 -1.254012 14.000000
6.024614 0.791016 -0.536953 8.000000
11.538852 -3.468408 -1.215380 239.000000
16.737013 -14.365636 -2.030610 7.000000
6.080997 0.821102 -0.541163 8.000000
11.541540 -3.423142 -1.218579 223.000000
16.773790 -14.295819 -2.056163 7.000000
11.544460 -3.378024 -1.217572 223.000000
16.810045 -14.220684 -2.065834 7.000000
8.466920 1.168858 -0.749288 20.000000
11.546796 -3.332812 -1.220760 214.000000
16.914036 -14.202625 -2.091648 7.000000
24.138788 35.372875 -0.956864 11.000000
8.452376 1.199941 -0.749905 31.000000
11.529819 -3.282180 -1.221913 204.000000
7.987151 -6.657005 -0.993850 1.000000
24.037138 35.516056 -0.898325 11.000000
8.418736 1.226660 -0.742825 14.000000
11.532347 -3.235082 -1.225080 201.000000
7.991785 -6.611380 -0.998713 8.000000
23.947540 35.637699 -0.861903 1.000000
8.409386 1.256791 -0.740906 2.000000
11.529331 -3.188700 -1.227729 190.000000
7.996056 -6.565698 -1.005346 8.000000
19.773800 3.029349 -1.739613 4.000000
11.502139 -3.135843 -1.227807 6.000000
7.973096 -6.498065 -1.008519 10.000000
19.659523 3.085630 -1.727044 8.000000
11.570779 -3.109040 -1.238136 4.000000
7.984566 -6.458855 -1.016018 21.000000
19.658808 3.159389 -1.717483 6.000000
11.597054 -3.068405 -1.239678 8.000000
7.984491 -6.410523 -1.018426 12.000000
25.356585 38.911766 -0.721499 6.000000
19.612419 3.229233 -1.711006 5.000000
11.574116 -3.016989 -1.240255 8.000000
8.030721 -6.399374 -1.028564 10.000000
25.177561 38.933483 -0.671703 13.000000
19.630516 3.306158 -1.706630 5.000000
11.589493 -2.975676 -1.244948 10.000000
8.069021 -6.381681 -1.039536 17.000000
19.652925 3.384053 -1.706139 4.000000
11.571694 -2.923791 -1.243927 6.000000
8.122944 -6.376072 -1.052569 11.000000
21.346119 33.558369 -0.478990 9.000000
11.601213 -2.886056 -1.250173 7.000000
8.181137 -6.373429 -1.062562 17.000000
21.099325 33.401642 -0.434426 10.000000
11.597222 -2.839968 -1.248613 13.000000
8.227460 -6.361198 -1.072881 12.000000
21.014156 33.538433 -0.393750 10.000000
11.611962 -2.798505 -1.253302 12.000000
8.297319 -6.366757 -1.088165 21.000000
20.936762 33.675606 -0.352972 8.000000
11.617572 -2.752701 -1.254864 12.000000
8.355599 -6.362957 -1.100155 13.000000
20.863949 33.821209 -0.298243 3.000000
11.642112 -2.713489 -1.256432 7.000000
13.067341 2.549503 -1.110965 1.000000
11.666090 -2.674034 -1.262178 6.000000
5.625231 -4.191391 -0.749693 4.000000
12.823522 2.550757 -1.088726 2.000000
11.695001 -2.635582 -1.266368 1.000000
12.039248 19.989225 -0.097745 1.000000
12.736321 2.581975 -1.077551 1.000000
11.709457 -2.591636 -1.271079 1.000000
12.051520 20.168564 -0.069711 1.000000
12.375956 2.556180 -1.041186 1.000000
11.752887 -2.556098 -1.274768 1.000000
21.831818 36.842171 -0.082218 9.000000
12.191129 2.564630 -1.024231 1.000000
11.795996 -2.520230 -1.280563 1.000000
4.654005 3.392514 -0.257497 1.000000
11.924628 2.549889 -0.998261 1.000000
11.823745 -2.483034 -1.286891 1.000000
4.593963 3.373367 -0.250838 2.000000
11.861075 2.586133 -0.989536 1.000000
11.886964 -2.446530 -1.294835 1.000000
4.616357 3.402228 -0.248374 8.000000
11.652993 2.583406 -0.966632 1.000000
11.925091 -2.408852 -1.298018 1.000000
4.588547 3.406513 -0.243518 8.000000
12.075463 -2.391006 -1.315549 1.000000
46.732006 82.129646 0.379326 1.000000
4.588233 3.432436 -0.238157 9.000000
11.411099 2.617683 -0.937850 1.000000
12.176048 -2.368989 -1.325644 1.000000
46.528286 82.439781 0.512184 1.000000
4.583797 3.455393 -0.232561 9.000000
11.231861 2.619936 -0.919850 1.000000
12.379765 -2.361567 -1.349097 1.000000
23.521704 42.018227 0.319374 15.000000
4.591826 3.486649 -0.226529 9.000000
11.077459 2.626767 -0.897990 1.000000
12.775058 -2.386172 -1.388871 7.000000
4.591106 3.512706 -0.221065 7.000000
11.102285 2.675672 -0.892770 1.000000
12.720142 -2.327699 -1.381964 1.000000
4.605268 3.510815 -0.218415 4.000000
11.103189 2.675890 -0.880810 1.000000
12.722028 -2.328044 -1.363907 4.000000
23.499516 41.978592 0.377851 63.000000
4.637997 3.508962 -0.220372 4.000000
11.128233 2.636756 -0.877971 1.000000
12.747910 -2.383404 -1.360788 7.000000
46.620888 82.570175 0.661998 1.000000
4.630757 3.476871 -0.222457 7.000000
11.201091 2.610698 -0.880939 1.000000
12.447147 -2.374420 -1.318424 1.000000
46.946247 82.472679 0.563145 1.000000
4.574672 3.409855 -0.222182 7.000000
11.341483 2.599630 -0.895311 1.000000
12.160330 -2.365931 -1.286768 1.000000
4.615129 3.413769 -0.227551 8.000000
11.598964 2.613939 -0.914874 1.000000
12.074398 -2.395175 -1.269909 1.000000
4.595294 3.373110 -0.228952 8.000000
11.686500 2.588695 -0.918923 1.000000
11.977581 -2.423807 -1.258541 1.000000
4.606910 3.339751 -0.235503 9.000000
11.807312 2.570093 -0.936162 1.000000
11.925204 -2.458740 -1.249680 1.000000
4.598777 3.308209 -0.236446 6.000000
12.017133 2.567476 -0.949852 1.000000
11.838863 -2.486209 -1.235179 1.000000
21.833183 36.829815 0.029891 10.000000
12.221287 2.564292 -0.969624 1.000000
11.751616 -2.515038 -1.224955 1.000000
12.430953 2.560754 -0.983279 1.000000
11.728569 -2.555097 -1.215054 1.000000
12.086701 20.060095 -0.024525 5.000000
12.596614 2.546787 -0.995637 1.000000
11.719746 -2.598205 -1.208769 4.000000
12.839510 2.551608 -1.016460 6.000000
11.682355 -2.630590 -1.201583 6.000000
13.035237 2.536155 -1.035804 6.000000
11.647396 -2.674029 -1.194916 11.000000
8.495969 -6.372001 -1.082483 14.000000
20.930634 33.916058 -0.173900 1.000000
13.313575 2.539700 -1.059555 1.000000
11.632875 -2.715617 -1.192334 19.000000
8.441408 -6.379556 -1.071040 24.000000
20.919397 33.634579 -0.214310 8.000000
13.553346 2.531543 -1.080277 1.000000
11.589361 -2.750290 -1.184700 28.000000
8.375319 -6.377973 -1.054478 23.000000
21.055706 33.578690 -0.249032 10.000000
14.043057 2.569783 -1.118551 1.000000
11.584641 -2.794060 -1.178955 30.000000
8.344716 -6.403126 -1.044303 17.000000
21.202019 33.551239 -0.290940 9.000000
11.593558 -2.843360 -1.176757 20.000000
8.313893 -6.428026 -1.035978 15.000000
21.330048 33.481464 -0.332586 10.000000
19.691252 3.461469 -1.573497 1.000000
11.573799 -2.883527 -1.171613 17.000000
8.285248 -6.449890 -1.027667 15.000000
19.718000 3.391715 -1.581658 3.000000
11.578021 -2.929690 -1.168910 18.000000
8.263906 -6.486720 -1.018986 9.000000
19.712065 3.309279 -1.576593 4.000000
11.577435 -2.974734 -1.163626 13.000000
8.268234 -6.539236 -1.011327 7.000000
19.674040 3.232326 -1.576142 3.000000
11.571136 -3.020526 -1.159936 10.000000
8.272148 -6.591759 -1.005439 5.000000
19.721035 3.158798 -1.582386 4.000000
11.589243 -3.070667 -1.158647 12.000000
8.275649 -6.644286 -1.001342 1.000000
20.051199 3.143520 -1.611597 2.000000
11.597526 -3.118398 -1.156379 10.000000
17.041834 -13.785438 -2.048841 7.000000
19.811035 3.031515 -1.594910 4.000000
11.519184 -3.142650 -1.145502 231.000000
16.930826 -13.798605 -2.022337 7.000000
19.748068 2.947845 -1.588961 1.000000
11.542301 -3.192287 -1.142574 224.000000
16.971014 -13.925273 -2.013322 7.000000
24.021749 35.439991 -0.717422 7.000000
19.900946 2.896140 -1.610993 6.000000
11.548561 -3.243979 -1.144474 216.000000
16.935240 -14.010049 -2.000261 7.000000
24.164614 35.384186 -0.762880 11.000000
4.709320 2.911943 -0.299867 1.000000
19.847490 2.810581 -1.609302 47.000000
11.542912 -3.283729 -1.140759 220.000000
16.928555 -14.099335 -1.981723 7.000000
4.711269 2.889332 -0.303185 1.000000
19.852999 2.737175 -1.605404 191.000000
11.559094 -3.338547 -1.135199 218.000000
16.852722 -14.146127 -1.959835 7.000000
4.725957 2.874557 -0.306355 1.000000
19.912016 2.670980 -1.612903 8.000000
11.561492 -3.385198 -1.132403 216.000000
16.836288 -14.237844 -1.944586 7.000000
27.020845 38.675903 -0.971804 1.000000
4.706355 2.839054 -0.308257 1.000000
6.141100 0.775801 -0.499116 6.000000
11.554756 -3.427062 -1.128664 220.000000
16.811560 -14.322945 -1.932243 7.000000
27.214510 38.679264 -1.023699 14.000000
6.104329 0.748436 -0.495901 7.000000
11.556797 -3.473802 -1.125850 19.000000
16.780369 -14.392680 -1.914694 8.000000
4.782569 2.837425 -0.317720 1.000000
6.067524 0.721360 -0.491619 8.000000
11.610179 -3.540727 -1.123879 1.000000
16.754112 -14.487296 -1.894952 7.000000
23.296448 32.588173 -0.944040 1.000000
6.035505 0.694062 -0.489873 8.000000
11.646322 -3.594005 -1.124234 5.000000
16.713411 -14.559505 -1.876889 7.000000
23.394762 32.485416 -0.992361 4.000000
4.819558 2.812938 -0.327627 1.000000
11.646617 -3.645365 -1.119222 5.000000
16.803469 -14.746627 -1.873410 7.000000
23.674694 32.633305 -1.041643 3.000000
11.657281 -3.695668 -1.117237 3.000000
16.698261 -14.762985 -1.848115 7.000000
23.586996 32.262974 -1.074456 8.000000
11.676561 -3.751182 -1.116140 1.000000
16.647825 -14.822249 -1.828664 7.000000
23.708103 32.203934 -1.110026 16.000000
11.688107 -3.797696 -1.114116 1.000000
16.618082 -14.894855 -1.815129 7.000000
23.940960 32.260048 -1.164240 9.000000
11.687325 -3.849379 -1.111175 1.000000
9.178260 -8.293195 -0.995269 26.000000
24.008673 32.139809 -1.197657 7.000000
11.731561 -3.907120 -1.112255 1.000000
9.121851 -8.297336 -0.981300 29.000000
20.548939 27.299088 -1.055886 8.000000
11.760185 -3.964596 -1.109789 1.000000
9.062606 -8.304348 -0.967401 35.000000
20.577000 27.138693 -1.088154 8.000000
11.835496 -4.038354 -1.113885 1.000000
9.087669 -8.388797 -0.962493 1.000000
20.621136 26.990847 -1.114922 8.000000
11.853223 -4.095281 -1.112613 1.000000
20.778503 27.000929 -1.154046 8.000000
17.645184 -6.168885 -1.648528 6.000000
7.834993 -7.336988 -0.816513 1.000000
20.907194 26.963108 -1.191469 8.000000
16.396896 -15.467872 -1.694894 7.000000
21.048298 26.940594 -1.223747 4.000000
7.595358 -7.222857 -0.775222 14.000000
23.193995 29.453148 -1.387775 9.000000
7.479104 -7.164689 -0.760579 22.000000
23.275406 29.355728 -1.413005 15.000000
16.854118 -6.171067 -1.548184 8.000000
7.344590 -7.082685 -0.738542 24.000000
23.245697 29.108961 -1.450603 6.000000
16.668135 -6.172346 -1.530042 8.000000
7.339169 -7.132047 -0.733564 2.000000
16.529758 -6.190091 -1.507000 6.000000
7.269763 -7.111625 -0.716492 8.000000
