VERSION .7
FIELDS x y z intensity
SIZE 4 4 4 4
TYPE F F F F
COUNT 1 1 1 1
WIDTH 1226
HEIGHT 1
VIEWPOINT 0 0 0 1 0 0 0
POINTS 1226
DATA ascii
32.433403 -2.700708 -2.047599 9.000000
21.134075 -11.546609 -1.148346 19.000000
6.053677 -7.849517 -0.212834 36.000000
21.185991 19.701023 -1.855644 8.000000
10.744905 3.695572 -0.788577 1.000000
32.607227 -2.835560 -2.059215 3.000000
20.523499 -11.310893 -1.105117 20.000000
6.120560 -7.993787 -0.207376 30.000000
21.007557 19.392004 -1.858830 8.000000
10.785172 3.669472 -0.794631 1.000000
20.006742 -11.121893 -1.063464 29.000000
6.209304 -8.171568 -0.200644 32.000000
21.073606 19.310404 -1.883450 8.000000
10.746909 3.610471 -0.794761 1.000000
19.469360 -10.916760 -1.033115 11.000000
6.329912 -8.393979 -0.196356 33.000000
20.335018 18.503443 -1.840573 7.000000
10.735873 3.563027 -0.800910 1.000000
26.748129 -2.627390 -1.690949 6.000000
19.042896 -10.769566 -0.997268 10.000000
6.366606 -8.504227 -0.187286 36.000000
20.286739 18.324045 -1.854077 7.000000
10.754428 3.521322 -0.807188 1.000000
26.564857 -2.707729 -1.675300 7.000000
18.509129 -10.557421 -0.960155 10.000000
6.293767 -8.471475 -0.175001 50.000000
10.751544 3.480945 -0.810066 1.000000
18.171848 -10.453497 -0.937307 22.000000
6.279066 -8.513606 -0.168030 32.000000
10.760410 3.436155 -0.813652 4.000000
18.146797 -10.527795 -0.926992 31.000000
6.256778 -8.548803 -0.157174 72.000000
10.742668 3.391273 -0.819361 1.000000
18.084618 -10.576268 -0.911042 25.000000
6.494410 -8.938787 -0.152354 13.000000
10.707144 3.336954 -0.819649 6.000000
18.046141 -10.642722 -0.900072 29.000000
6.613718 -9.173521 -0.146070 9.000000
10.728561 3.300536 -0.824296 1.000000
20.566441 -2.477887 -1.285140 2.000000
18.046192 -10.732092 -0.887346 20.000000
6.756324 -9.440613 -0.137787 10.000000
10.773709 3.271249 -0.830790 1.000000
20.304209 -2.521826 -1.276493 1.000000
17.990124 -10.788201 -0.871857 20.000000
6.632005 -9.339040 -0.125952 29.000000
10.742643 3.216817 -0.835307 1.000000
19.869350 -2.541798 -1.246222 1.000000
17.972099 -10.867148 -0.865564 26.000000
6.492844 -9.211017 -0.114083 33.000000
10.768424 3.181577 -0.840341 1.000000
19.894751 -2.619194 -1.244893 1.000000
17.949593 -10.943583 -0.855380 19.000000
6.303069 -9.008407 -0.099786 68.000000
10.784518 3.143400 -0.844635 1.000000
19.385790 -2.621062 -1.217038 1.000000
17.907532 -11.003866 -0.840504 21.000000
6.059067 -8.727603 -0.085302 29.000000
10.761857 3.094045 -0.849829 5.000000
19.470177 -2.705174 -1.219506 5.000000
17.888563 -11.082736 -0.834157 18.000000
5.943495 -8.625245 -0.074957 39.000000
10.764311 3.048022 -0.852977 4.000000
19.320629 -2.763496 -1.214243 8.000000
17.869379 -11.161692 -0.824116 24.000000
6.120704 -8.952463 -0.066248 10.000000
10.802590 3.020203 -0.863089 7.000000
19.272066 -2.821797 -1.208360 9.000000
17.828592 -11.227262 -0.816761 19.000000
6.190511 -9.122753 -0.059651 18.000000
10.746013 2.961963 -0.861610 67.000000
19.256449 -2.891641 -1.211449 23.000000
17.796236 -11.298192 -0.802433 12.000000
6.115180 -9.083215 -0.047778 32.000000
10.770938 2.926399 -0.866662 10.000000
19.310051 -2.972101 -1.212075 6.000000
17.775976 -11.368211 -0.788463 15.000000
5.872630 -8.782373 -0.036879 27.000000
10.791432 2.887519 -0.871336 3.000000
19.269661 -3.038226 -1.206813 4.000000
17.728016 -11.424928 -0.780728 15.000000
5.848709 -8.816361 -0.027698 35.000000
10.830569 2.855494 -0.877578 9.000000
19.258604 -3.108865 -1.203408 8.000000
17.699221 -11.507189 -0.766729 20.000000
10.854989 2.819422 -0.884622 3.000000
19.256165 -3.184384 -1.207430 8.000000
17.690557 -11.585197 -0.756927 12.000000
10.835977 2.772129 -0.886168 31.000000
14.599499 -2.469321 -0.913408 1.000000
17.644346 -11.656407 -0.742164 24.000000
10.859962 2.735895 -0.895171 26.000000
14.723125 -2.545772 -0.921720 1.000000
17.641308 -11.743061 -0.732646 16.000000
10.903627 2.704434 -0.899921 30.000000
9.932324 -6.659158 -0.407137 1.000000
5.828007 -9.134060 0.022693 9.000000
10.879425 2.654130 -0.904944 7.000000
9.883125 -6.678808 -0.401953 5.000000
5.677924 -8.974649 0.035217 40.000000
11.034149 2.649065 -0.920987 1.000000
13.575389 -2.501348 -0.849120 1.000000
9.840005 -6.707365 -0.390887 1.000000
5.553493 -8.846167 0.045575 28.000000
11.086964 2.618804 -0.930592 1.000000
9.864894 -6.777419 -0.388678 1.000000
5.579154 -8.959799 0.055266 23.000000
11.168981 2.594994 -0.940701 1.000000
17.496845 -12.101842 -0.676004 10.000000
5.503619 -8.900692 0.063927 33.000000
11.318812 2.586118 -0.958636 1.000000
17.473064 -12.180313 -0.669363 14.000000
5.625150 -9.172221 0.075118 12.000000
11.444686 2.568679 -0.976700 1.000000
17.432583 -12.247278 -0.662084 15.000000
5.504127 -9.052699 0.085061 13.000000
11.599491 2.558804 -0.995367 1.000000
13.023220 -2.649604 -0.815181 1.000000
17.400002 -12.319888 -0.655107 12.000000
5.569627 -9.229235 0.094072 5.000000
11.769137 2.551029 -1.013349 1.000000
12.715195 -2.635505 -0.798774 1.000000
17.367395 -12.392617 -0.636950 12.000000
5.084900 -8.499615 0.096808 2.000000
12.026408 2.560680 -1.041169 1.000000
12.652007 -2.670809 -0.790884 1.000000
17.348558 -12.470796 -0.630387 17.000000
12.273809 -20.663237 0.255884 29.000000
12.147156 2.539886 -1.059536 1.000000
12.344103 -2.653108 -0.778875 1.000000
17.306959 -12.537357 -0.623075 14.000000
12.271464 -20.832811 0.278527 37.000000
12.390516 2.541154 -1.086575 1.000000
12.246542 -2.679136 -0.773334 1.000000
17.277298 -12.612685 -0.612457 12.000000
12.319619 -21.082500 0.302601 74.000000
12.550197 2.526005 -1.111014 1.000000
12.104986 -2.694695 -0.767186 1.000000
17.235067 -12.678949 -0.608866 12.000000
12.159439 -20.984573 0.317488 46.000000
12.040541 -2.678144 -0.789008 1.000000
17.262455 -12.699097 -0.643525 12.000000
12.194691 -21.045410 0.292933 59.000000
12.270213 2.516481 -1.113474 1.000000
12.196106 -2.665871 -0.805120 1.000000
17.293827 -12.629379 -0.672975 18.000000
12.278383 -21.020355 0.254936 39.000000
12.143716 2.536954 -1.105013 1.000000
12.287250 -2.643132 -0.819365 1.000000
17.323235 -12.553759 -0.694751 11.000000
12.271752 -20.833302 0.223668 37.000000
11.763682 2.504740 -1.071299 1.000000
12.414219 -2.618349 -0.838244 1.000000
17.342112 -12.475346 -0.712420 20.000000
12.270504 -20.665882 0.192963 28.000000
11.657077 2.526739 -1.062427 1.000000
12.530161 -2.599433 -0.847729 2.000000
17.378969 -12.405454 -0.734448 11.000000
5.140429 -8.589031 0.068135 1.000000
11.555155 2.549024 -1.056064 1.000000
12.969209 -2.640973 -0.886053 1.000000
17.411449 -12.332557 -0.756276 10.000000
5.250484 -8.703828 0.054998 3.000000
11.453764 2.570716 -1.043522 1.000000
12.523394 -2.502421 -0.861680 1.000000
17.449869 -12.268523 -0.770991 14.000000
5.672124 -9.325339 0.047626 6.000000
11.317923 2.585914 -1.027958 1.000000
12.992351 -2.546643 -0.897941 1.000000
17.469683 -12.187020 -0.784778 16.000000
5.688985 -9.279944 0.036096 10.000000
11.176864 2.596825 -1.022060 1.000000
12.922755 -2.483853 -0.899418 1.000000
17.493008 -12.108216 -0.806137 10.000000
5.516374 -8.928284 0.020149 35.000000
11.099760 2.621826 -1.011868 1.000000
9.874973 -6.784343 -0.466543 1.000000
5.591367 -8.975921 0.009228 28.000000
11.017773 2.645133 -1.001285 1.000000
13.391707 -2.469920 -0.940293 1.000000
9.874732 -6.731036 -0.473719 1.000000
5.590764 -8.905535 -0.003670 22.000000
11.017680 2.687858 -1.002165 1.000000
13.552511 -2.448251 -0.955777 1.000000
9.861674 -6.669328 -0.484404 6.000000
5.731412 -9.059195 -0.016839 6.000000
10.891429 2.701409 -0.989644 29.000000
9.923178 -6.658047 -0.492490 1.000000
5.807585 -9.105557 -0.028274 9.000000
10.949408 2.758429 -0.991852 5.000000
17.638472 -11.745616 -0.888183 19.000000
12.860008 -20.008467 -0.087176 36.000000
4.360010 3.470594 -0.499309 1.000000
10.876493 2.782494 -0.986164 4.000000
17.655611 -11.663850 -0.909086 23.000000
12.989501 -20.055677 -0.116773 28.000000
4.319192 3.466518 -0.491353 1.000000
10.823165 2.811156 -0.978323 5.000000
17.680996 -11.587756 -0.922986 19.000000
13.101115 -20.066435 -0.142210 22.000000
4.527482 3.661052 -0.512474 1.000000
10.817108 2.853964 -0.978759 6.000000
19.230694 -3.111248 -1.386145 7.000000
17.718340 -11.519619 -0.944900 19.000000
6.193903 -9.414986 -0.080646 10.000000
4.325087 3.523685 -0.487098 1.000000
10.811715 2.894968 -0.975288 4.000000
19.285583 -3.047636 -1.399562 8.000000
17.736898 -11.443799 -0.958520 16.000000
5.797255 -8.742112 -0.086049 149.000000
4.252017 3.487678 -0.476301 1.000000
10.758097 2.922910 -0.967490 12.000000
19.291456 -2.976133 -1.402612 9.000000
17.753057 -11.362288 -0.968196 21.000000
6.088789 -9.112516 -0.101381 25.000000
10.785728 2.972910 -0.970949 8.000000
19.267471 -2.900174 -1.403504 15.000000
17.806366 -11.304623 -0.990972 22.000000
6.151201 -9.136719 -0.115347 8.000000
10.760695 3.008490 -0.965752 18.000000
19.277239 -2.829428 -1.413706 28.000000
17.821436 -11.222755 -1.011619 10.000000
6.128405 -9.031230 -0.129539 35.000000
10.745126 3.046642 -0.961422 1.000000
19.322275 -2.760290 -1.419645 10.000000
17.851578 -11.154904 -1.022161 17.000000
6.142882 -8.984902 -0.140581 51.000000
10.766860 3.097518 -0.964424 1.000000
19.351772 -2.692166 -1.424506 8.000000
17.891731 -11.089021 -1.036857 10.000000
5.887692 -8.547456 -0.143116 28.000000
10.770104 3.141239 -0.961794 1.000000
19.420067 -2.629148 -1.439130 7.000000
17.936449 -11.034577 -1.048375 14.000000
5.910338 -8.513371 -0.153762 27.000000
10.744509 3.176550 -0.956602 3.000000
19.528200 -2.570936 -1.449892 7.000000
17.971125 -10.956711 -1.069920 10.000000
6.034482 -8.627743 -0.167236 192.000000
10.781643 3.226445 -0.960856 1.000000
19.526726 -2.504895 -1.449158 3.000000
18.006716 -10.896666 -1.084614 10.000000
5.991053 -8.499155 -0.177875 31.000000
10.787993 3.275586 -0.958622 3.000000
19.714008 -2.448522 -1.472774 1.000000
18.009233 -10.803934 -1.096960 10.000000
5.980049 -8.420971 -0.187494 33.000000
10.737563 3.305357 -0.951311 29.000000
20.069126 -2.417970 -1.502179 1.000000
18.099710 -10.768196 -1.111117 9.000000
6.100947 -8.524855 -0.201285 102.000000
10.701910 3.337372 -0.945289 235.000000
18.107943 -10.683429 -1.131291 9.000000
6.077895 -8.430311 -0.212255 42.000000
10.699265 3.379625 -0.944171 232.000000
18.193865 -10.644420 -1.145283 8.000000
6.142403 -8.457396 -0.224426 28.000000
10.677629 3.415881 -0.939419 226.000000
18.193193 -10.554712 -1.157526 8.000000
6.229311 -8.511273 -0.237511 25.000000
10.703269 3.467379 -0.938832 221.000000
18.300291 -10.527386 -1.176661 8.000000
6.252899 -8.481226 -0.248320 21.000000
10.700270 3.509794 -0.935733 226.000000
18.500788 -10.556943 -1.205823 17.000000
6.307604 -8.490100 -0.262184 10.000000
19.354359 17.629644 -1.982274 7.000000
10.678957 3.544138 -0.929013 218.000000
18.969526 -10.741184 -1.245497 26.000000
6.405914 -8.559847 -0.276230 32.000000
19.398550 17.812902 -1.970995 8.000000
10.693289 3.596612 -0.927544 221.000000
27.399893 -2.585227 -2.079020 7.000000
19.499317 -10.938032 -1.293049 28.000000
6.235467 -8.268738 -0.276616 255.000000
19.336426 17.868151 -1.947274 10.000000
10.695765 3.636970 -0.924830 34.000000
19.962311 -11.110879 -1.333303 19.000000
6.185689 -8.149344 -0.283992 10.000000
19.301239 17.967234 -1.927213 10.000000
10.733363 3.697889 -0.923373 1.000000
29.633078 -2.571714 -2.257382 3.000000
20.530449 -11.319395 -1.384627 40.000000
6.090586 -7.957517 -0.288659 37.000000
19.119585 17.929384 -1.901827 10.000000
10.799428 3.764986 -0.934256 1.000000
31.831663 -2.656196 -2.435395 1.000000
21.135691 -11.552281 -1.443675 17.000000
6.121157 -7.939880 -0.301052 120.000000
19.007812 17.955952 -1.874306 9.000000
10.801445 3.805908 -0.929481 1.000000
31.825851 -2.538286 -2.439827 1.000000
21.721632 -11.779161 -1.494006 23.000000
6.186843 -7.964543 -0.311654 24.000000
18.845501 17.933788 -1.841952 12.000000
10.740785 3.828846 -0.921456 1.000000
6.822919 -3.633923 -0.476869 1.000000
6.309866 -8.064650 -0.327165 33.000000
18.806002 18.028008 -1.821690 9.000000
10.745734 3.875059 -0.919080 1.000000
6.796178 -3.587767 -0.479463 1.000000
6.240530 -7.921762 -0.331016 57.000000
18.837399 18.184711 -1.807911 7.000000
10.771993 3.935595 -0.916684 1.000000
6.770353 -3.539455 -0.483328 1.000000
6.245787 -7.866110 -0.341975 51.000000
18.900494 18.379927 -1.797304 7.000000
10.743917 3.970032 -0.909492 1.000000
6.778624 -3.512204 -0.487010 1.000000
6.268106 -7.835078 -0.352142 35.000000
19.304295 18.910763 -1.823328 7.000000
10.782357 4.024925 -0.909828 1.000000
6.156565 -0.351751 -0.476660 9.000000
6.741189 -3.464500 -0.487477 1.000000
6.342208 -7.871222 -0.365358 35.000000
19.747328 19.487112 -1.847588 9.000000
10.786482 4.071569 -0.907379 1.000000
6.177725 -0.330248 -0.478201 8.000000
6.900256 -3.514339 -0.503474 1.000000
6.383367 -7.863140 -0.376687 221.000000
19.602600 19.486620 -1.816491 9.000000
10.818205 4.128907 -0.909281 1.000000
6.552881 -8.014615 -0.394084 24.000000
19.479374 19.499783 -1.782382 7.000000
10.808092 4.170496 -0.903607 2.000000
6.524766 -7.920807 -0.401407 36.000000
19.376804 19.539820 -1.765070 7.000000
10.941641 4.268167 -0.911950 1.000000
6.631805 -7.993724 -0.418983 21.000000
19.169815 19.473324 -1.723974 7.000000
6.599949 -7.896251 -0.424135 40.000000
19.082127 19.526890 -1.693809 6.000000
6.577072 -7.810524 -0.431533 255.000000
18.893024 19.468872 -1.664034 7.000000
6.691286 -7.890093 -0.446262 203.000000
18.742899 19.456356 -1.633419 6.000000
6.742565 -7.891739 -0.458640 44.000000
18.672550 19.512415 -1.604534 7.000000
6.750099 -3.192199 -0.520824 1.000000
6.643313 -7.726292 -0.459146 8.000000
18.405966 19.382288 -1.564603 6.000000
6.550130 -3.065517 -0.510783 1.000000
6.654327 -7.676549 -0.468434 25.000000
18.325462 19.439707 -1.540413 7.000000
6.552028 -3.037182 -0.513860 5.000000
6.683986 -7.656600 -0.481082 122.000000
18.108332 19.350985 -1.504910 6.000000
6.580027 -3.023692 -0.517808 9.000000
18.000973 19.378136 -1.474095 7.000000
6.618136 -3.011874 -0.522485 9.000000
17.798681 19.295002 -1.440059 6.000000
6.657037 -2.997379 -0.531007 21.000000
6.911806 -7.746746 -0.520478 37.000000
17.752308 19.373243 -1.418498 6.000000
6.697604 -2.991775 -0.536106 10.000000
6.960508 -7.749446 -0.531320 10.000000
17.618292 19.382627 -1.386487 7.000000
6.758604 -2.989358 -0.541405 10.000000
7.002015 -7.738416 -0.539625 5.000000
17.504566 19.379486 -1.359470 6.000000
6.823890 -2.988378 -0.552290 9.000000
8.592300 -9.429582 -0.675272 9.000000
17.314270 19.297070 -1.326968 7.000000
6.866553 -2.977116 -0.558797 8.000000
8.602768 -9.371841 -0.684523 10.000000
17.254028 19.385925 -1.305598 7.000000
6.942332 -2.976922 -0.567964 6.000000
8.646820 -9.350802 -0.696444 8.000000
17.051380 19.279860 -1.276828 6.000000
6.031430 2.798417 -0.461446 1.000000
6.997871 -2.973303 -0.574367 5.000000
7.167073 -7.699204 -0.584408 57.000000
16.876040 19.223122 -1.242114 6.000000
7.302036 -7.784042 -0.604183 81.000000
16.750385 19.235188 -1.211767 7.000000
7.004445 -7.412174 -0.586237 38.000000
16.618795 19.205572 -1.179951 6.000000
7.250648 -3.000352 -0.602409 1.000000
7.045832 -7.406613 -0.596592 121.000000
16.519665 19.233025 -1.155738 7.000000
7.313619 -3.004008 -0.609762 1.000000
6.919358 -7.223006 -0.592504 32.000000
16.359205 19.181269 -1.122736 5.000000
7.333520 -2.980816 -0.614676 1.000000
6.899325 -7.144460 -0.598766 42.000000
16.273283 19.222776 -1.099645 6.000000
7.334846 -2.950077 -0.618041 1.000000
7.297451 -7.501513 -0.640094 57.000000
16.171312 19.244919 -1.071141 6.000000
7.362911 -2.933036 -0.622366 1.000000
7.249862 -7.400731 -0.642725 21.000000
16.031136 19.213875 -1.040041 6.000000
7.431135 -2.936195 -0.630244 4.000000
7.360582 -7.458869 -0.661129 3.000000
16.002489 19.323076 -1.025225 2.000000
7.464750 -2.917891 -0.636407 3.000000
7.299516 -7.342961 -0.662295 1.000000
25.358131 31.069992 -1.561694 1.000000
16.185362 -6.190301 -1.397283 8.000000
7.360394 -7.301537 -0.681348 8.000000
25.267282 31.191362 -1.514014 1.000000
16.329142 -6.176783 -1.407731 10.000000
7.544383 -7.426797 -0.705014 1.000000
25.243782 31.385715 -1.476925 1.000000
16.565691 -6.196954 -1.435478 8.000000
16.244705 -15.874701 -1.532511 7.000000
25.201073 31.568838 -1.445889 1.000000
16.699999 -6.177517 -1.451401 9.000000
7.276601 -7.063840 -0.693145 10.000000
16.909014 -6.184474 -1.477077 9.000000
7.334330 -7.067852 -0.705103 15.000000
17.085724 -6.178201 -1.496910 8.000000
7.515972 -7.187440 -0.729026 14.000000
35.622726 45.611416 -1.899649 4.000000
17.285814 -6.179008 -1.522123 7.000000
7.542917 -7.165471 -0.738455 1.000000
20.935291 27.009079 -1.085862 8.000000
17.496845 -6.178780 -1.545127 6.000000
16.361811 -15.418591 -1.615476 6.000000
20.802008 27.011957 -1.059520 8.000000
17.699657 -6.184463 -1.574399 6.000000
16.451653 -15.400572 -1.643018 7.000000
20.679119 27.076534 -1.011174 8.000000
11.855306 -4.089054 -1.055274 20.000000
16.412170 -15.251131 -1.649207 7.000000
20.630297 27.208986 -0.983601 8.000000
11.822704 -4.029383 -1.055442 1.000000
9.069442 -8.369040 -0.919246 34.000000
20.510105 27.257401 -0.940919 8.000000
11.870271 -3.997094 -1.060575 1.000000
9.069388 -8.301831 -0.924488 32.000000
23.942009 32.050568 -1.068549 1.000000
11.770683 -3.915585 -1.059111 1.000000
9.117482 -8.284643 -0.939263 30.000000
23.819181 32.131096 -1.019417 7.000000
11.713962 -3.849089 -1.052730 1.000000
9.191719 -8.290797 -0.952467 1.000000
23.740089 32.259171 -0.978875 10.000000
4.970560 2.883651 -0.313229 1.000000
11.747258 -3.810117 -1.058743 1.000000
16.560162 -14.827310 -1.725969 7.000000
23.645868 32.379070 -0.937867 9.000000
5.098046 2.982640 -0.317814 1.000000
11.689278 -3.744017 -1.060906 1.000000
16.643068 -14.791998 -1.748498 7.000000
23.729839 32.733349 -0.903363 3.000000
11.673895 -3.691968 -1.064733 3.000000
16.692987 -14.732389 -1.775700 8.000000
23.458210 32.597507 -0.862285 6.000000
6.158055 0.739754 -0.468533 5.000000
11.668327 -3.643218 -1.063001 6.000000
16.671192 -14.604808 -1.779355 7.000000
23.458197 32.850780 -0.824414 1.000000
6.140804 0.758348 -0.466323 8.000000
11.619368 -3.581245 -1.061614 1.000000
16.718592 -14.548625 -1.794827 7.000000
27.365086 38.606220 -0.916874 1.000000
6.182579 0.786523 -0.468617 7.000000
11.655886 -3.545773 -1.068041 1.000000
16.809618 -14.509673 -1.817839 7.000000
27.180801 38.645683 -0.865945 29.000000
6.273749 0.821499 -0.473531 7.000000
11.568873 -3.470828 -1.063088 188.000000
16.792122 -14.397674 -1.830207 7.000000
27.080582 38.790245 -0.817504 9.000000
11.576384 -3.426883 -1.066864 234.000000
16.763874 -14.267176 -1.840760 8.000000
11.574165 -3.380138 -1.069752 216.000000
16.827391 -14.205153 -1.860811 7.000000
19.875912 2.743869 -1.494565 1.000000
11.590902 -3.338969 -1.074405 200.000000
16.851610 -14.120142 -1.873213 7.000000
19.909916 2.826510 -1.494398 4.000000
11.572811 -3.292235 -1.075943 184.000000
16.920053 -14.082253 -1.894971 7.000000
19.810865 2.886561 -1.484234 1.000000
11.570619 -3.243640 -1.078802 193.000000
17.016613 -14.057368 -1.915527 7.000000
19.963154 2.983513 -1.492910 5.000000
11.572465 -3.198456 -1.082099 191.000000
16.978134 -13.921202 -1.924744 7.000000
19.848831 3.040844 -1.481661 7.000000
11.565627 -3.146647 -1.084487 9.000000
16.954340 -13.798083 -1.935525 7.000000
19.719833 3.095096 -1.465862 10.000000
11.604854 -3.116024 -1.087191 7.000000
17.023378 -13.750858 -1.949188 8.000000
19.828388 3.179543 -1.464137 7.000000
11.625457 -3.075920 -1.092290 13.000000
17.037628 -13.659482 -1.960442 8.000000
19.736988 3.246206 -1.454828 1.000000
11.608956 -3.019580 -1.093763 14.000000
17.161135 -13.645694 -1.987623 7.000000
19.838316 3.337595 -1.459659 3.000000
11.609444 -2.978639 -1.090763 11.000000
17.228920 -13.606581 -2.001827 7.000000
19.802219 3.402644 -1.454344 10.000000
11.605059 -2.932221 -1.097760 13.000000
17.175682 -13.462616 -2.005258 7.000000
21.348919 33.524002 -0.173420 9.000000
19.696430 3.462379 -1.437014 72.000000
11.611904 -2.884412 -1.097304 23.000000
8.682887 -6.749713 -1.020233 39.000000
21.186447 33.526600 -0.131517 10.000000
19.684719 3.531200 -1.430033 61.000000
11.611547 -2.843476 -1.098477 26.000000
8.661309 -6.686980 -1.022792 51.000000
21.021002 33.536350 -0.082896 10.000000
19.739304 3.622840 -1.431523 6.000000
11.622006 -2.798780 -1.102650 24.000000
8.609973 -6.597120 -1.023417 55.000000
20.967224 33.711479 -0.041574 9.000000
11.631811 -2.756075 -1.106823 23.000000
8.562206 -6.510852 -1.022473 25.000000
20.928207 33.912128 0.006955 4.000000
11.661229 -2.717944 -1.108667 7.000000
8.553800 -6.455118 -1.024298 17.000000
13.174850 2.563318 -0.943259 4.000000
11.700039 -2.681816 -1.113527 6.000000
8.588634 -6.432135 -1.035090 14.000000
19.327576 31.825804 0.090982 87.000000
13.067999 2.592274 -0.929272 1.000000
11.695681 -2.633591 -1.112142 3.000000
8.579761 -6.376540 -1.036847 10.000000
19.200823 31.867279 0.129870 106.000000
12.774850 2.582823 -0.909094 1.000000
11.724509 -2.594968 -1.116085 1.000000
5.751236 -4.215437 -0.700426 8.000000
19.084227 31.925343 0.181768 63.000000
12.501947 2.575378 -0.883623 1.000000
11.787071 -2.563533 -1.125386 1.000000
5.790294 -4.211529 -0.709607 6.000000
21.886347 36.919498 0.254691 10.000000
12.336503 2.588467 -0.868173 1.000000
11.771852 -2.515072 -1.125164 1.000000
12.053905 2.575333 -0.846783 1.000000
11.869124 -2.488239 -1.133540 1.000000
5.682682 -4.069901 -0.702601 1.000000
11.845105 2.576154 -0.824270 1.000000
11.975296 -2.464710 -1.147115 1.000000
5.973740 -4.243747 -0.740443 2.000000
11.825982 2.617426 -0.821478 1.000000
12.057246 -2.435548 -1.156268 1.000000
47.112549 82.096939 1.007779 1.000000
11.622189 2.617042 -0.799628 1.000000
12.120004 -2.402024 -1.159258 1.000000
46.713844 82.064407 1.104270 1.000000
11.568425 2.651648 -0.794542 1.000000
12.309546 -2.390504 -1.180917 1.000000
23.647005 41.881172 0.629610 27.000000
4.966734 3.739985 -0.180184 1.000000
11.359956 2.647725 -0.772706 1.000000
12.396672 -2.360307 -1.186216 1.000000
23.480740 41.945049 0.688011 248.000000
5.141613 3.898455 -0.181360 1.000000
11.200530 2.651822 -0.756434 1.000000
12.483538 -2.329466 -1.193703 1.000000
23.341036 42.039104 0.746973 255.000000
5.083749 3.884009 -0.173116 1.000000
11.133034 2.678971 -0.744505 1.000000
23.335924 42.029896 0.780379 255.000000
11.133785 2.679152 -0.732514 1.000000
23.485189 41.935825 0.746662 250.000000
11.338006 2.684370 -0.741214 1.000000
12.632803 -2.357319 -1.180828 1.000000
23.653982 41.893528 0.688584 35.000000
5.238761 3.927657 -0.177173 1.000000
11.430258 2.662007 -0.748658 1.000000
12.409462 -2.362742 -1.154084 1.000000
11.513153 2.636864 -0.749310 1.000000
12.308435 -2.390288 -1.138876 1.000000
5.137906 3.794916 -0.180649 1.000000
11.717204 2.638437 -0.766165 1.000000
12.147940 -2.407560 -1.122693 1.000000
5.810851 -4.097586 -0.703435 1.000000
47.382622 81.870995 1.089690 1.000000
5.058990 3.708047 -0.180682 1.000000
11.965388 2.648281 -0.783901 1.000000
12.061698 -2.436447 -1.106880 1.000000
5.792236 -4.116328 -0.696742 1.000000
47.499771 81.416550 1.003574 1.000000
12.160756 2.642581 -0.796030 1.000000
12.018732 -2.473650 -1.101603 1.000000
5.769118 -4.150114 -0.688060 1.000000
12.287614 2.623023 -0.801498 1.000000
11.921723 -2.503610 -1.085051 1.000000
5.786686 -4.195023 -0.684430 2.000000
21.856668 36.854771 0.366454 30.000000
12.448260 2.609648 -0.815805 1.000000
11.815689 -2.524437 -1.074070 4.000000
5.775676 -4.219420 -0.679914 9.000000
19.073627 31.907612 0.285481 9.000000
12.736176 2.621312 -0.836317 1.000000
11.791939 -2.564591 -1.070636 1.000000
8.962541 -6.557187 -1.053655 14.000000
19.182848 31.824884 0.246453 117.000000
12.960899 2.618084 -0.850438 1.000000
11.836681 -2.619795 -1.067033 1.000000
8.775048 -6.469524 -1.022875 12.000000
19.314693 31.792086 0.214255 152.000000
13.146461 2.605454 -0.864330 1.000000
11.768870 -2.650071 -1.059667 1.000000
8.803801 -6.540663 -1.021290 7.000000
19.459600 31.780079 0.175607 49.000000
11.710774 -2.684277 -1.046904 1.000000
8.800550 -6.588444 -1.012097 1.000000
20.957626 33.946541 0.146222 1.000000
11.768952 -2.743052 -1.050872 1.000000
20.957207 33.682262 0.096932 9.000000
11.710704 -2.774768 -1.042339 2.000000
9.343960 -7.102738 -1.061960 33.000000
21.048666 33.554447 0.069132 9.000000
19.769289 3.617645 -1.306696 18.000000
11.701160 -2.817841 -1.033937 8.000000
9.274961 -7.104077 -1.048847 21.000000
21.181723 33.506172 0.027674 10.000000
19.758028 3.537232 -1.312081 25.000000
11.681251 -2.858384 -1.030982 1.000000
9.261554 -7.147820 -1.037938 27.000000
21.354971 33.520588 -0.020810 10.000000
19.741598 3.459664 -1.306626 98.000000
11.665703 -2.902099 -1.026359 4.000000
9.251591 -7.194389 -1.031524 1.000000
19.749002 3.386402 -1.309798 33.000000
11.597373 -2.930279 -1.017079 26.000000
17.177439 -13.459152 -1.901529 7.000000
19.795500 3.319735 -1.315584 2.000000
11.596377 -2.975286 -1.015837 5.000000
17.097752 -13.498147 -1.882849 7.000000
19.792311 3.244662 -1.321604 5.000000
11.595380 -3.020370 -1.012500 8.000000
17.072836 -13.580348 -1.866396 7.000000
19.784592 3.168978 -1.316792 10.000000
11.589729 -3.064303 -1.004552 3.000000
17.063339 -13.675203 -1.847760 7.000000
19.840210 3.103346 -1.323248 9.000000
11.573403 -3.107580 -0.999952 8.000000
17.086288 -13.791822 -1.840009 7.000000
19.851221 3.030572 -1.326753 9.000000
11.567080 -3.151379 -0.996183 10.000000
16.940216 -13.776761 -1.810517 7.000000
19.896509 2.962903 -1.332571 7.000000
11.589239 -3.203092 -0.996982 4.000000
16.956110 -13.893248 -1.802237 7.000000
19.931692 2.893510 -1.337739 9.000000
11.577755 -3.245641 -0.992785 9.000000
16.944714 -13.988023 -1.787161 7.000000
19.995773 2.831579 -1.344908 7.000000
11.566445 -3.288242 -0.984391 7.000000
16.940741 -14.089466 -1.768952 7.000000
20.149107 2.778000 -1.358094 6.000000
11.559104 -3.331993 -0.984799 7.000000
16.897337 -14.158458 -1.758209 8.000000
11.566016 -3.382140 -0.978018 7.000000
16.838184 -14.224332 -1.730883 7.000000
27.165865 38.869026 -0.587668 6.000000
6.479174 0.816212 -0.437182 1.000000
11.587317 -3.434520 -0.976631 5.000000
16.788042 -14.277642 -1.715107 6.000000
27.209885 38.629700 -0.635042 27.000000
6.348344 0.776105 -0.429281 6.000000
11.598842 -3.484233 -0.974417 7.000000
16.763229 -14.362750 -1.698559 7.000000
27.436749 38.664391 -0.686841 3.000000
6.321348 0.749300 -0.428383 7.000000
11.605391 -3.532626 -0.971786 1.000000
16.790623 -14.493278 -1.691130 7.000000
6.318842 0.727762 -0.428047 9.000000
11.616502 -3.582582 -0.969539 1.000000
16.697111 -14.519694 -1.667640 7.000000
11.613131 -3.628208 -0.966087 4.000000
16.666170 -14.595268 -1.650187 8.000000
23.434784 32.278900 -0.703226 1.000000
11.666606 -3.691903 -0.967357 1.000000
16.658510 -14.696790 -1.635258 7.000000
23.673841 32.369904 -0.742012 10.000000
11.681304 -3.745959 -0.963298 1.000000
16.601652 -14.755188 -1.619385 8.000000
23.709433 32.193970 -0.781662 23.000000
5.134505 2.922734 -0.285853 1.000000
11.706061 -3.801271 -0.957837 1.000000
16.608370 -14.870474 -1.597968 7.000000
23.930708 32.234478 -0.826929 10.000000
5.233020 2.951062 -0.294880 1.000000
11.730253 -3.856711 -0.956631 1.000000
9.192052 -8.291097 -0.878641 29.000000
23.793633 31.805607 -0.859773 4.000000
5.287254 2.956158 -0.300503 1.000000
11.772799 -3.918571 -0.961265 1.000000
9.129624 -8.301496 -0.867195 27.000000
20.567406 27.313702 -0.763972 8.000000
11.801510 -3.976234 -0.956047 1.000000
9.076955 -8.308758 -0.851855 27.000000
20.648836 27.213699 -0.793113 9.000000
11.857951 -4.043705 -0.957415 1.000000
9.063110 -8.354416 -0.842480 3.000000
20.712835 27.101065 -0.827673 8.000000
17.942019 -6.191947 -1.440471 7.000000
16.450159 -15.275733 -1.514672 7.000000
20.781258 26.965532 -0.861747 8.000000
17.726690 -6.190437 -1.418404 6.000000
16.486101 -15.422025 -1.503387 7.000000
21.003414 27.057930 -0.902931 8.000000
17.549210 -6.200716 -1.399478 9.000000
16.339640 -15.397698 -1.475489 7.000000
17.314692 -6.192739 -1.372980 10.000000
7.412201 -7.041296 -0.662918 6.000000
17.132906 -6.198644 -1.353962 8.000000
16.979618 -6.213658 -1.334120 10.000000
7.307332 -7.036917 -0.641807 10.000000
16.746721 -6.198123 -1.311330 8.000000
7.285472 -7.067515 -0.633265 1.000000
25.343843 31.487608 -1.270251 7.000000
16.593763 -6.210756 -1.291800 9.000000
16.218801 -15.849386 -1.394939 7.000000
25.316872 31.219141 -1.291245 12.000000
16.403402 -6.208147 -1.272588 12.000000
7.600582 -7.482120 -0.646719 8.000000
25.276251 30.947607 -1.325544 21.000000
16.239143 -6.207622 -1.249235 9.000000
7.542993 -7.477453 -0.632874 4.000000
25.337959 30.792112 -1.357691 10.000000
16.070107 -6.217055 -1.235118 8.000000
7.325201 -7.314980 -0.607780 199.000000
25.399731 30.648506 -1.396994 10.000000
15.936335 -6.232551 -1.217579 7.000000
7.245925 -7.289051 -0.594415 35.000000
25.571949 30.627132 -1.435145 10.000000
15.790728 -6.236056 -1.202071 9.000000
7.237053 -7.333692 -0.586868 81.000000
25.597328 30.440912 -1.472303 8.000000
15.692041 -6.270016 -1.187573 8.000000
7.355022 -7.505459 -0.589355 40.000000
25.623919 30.246777 -1.502088 1.000000
15.581465 -6.292157 -1.175048 6.000000
25.668699 30.075438 -1.539709 1.000000
15.554248 -6.347571 -1.165903 6.000000
7.075080 -7.326459 -0.553382 8.000000
25.756176 29.965471 -1.580115 6.000000
7.177585 -2.993621 -0.531537 1.000000
7.056706 -7.358665 -0.545027 30.000000
25.779711 29.771408 -1.616162 57.000000
7.134556 -3.006420 -0.526447 1.000000
7.105817 -7.464452 -0.540107 25.000000
16.836948 19.307358 -1.073692 6.000000
6.036973 2.794589 -0.409211 1.000000
7.032985 -2.991122 -0.515662 1.000000
7.181620 -7.599662 -0.538833 20.000000
17.029089 19.383806 -1.099452 6.000000
6.092343 2.793152 -0.415790 1.000000
6.419042 0.075066 -0.446642 1.000000
7.035445 -3.024120 -0.512662 1.000000
7.188201 -7.662694 -0.532238 17.000000
17.122292 19.346422 -1.132506 6.000000
6.434237 0.051658 -0.447683 1.000000
7.028603 -3.053207 -0.508984 1.000000
7.141301 -7.666151 -0.521577 25.000000
17.218964 19.319353 -1.157061 7.000000
7.017609 -3.079054 -0.504971 1.000000
7.069384 -7.644939 -0.509259 13.000000
17.362253 19.336964 -1.189190 7.000000
17.475819 19.334085 -1.215362 6.000000
17.633247 19.371893 -1.244511 6.000000
17.723642 19.328413 -1.268820 7.000000
7.145392 -7.949702 -0.485384 8.000000
17.935778 19.416407 -1.306649 5.000000
6.918312 -7.751314 -0.462709 10.000000
18.060480 19.414995 -1.333987 6.000000
18.215914 19.438730 -1.368165 7.000000
6.914664 -7.862490 -0.446167 39.000000
18.378586 19.468815 -1.403127 7.000000
6.683700 -7.653575 -0.424102 28.000000
18.424944 19.381937 -1.424894 6.000000
18.622757 19.446791 -1.458235 6.000000
6.631194 -7.706753 -0.404792 37.000000
18.762341 19.449341 -1.487227 6.000000
18.867195 19.415117 -1.518325 6.000000
6.744367 -7.952683 -0.396937 131.000000
19.049133 19.465923 -1.551333 5.000000
6.591311 -7.827434 -0.378804 47.000000
19.214010 19.490982 -1.582895 6.000000
10.970125 4.323459 -0.822464 1.000000
6.793553 -8.127881 -0.381028 27.000000
19.379301 19.515070 -1.614690 6.000000
10.994655 4.286637 -0.831398 1.000000
6.680973 -8.052989 -0.367224 39.000000
19.552294 19.559120 -1.647910 8.000000
10.888896 4.199492 -0.828373 1.000000
6.491026 -7.879847 -0.347589 224.000000
19.654352 19.510801 -1.679291 9.000000
10.838707 4.134565 -0.827466 1.000000
6.323836 -0.367952 -0.442954 6.000000
6.677345 -8.166842 -0.351794 43.000000
19.846029 19.570841 -1.709645 12.000000
10.820989 4.082437 -0.826994 1.000000
6.327654 -0.391450 -0.439983 8.000000
6.384487 -7.864519 -0.325420 30.000000
20.076313 19.639597 -1.757122 10.000000
10.835336 4.042546 -0.835068 1.000000
6.385750 -0.418544 -0.446371 7.000000
6.327540 -7.853018 -0.316935 40.000000
20.144024 19.575529 -1.777044 8.000000
10.770131 3.973311 -0.834957 1.000000
6.459046 -0.444864 -0.450460 6.000000
6.342618 -7.931055 -0.308499 36.000000
20.318258 19.593718 -1.815443 9.000000
10.779663 3.932002 -0.838600 1.000000
6.433155 -8.102087 -0.305240 28.000000
20.478653 19.604046 -1.853155 9.000000
10.765165 3.882066 -0.846400 1.000000
20.574505 19.551794 -1.880207 8.000000
10.793133 3.847507 -0.851507 1.000000
6.196760 -7.920087 -0.275626 33.000000
20.457119 19.311546 -1.878413 8.000000
10.784031 3.797657 -0.853645 3.000000
32.661674 -2.604947 -2.285433 1.000000
21.744678 -11.786749 -1.339532 21.000000
6.170901 -7.946882 -0.266983 147.000000
19.616499 18.388931 -1.828319 7.000000
10.759783 3.744847 -0.856632 3.000000
32.985344 -2.752465 -2.302966 7.000000
21.171482 -11.576644 -1.302603 27.000000
6.176833 -8.012099 -0.259614 42.000000
19.583048 18.210434 -1.841820 7.000000
10.763722 3.702045 -0.859856 4.000000
29.838612 -2.610540 -2.083983 6.000000
20.548233 -11.333878 -1.250374 34.000000
6.077702 -7.943556 -0.247935 55.000000
19.571507 18.066391 -1.857849 8.000000
10.701122 3.636708 -0.861720 231.000000
19.996624 -11.125407 -1.207266 26.000000
6.183126 -8.140066 -0.242683 24.000000
19.622995 17.993767 -1.875741 10.000000
10.695046 3.590971 -0.866107 235.000000
27.550953 -2.604332 -1.915725 7.000000
6.282786 -8.334513 -0.236856 36.000000
19.687105 17.920168 -1.908267 11.000000
10.717312 3.554790 -0.870814 229.000000
18.987381 -10.742543 -1.131856 18.000000
6.349595 -8.484591 -0.233087 15.000000
19.821964 17.910519 -1.933710 11.000000
10.715767 3.510735 -0.873596 227.000000
18.536545 -10.577346 -1.092346 14.000000
6.333500 -8.528065 -0.222513 30.000000
10.704266 3.463574 -0.879520 229.000000
18.173538 -10.458691 -1.062199 27.000000
6.226699 -8.445688 -0.208803 23.000000
10.721344 3.425741 -0.883839 224.000000
84.226555 -9.224308 -5.895190 25.000000
18.144360 -10.530614 -1.048059 11.000000
6.186931 -8.456466 -0.201189 32.000000
10.700111 3.375785 -0.886974 227.000000
84.237801 -9.538117 -5.883517 22.000000
18.088871 -10.587231 -1.036087 25.000000
6.192767 -8.526742 -0.189466 18.000000
10.707939 3.333101 -0.890494 220.000000
20.684208 -2.418857 -1.441628 1.000000
18.058857 -10.658719 -1.029261 37.000000
10.753137 3.303988 -0.897192 3.000000
19.863293 -2.396688 -1.381507 1.000000
18.041742 -10.737972 -1.015829 21.000000
6.189970 -8.652437 -0.170839 9.000000
10.798260 3.274587 -0.903913 1.000000
20.072414 -2.496594 -1.393131 1.000000
17.991753 -10.793447 -1.004119 22.000000
10.795259 3.230520 -0.910582 1.000000
19.592621 -2.509873 -1.367388 5.000000
17.982582 -10.877774 -0.991120 26.000000
10.778043 3.182374 -0.912089 1.000000
19.474726 -2.567354 -1.356363 7.000000
17.951414 -10.948992 -0.984251 19.000000
10.765406 3.135791 -0.913980 1.000000
19.415995 -2.632047 -1.349499 12.000000
17.911745 -11.015071 -0.969571 11.000000
5.917614 -8.527026 -0.126812 26.000000
10.766631 3.093384 -0.920989 2.000000
19.361511 -2.700410 -1.342996 9.000000
17.892906 -11.094072 -0.959699 14.000000
5.900569 -8.569351 -0.116223 17.000000
10.763737 3.047859 -0.923665 4.000000
19.301874 -2.764251 -1.342972 9.000000
17.865116 -11.167699 -0.953028 27.000000
6.152773 -9.002742 -0.114195 31.000000
10.763564 3.009291 -0.930645 13.000000
19.287897 -2.827553 -1.339226 27.000000
17.835035 -11.235669 -0.938764 32.000000
6.125757 -9.027328 -0.102823 1.000000
10.730976 2.957818 -0.930796 174.000000
19.287500 -2.899746 -1.336507 9.000000
17.798500 -11.303988 -0.924267 19.000000
6.152519 -9.142120 -0.092320 21.000000
4.397435 3.562243 -0.485168 1.000000
10.766491 2.921155 -0.936773 7.000000
14.542878 -2.246159 -1.010931 1.000000
17.757488 -11.369493 -0.909547 21.000000
6.053971 -9.063832 -0.079900 39.000000
4.309259 3.464733 -0.477924 1.000000
10.780774 2.886683 -0.939140 1.000000
14.461613 -2.282733 -1.003235 1.000000
17.745605 -11.453805 -0.896310 19.000000
5.832949 -8.802608 -0.066350 63.000000
4.403361 3.513899 -0.491882 1.000000
10.821041 2.848942 -0.949467 1.000000
19.258518 -3.119200 -1.333444 9.000000
17.712143 -11.524387 -0.889358 17.000000
6.164854 -9.374393 -0.060706 20.000000
4.333813 3.432476 -0.488539 3.000000
10.831088 2.809179 -0.953373 1.000000
19.221794 -3.189041 -1.331739 7.000000
17.684855 -11.594699 -0.875226 19.000000
13.099680 -20.079544 -0.104610 33.000000
10.850318 2.771763 -0.962041 25.000000
17.654999 -11.667871 -0.868459 22.000000
12.967055 -20.028683 -0.083287 24.000000
10.893101 2.744244 -0.966997 26.000000
17.629244 -11.743913 -0.854491 13.000000
12.840347 -19.985546 -0.058044 29.000000
10.918207 2.704006 -0.972210 21.000000
9.909039 -6.653579 -0.473125 1.000000
5.801733 -9.103390 -0.015073 8.000000
10.965631 2.675160 -0.983535 1.000000
13.671302 -2.469710 -0.949538 1.000000
9.872310 -6.681543 -0.468370 1.000000
5.745872 -9.085559 -0.007505 41.000000
11.042835 2.651150 -0.993575 1.000000
13.510406 -2.491813 -0.934173 1.000000
9.860271 -6.726220 -0.464792 1.000000
5.574371 -8.886309 0.001831 32.000000
11.115902 2.621543 -1.005221 1.000000
13.603972 -2.560662 -0.943712 1.000000
9.923334 -6.820119 -0.464675 1.000000
5.580306 -8.965136 0.011058 27.000000
11.197523 2.597506 -1.019822 1.000000
17.480564 -12.108631 -0.805758 14.000000
5.514812 -8.929243 0.021981 32.000000
11.367030 2.592960 -1.036438 1.000000
12.820708 -2.513000 -0.890660 1.000000
17.465204 -12.192960 -0.792213 21.000000
5.690971 -9.290462 0.034228 5.000000
11.478244 2.572002 -1.053948 1.000000
12.708687 -2.539446 -0.883519 1.000000
17.432991 -12.265754 -0.781610 17.000000
5.697442 -9.374331 0.044036 8.000000
11.516232 2.536223 -1.062799 1.000000
12.581828 -2.562089 -0.877598 1.000000
17.390293 -12.326689 -0.774170 10.000000
5.296502 -8.787045 0.050140 1.000000
11.650749 2.525367 -1.078630 1.000000
12.494502 -2.592036 -0.867688 1.000000
17.365761 -12.405178 -0.760178 10.000000
12.322717 -20.606079 0.142477 24.000000
4.375646 3.179093 -0.535083 1.000000
11.795740 2.511566 -1.097561 1.000000
12.397211 -2.619282 -0.859371 1.000000
17.353138 -12.483277 -0.753962 22.000000
12.227685 -20.610151 0.163123 32.000000
12.077481 2.523117 -1.131552 1.000000
12.260726 -2.637426 -0.850575 1.000000
17.307585 -12.547027 -0.742769 12.000000
12.235652 -20.796907 0.185303 40.000000
4.337222 3.102857 -0.538870 1.000000
12.642084 2.592748 -1.190366 1.000000
12.177446 -2.666247 -0.852027 1.000000
17.289934 -12.631163 -0.736510 17.000000
12.165126 -20.826462 0.206274 37.000000
4.335702 3.077808 -0.545714 1.000000
12.889208 2.594239 -1.228933 1.000000
11.976661 -2.670517 -0.847297 1.000000
17.263538 -12.709185 -0.741111 15.000000
4.423255 3.151584 -0.560299 1.000000
12.574789 2.530955 -1.221541 1.000000
11.941418 -2.662659 -0.861969 1.000000
17.250618 -12.699673 -0.770503 10.000000
12.149082 -20.992029 0.198963 10.000000
4.444074 3.191040 -0.563449 1.000000
12.389893 2.541026 -1.204476 1.000000
11.964825 -2.621882 -0.875851 1.000000
17.269978 -12.621207 -0.791825 10.000000
12.146527 -20.802958 0.163974 54.000000
4.355474 3.152837 -0.550902 1.000000
12.039035 2.515085 -1.175588 1.000000
12.047033 -2.593659 -0.887653 1.000000
17.295218 -12.542666 -0.813274 15.000000
12.281146 -20.857571 0.130961 33.000000
4.356177 3.177744 -0.549607 1.000000
11.819759 2.516680 -1.157240 1.000000
12.148549 -2.568960 -0.903147 1.000000
17.336079 -12.475596 -0.842906 10.000000
12.231466 -20.608330 0.096201 28.000000
4.332707 3.185019 -0.545271 1.000000
11.572493 2.508405 -1.129752 1.000000
12.259952 -2.545609 -0.917320 1.000000
17.366840 -12.405949 -0.857215 18.000000
12.316208 -20.587036 0.071180 22.000000
4.421247 3.275135 -0.554040 1.000000
11.500034 2.536864 -1.123579 1.000000
12.332561 -2.513572 -0.924266 1.000000
17.386999 -12.324354 -0.878329 23.000000
12.431926 -20.616774 0.037817 15.000000
4.349491 3.246737 -0.545579 1.000000
11.403497 2.557344 -1.117071 1.000000
12.526531 -2.505322 -0.951559 2.000000
17.427204 -12.257134 -0.900436 14.000000
5.727005 -9.426680 0.003850 8.000000
4.299488 3.248139 -0.534995 1.000000
11.276685 2.576492 -1.105652 1.000000
12.677360 -2.487199 -0.964585 1.000000
17.440561 -12.175756 -0.917520 10.000000
5.713520 -9.323617 -0.007634 9.000000
4.327517 3.294298 -0.535189 1.000000
11.194817 2.600996 -1.094504 1.000000
12.896765 -2.481191 -0.982886 5.000000
17.476192 -12.105602 -0.935642 11.000000
5.659317 -9.163215 -0.022557 18.000000
4.295893 3.295164 -0.529906 1.000000
11.074887 2.611870 -1.081616 1.000000
13.017780 -2.455029 -1.000717 1.000000
9.871410 -6.784433 -0.535540 1.000000
5.767876 -9.266479 -0.034290 18.000000
4.543958 3.511970 -0.558042 1.000000
11.011438 2.643612 -1.072459 5.000000
13.139282 -2.428107 -1.011711 2.000000
9.849334 -6.718760 -0.541407 1.000000
5.703443 -9.088542 -0.044946 10.000000
4.280128 3.333189 -0.522359 1.000000
10.977027 2.679971 -1.070101 1.000000
13.437370 -2.432294 -1.036367 1.000000
9.852816 -6.668350 -0.550656 1.000000
5.729754 -9.060073 -0.058000 9.000000
10.943336 2.714283 -1.063809 1.000000
13.755164 -2.435309 -1.069957 2.000000
9.930609 -6.668062 -0.566187 7.000000
5.790868 -9.086342 -0.069581 28.000000
10.876165 2.735940 -1.060130 12.000000
13.797828 -2.390739 -1.079963 2.000000
17.644098 -11.762703 -1.018576 9.000000
5.788505 -9.016522 -0.082284 10.000000
4.310187 3.433393 -0.519928 1.000000
10.870888 2.777017 -1.060601 10.000000
17.642504 -11.672891 -1.038330 10.000000
4.433741 3.558454 -0.532397 1.000000
10.836411 2.812578 -1.054340 1.000000
17.747179 -11.648852 -1.056828 10.000000
11.975897 -18.363983 -0.218115 21.000000
10.801320 2.849799 -1.048097 7.000000
17.713648 -11.525367 -1.066858 9.000000
4.547069 3.704536 -0.540992 1.000000
10.821021 2.893412 -1.046989 5.000000
17.759369 -11.471473 -1.085813 9.000000
5.854398 -8.841677 -0.129561 82.000000
10.809319 2.936827 -1.046989 1.000000
17.878328 -11.451262 -1.105251 8.000000
6.054781 -9.068471 -0.146548 17.000000
10.779116 2.973111 -1.041225 6.000000
17.932165 -11.393274 -1.120864 7.000000
6.115803 -9.087564 -0.158691 14.000000
10.802761 3.018217 -1.044470 5.000000
19.321291 -2.839338 -1.547239 10.000000
17.960131 -11.318854 -1.142305 7.000000
6.136133 -9.049416 -0.173668 19.000000
4.447707 3.733392 -0.518254 1.000000
10.772818 3.052462 -1.038707 3.000000
19.257076 -2.761265 -1.541316 10.000000
17.950497 -11.229788 -1.150437 7.000000
6.140946 -8.985436 -0.184271 87.000000
10.766690 3.093400 -1.035259 1.000000
19.306427 -2.689292 -1.558084 8.000000
17.983965 -11.154877 -1.172056 7.000000
5.882973 -8.543797 -0.186500 43.000000
10.769966 3.137120 -1.032724 1.000000
19.360334 -2.624502 -1.565079 7.000000
18.007402 -11.086895 -1.185990 7.000000
5.909777 -8.518909 -0.199077 195.000000
10.737634 3.176555 -1.030890 1.000000
19.428576 -2.561270 -1.576711 3.000000
18.055313 -11.016685 -1.201037 8.000000
5.952295 -8.513403 -0.210340 33.000000
10.742038 3.216636 -1.024437 2.000000
19.610249 -2.519089 -1.587295 1.000000
18.108286 -10.966768 -1.213256 8.000000
5.924273 -8.410653 -0.219089 23.000000
10.754000 3.263215 -1.026712 6.000000
18.112913 -10.870433 -1.225429 8.000000
5.954925 -8.388692 -0.229862 18.000000
10.737379 3.301198 -1.024296 10.000000
19.954044 -2.411171 -1.627735 1.000000
18.152224 -10.812310 -1.244157 8.000000
6.021802 -8.420475 -0.243961 25.000000
10.687514 3.328790 -1.016757 233.000000
20.511892 -2.402335 -1.676140 7.000000
18.159021 -10.730661 -1.256825 9.000000
6.037881 -8.384060 -0.252507 20.000000
10.689239 3.374407 -1.014201 232.000000
18.158714 -10.640879 -1.268842 9.000000
6.108018 -8.413139 -0.266797 80.000000
10.686620 3.416702 -1.011185 240.000000
18.213268 -10.574857 -1.288124 8.000000
6.237470 -8.528667 -0.284067 63.000000
10.684004 3.459078 -1.006203 227.000000
18.260424 -10.521424 -1.303753 8.000000
6.292229 -8.537692 -0.296249 16.000000
10.699982 3.507631 -1.004950 227.000000
22.729654 -2.324827 -1.874453 4.000000
18.480255 -10.558057 -1.327864 9.000000
10.682328 3.545257 -1.004506 221.000000
23.253849 -2.288255 -1.921048 5.000000
19.052065 -10.792313 -1.381446 8.000000
6.379754 -8.527993 -0.317953 30.000000
10.683923 3.589311 -0.999938 224.000000
27.459076 -2.600482 -2.267648 7.000000
6.117539 -8.118248 -0.314125 158.000000
18.745001 17.333769 -2.009337 5.000000
10.693968 3.638441 -0.998204 39.000000
27.845188 -2.534111 -2.303665 8.000000
6.110784 -8.047744 -0.322854 36.000000
18.538843 17.257530 -1.975571 7.000000
10.732692 3.695562 -0.999083 1.000000
27.907686 -2.436698 -2.322849 8.000000
6.053895 -7.921031 -0.328983 57.000000
18.732405 17.578600 -1.981149 7.000000
10.752493 3.746518 -0.996190 1.000000
28.090225 -2.348928 -2.337310 8.000000
6.171093 -8.013328 -0.344357 242.000000
18.686132 17.652073 -1.959871 7.000000
10.790362 3.804121 -1.000984 1.000000
28.385498 -2.268885 -2.376185 8.000000
6.214116 -8.011190 -0.355825 25.000000
18.748957 17.841913 -1.950590 9.000000
10.772473 3.842262 -0.990567 1.000000
18.677931 17.911493 -1.927632 20.000000
10.744587 3.876765 -0.985286 1.000000
6.242669 -7.924476 -0.375200 79.000000
18.547882 17.905228 -1.897707 13.000000
6.284232 -7.923045 -0.384955 25.000000
18.422302 17.914906 -1.873528 10.000000
6.348583 -7.941355 -0.401243 27.000000
18.294878 17.934443 -1.836412 9.000000
7.237344 2.736208 -0.655160 1.000000
6.058700 -0.347221 -0.509598 9.000000
6.286586 -7.804979 -0.402522 34.000000
18.196938 17.957151 -1.819094 8.000000
7.213519 2.757460 -0.651199 1.000000
6.059988 -0.323954 -0.509598 8.000000
6.386310 -7.877998 -0.417958 48.000000
18.195408 18.081440 -1.802742 7.000000
6.989894 2.701381 -0.627950 4.000000
6.534525 -7.995011 -0.438191 37.000000
18.288752 18.307913 -1.795933 7.000000
6.485954 -7.879292 -0.442010 49.000000
18.268503 18.422195 -1.773266 7.000000
6.517678 -7.858951 -0.452918 42.000000
19.087362 19.389566 -1.835783 7.000000
6.503622 -7.792053 -0.460888 33.000000
18.982193 19.424627 -1.813456 7.000000
6.308392 -3.069997 -0.520129 1.000000
6.486821 -7.714272 -0.468268 31.000000
18.807657 19.380903 -1.779563 7.000000
6.323847 -3.048901 -0.524174 3.000000
6.601894 -7.792954 -0.485229 87.000000
18.685640 19.396917 -1.751128 6.000000
6.370723 -3.042775 -0.530849 8.000000
6.628779 -7.769537 -0.494141 28.000000
18.563951 19.412493 -1.718135 6.000000
6.399608 -3.027814 -0.536056 10.000000
6.653616 -7.741006 -0.504589 4.000000
18.456070 19.435049 -1.686239 7.000000
6.437493 -3.016912 -0.542044 19.000000
18.245169 19.354532 -1.654798 7.000000
6.483725 -3.011020 -0.551323 11.000000
6.746990 -7.731495 -0.527006 119.000000
18.110493 19.353294 -1.621144 6.000000
6.703079 -7.629955 -0.530484 56.000000
17.996218 19.366236 -1.593800 6.000000
6.848403 -7.740711 -0.550697 37.000000
17.817757 19.315681 -1.561240 7.000000
6.869697 -7.707670 -0.560977 48.000000
17.656561 19.282265 -1.534982 7.000000
6.936179 -7.727785 -0.575107 38.000000
17.607187 19.363621 -1.504473 7.000000
17.433453 19.314304 -1.468332 7.000000
17.310165 19.306049 -1.440633 7.000000
17.143862 19.262146 -1.410087 7.000000
6.836810 -2.935912 -0.603880 1.000000
17.037811 19.278072 -1.379870 6.000000
7.039854 -2.992592 -0.624873 1.000000
7.073375 -7.598549 -0.624034 104.000000
16.908558 19.273727 -1.352676 7.000000
6.251224 0.123304 -0.531626 1.000000
7.018322 -2.953114 -0.626010 1.000000
6.973192 -7.438694 -0.621831 69.000000
16.714184 19.186852 -1.315756 6.000000
6.948563 -7.358183 -0.627864 52.000000
16.611683 19.210901 -1.295444 7.000000
6.988863 -7.346728 -0.637952 31.000000
16.542177 19.272842 -1.264415 6.000000
6.898911 -7.204178 -0.636296 30.000000
16.349174 19.183065 -1.232724 7.000000
7.013680 -7.273033 -0.653390 22.000000
16.279572 19.230206 -1.214646 7.000000
16.119820 19.190439 -1.177527 7.000000
7.197586 -7.349933 -0.685079 27.000000
15.957398 19.139076 -1.144627 5.000000
7.299837 -7.402481 -0.701461 7.000000
15.859238 19.163713 -1.116514 6.000000
15.716748 19.127075 -1.089530 7.000000
7.587053 -2.935210 -0.698849 1.000000
15.549378 19.065422 -1.056952 6.000000
7.555317 -2.891140 -0.702057 1.000000
15.492853 19.132080 -1.031816 5.000000
7.631085 -2.888114 -0.708109 1.000000
7.197110 -7.092361 -0.718979 10.000000
7.686918 -2.880139 -0.716731 3.000000
7.239193 -7.084193 -0.729592 10.000000
23.243923 29.127583 -1.490211 9.000000
16.680950 -6.173780 -1.559270 9.000000
7.399503 -7.183149 -0.751883 20.000000
23.250414 29.334723 -1.464140 12.000000
16.854897 -6.174688 -1.583079 8.000000
7.336662 -7.075040 -0.752052 21.000000
23.095457 29.370182 -1.415757 24.000000
17.011234 -6.151265 -1.601692 8.000000
7.365669 -7.051095 -0.761319 27.000000
21.088795 27.002140 -1.268289 5.000000
17.213621 -6.159979 -1.628464 8.000000
7.537909 -7.165721 -0.785659 1.000000
20.884760 26.953604 -1.226479 8.000000
