VERSION .7
FIELDS x y z intensity
SIZE 4 4 4 4
TYPE F F F F
COUNT 1 1 1 1
WIDTH 1231
HEIGHT 1
VIEWPOINT 0 0 0 1 0 0 0
POINTS 1231
DATA ascii
102.024261 5.471861 9.801944 9.000000
42.554005 -16.266817 3.673443 10.000000
7.760197 -7.668640 0.571770 3.000000
22.271339 27.690062 2.597073 9.000000
94.638016 48.909092 9.919915 31.000000
101.078705 5.775062 9.677313 1.000000
42.740410 -16.158781 3.668344 10.000000
7.813417 -7.664832 0.567871 7.000000
94.847710 49.437729 9.997583 30.000000
8.843421 -8.611873 0.631792 176.000000
94.621582 49.761742 10.049375 29.000000
92.856438 5.988482 8.910462 22.000000
8.886011 -8.590117 0.623931 174.000000
21.998524 27.975227 2.688414 7.000000
94.768082 50.283051 10.141111 26.000000
92.954147 6.320679 8.921902 12.000000
50.401424 -18.434328 4.251946 9.000000
8.905447 -8.548972 0.614556 143.000000
20.702770 26.517412 2.570885 8.000000
94.913635 50.785652 10.213508 29.000000
93.147224 6.676877 8.959171 6.000000
50.409107 -18.227942 4.228101 11.000000
8.889955 -8.471708 0.604895 92.000000
20.650137 26.650801 2.600138 10.000000
95.168900 51.371799 10.318309 29.000000
92.955238 7.005655 8.975955 1.000000
50.271305 -17.979939 4.201877 18.000000
8.928505 -8.446219 0.596806 16.000000
20.809786 27.061117 2.650692 9.000000
95.169441 51.801903 10.376078 14.000000
92.858894 7.324461 8.936252 21.000000
50.460438 -17.839251 4.193395 9.000000
8.959703 -8.413722 0.588226 23.000000
20.765493 27.199472 2.681164 8.000000
95.423508 52.394474 10.482170 27.000000
45.698643 -15.967629 3.775787 9.000000
8.946940 -8.340238 0.576819 19.000000
20.673273 27.285442 2.712210 8.000000
95.532379 52.910877 10.553837 20.000000
91.204475 7.867089 8.798477 1.000000
45.550781 -15.728868 3.741858 27.000000
8.961557 -8.295588 0.569482 21.000000
20.628895 27.435196 2.743677 8.000000
68.407631 38.200401 7.613355 15.000000
92.632301 8.316104 8.955348 2.000000
45.620174 -15.574813 3.734606 28.000000
8.981159 -8.252816 0.560269 17.000000
21.339472 28.587423 2.882772 9.000000
68.453285 38.555706 7.689481 5.000000
91.319633 8.535771 8.863722 1.000000
45.582481 -15.375635 3.726882 21.000000
8.967351 -8.179710 0.549042 19.000000
19.578106 26.429337 2.681009 8.000000
92.497940 8.988014 8.964859 12.000000
38.442219 -12.795477 3.110406 8.000000
9.012701 -8.100842 0.533333 15.000000
67.045845 38.724541 7.673522 27.000000
46.139248 -15.009358 3.699276 25.000000
8.997879 -8.028093 0.522277 19.000000
20.844648 28.785173 2.984370 9.000000
67.584946 39.351170 7.806036 13.000000
9.025985 -7.996757 0.518067 19.000000
19.402233 26.991121 2.814700 8.000000
67.387604 39.567696 7.813715 3.000000
8.466619 -7.445966 0.474535 21.000000
19.298845 27.055984 2.843281 9.000000
66.950607 39.641811 7.834706 11.000000
9.062316 -7.911135 0.499984 21.000000
19.288488 27.232027 2.878513 8.000000
66.641701 39.773731 7.855806 22.000000
9.062342 -7.858355 0.490156 22.000000
19.099291 27.185627 2.895047 12.000000
9.093943 -7.822025 0.485969 19.000000
19.358395 27.749605 2.972056 12.000000
9.102451 -7.774228 0.476600 22.000000
19.456326 28.108984 3.032953 8.000000
65.471237 40.042278 7.890262 10.000000
9.105512 -7.724768 0.469155 23.000000
19.252989 28.034229 3.047167 24.000000
65.287819 40.259640 7.912945 7.000000
9.140519 -7.691580 0.461011 18.000000
19.479166 28.576811 3.123073 9.000000
74.839401 -21.672050 5.803695 7.000000
9.127824 -7.629338 0.452854 19.000000
9.127725 -7.567224 0.447194 23.000000
64.103874 40.493477 7.969250 6.000000
74.026001 -20.863544 5.688400 18.000000
9.147921 -7.527565 0.438547 26.000000
21.101660 31.688507 3.531789 9.000000
63.821358 40.627377 7.978412 6.000000
74.209579 -20.621988 5.669629 14.000000
9.149796 -7.478360 0.431249 27.000000
21.000412 31.800467 3.562090 9.000000
63.513676 40.759399 7.998526 6.000000
74.627083 -20.443661 5.682185 23.000000
9.170913 -7.437066 0.422642 27.000000
22.858259 34.864635 3.933509 7.000000
29.654715 19.177153 3.761641 8.000000
44.900814 -12.131987 3.399228 7.000000
9.190495 -7.397274 0.416107 27.000000
22.633833 34.799835 3.946054 9.000000
29.626791 19.298729 3.784921 8.000000
9.195629 -7.351291 0.409061 21.000000
29.483555 19.359711 3.794343 7.000000
77.315460 -20.283333 5.841774 14.000000
9.210878 -7.308308 0.404436 27.000000
77.536102 -20.037762 5.824753 12.000000
9.240361 -7.271447 0.396227 28.000000
19.987946 31.471676 3.642442 9.000000
61.190945 40.809288 8.003169 3.000000
130.082809 22.071928 13.192827 21.000000
77.647980 -19.806656 5.814395 20.000000
9.237024 -7.219351 0.388910 27.000000
19.980074 31.703272 3.687565 9.000000
60.858986 40.895542 8.017223 18.000000
130.456558 22.674475 13.263197 13.000000
78.003555 -19.564196 5.820983 5.000000
9.247787 -7.173319 0.382119 37.000000
60.902725 41.249748 8.081825 4.000000
130.728180 23.215622 13.369596 14.000000
77.677742 -19.180140 5.791384 14.000000
9.270214 -7.136448 0.375830 29.000000
130.642517 23.624014 13.391765 10.000000
9.271349 -7.085917 0.370794 31.000000
60.533470 41.634621 8.150030 14.000000
130.901413 24.213884 13.451632 10.000000
9.281534 -7.039963 0.362026 27.000000
20.385038 33.409161 3.989217 9.000000
130.891983 24.684980 13.482922 10.000000
80.747757 -19.013573 5.960921 23.000000
9.297887 -6.993748 0.355468 29.000000
20.356998 33.626644 4.034406 10.000000
60.880711 42.550003 8.357673 4.000000
131.062119 25.214865 13.533408 10.000000
9.309165 -6.954014 0.348926 26.000000
60.807617 42.799763 8.419651 18.000000
131.224655 25.697689 13.629655 10.000000
9.302568 -6.896110 0.343683 20.000000
19.724344 33.127323 4.031859 9.000000
60.836613 43.138519 8.484016 9.000000
131.697662 26.267986 13.711905 10.000000
9.344028 -6.873919 0.338203 7.000000
20.264687 34.306698 4.194887 10.000000
60.533012 43.257530 8.503194 11.000000
131.374115 26.704489 13.759248 10.000000
80.449432 -17.746841 5.905332 4.000000
17.277212 -12.612622 0.616191 37.000000
20.247526 34.566341 4.252882 10.000000
60.543758 43.601315 8.566674 15.000000
131.735703 27.281151 13.831223 30.000000
80.539307 -17.457361 5.892735 13.000000
17.402332 -12.611079 0.607817 30.000000
60.421299 43.834229 8.636951 12.000000
17.554195 -12.623263 0.600171 33.000000
20.077822 34.845997 4.340499 10.000000
60.406151 44.162067 8.684337 19.000000
36.485813 -7.635576 2.645836 6.000000
17.568134 -12.535856 0.583994 33.000000
19.853800 34.722878 4.359316 10.000000
17.544699 -12.422338 0.577943 35.000000
19.733040 34.792969 4.394765 10.000000
47.691551 -9.616304 3.470305 43.000000
17.578007 -12.349447 0.570041 37.000000
19.888313 35.397121 4.496819 7.000000
60.298409 45.076153 8.910509 1.000000
47.700962 -9.445045 3.460040 200.000000
17.586489 -12.259380 0.557623 34.000000
19.775873 35.501060 4.536687 10.000000
59.957287 45.164654 8.937647 12.000000
47.989250 -9.319473 3.487025 195.000000
17.615021 -12.183578 0.549627 35.000000
18.679544 33.796101 4.358642 8.000000
35.002022 26.567982 5.286580 7.000000
48.272350 -9.190981 3.513745 114.000000
17.688484 -12.138785 0.546780 33.000000
18.447021 33.652332 4.372474 9.000000
34.980320 26.744473 5.336355 8.000000
18.453999 33.679001 4.402682 9.000000
34.959343 26.728436 5.387716 7.000000
113.243263 26.853062 12.519995 11.000000
18.674551 33.787067 4.405249 9.000000
59.809494 45.397881 9.166388 7.000000
113.566895 26.490534 12.606727 2.000000
48.272579 -9.199756 3.625966 114.000000
17.681433 -12.138486 0.584086 33.000000
19.734652 35.412525 4.597465 10.000000
59.834045 45.071819 9.131501 12.000000
113.885826 26.146101 12.590659 2.000000
47.993179 -9.328929 3.616103 174.000000
17.616018 -12.188814 0.594622 34.000000
19.860620 35.333385 4.575116 8.000000
60.017406 44.882420 9.108972 1.000000
115.409233 26.050930 12.769328 11.000000
47.696331 -9.452779 3.638990 179.000000
17.587193 -12.264432 0.613888 37.000000
19.963745 35.228394 4.534734 10.000000
60.245117 44.709351 9.078741 9.000000
115.589127 25.646658 12.799650 6.000000
47.724285 -9.640241 3.652339 22.000000
17.578569 -12.354424 0.630176 31.000000
19.902348 34.821884 4.456330 10.000000
60.208805 44.357323 9.010151 7.000000
115.597557 25.225477 12.769865 6.000000
17.520662 -12.409912 0.640978 31.000000
19.965393 34.650875 4.422140 10.000000
60.292099 44.078686 8.985155 11.000000
36.525543 -7.650545 2.825619 7.000000
17.568153 -12.540498 0.663246 35.000000
20.093826 34.607964 4.403934 7.000000
60.415985 43.846470 8.954320 21.000000
36.345623 -7.752026 2.820403 2.000000
17.558302 -12.630864 0.675954 32.000000
20.345097 34.719013 4.392884 9.000000
60.515621 43.581051 8.905746 17.000000
17.377882 -12.597988 0.689531 33.000000
20.199738 34.196743 4.307642 10.000000
60.664604 43.367565 8.892138 7.000000
131.508591 26.707922 14.459574 10.000000
46.026711 -10.170170 3.610438 7.000000
17.270771 -12.617163 0.698322 35.000000
19.765009 33.208801 4.170956 9.000000
60.708237 43.063412 8.848989 15.000000
131.271881 26.183064 14.447046 10.000000
80.508850 -18.084402 6.363668 5.000000
9.344375 -6.879203 0.388982 29.000000
20.291506 33.824203 4.229264 10.000000
60.849785 42.845322 8.808251 7.000000
131.496292 25.727055 14.437612 18.000000
80.465248 -18.384665 6.379996 19.000000
9.306893 -6.904352 0.394547 21.000000
60.651970 42.374382 8.717797 1.000000
131.284607 25.186390 14.380533 21.000000
80.466896 -18.695625 6.429032 2.000000
9.301371 -6.953251 0.401478 29.000000
20.451040 33.543663 4.149968 10.000000
130.670639 24.596003 14.327266 19.000000
80.571388 -19.031422 6.457448 12.000000
9.307469 -7.011135 0.413030 31.000000
60.512703 41.635895 8.602745 16.000000
131.138809 24.186790 14.345237 16.000000
9.274805 -7.037408 0.418771 32.000000
77.609169 -18.919077 6.300869 10.000000
9.272590 -7.089430 0.425961 26.000000
130.755371 23.149834 14.284805 13.000000
77.845741 -19.279293 6.368024 21.000000
9.281869 -7.150582 0.437827 29.000000
20.068911 31.868891 3.872007 10.000000
60.904606 40.972500 8.506092 20.000000
130.493454 22.657425 14.247904 16.000000
77.350258 -19.457748 6.319275 24.000000
9.235682 -7.169094 0.443016 32.000000
20.053541 31.599323 3.821334 16.000000
61.011467 40.704979 8.460209 10.000000
130.091812 22.073454 14.171396 34.000000
77.314911 -19.750441 6.350289 24.000000
9.224902 -7.215065 0.449905 30.000000
20.055735 31.348221 3.767020 1.000000
76.915535 -19.949009 6.365321 4.000000
9.237324 -7.279505 0.462088 30.000000
22.536680 34.943287 4.179602 9.000000
61.673927 40.512196 8.433360 14.000000
76.270790 -20.066189 6.331573 24.000000
9.210455 -7.313212 0.466193 33.000000
22.519119 34.649918 4.124749 8.000000
61.993874 40.397877 8.443724 1.000000
9.202774 -7.362269 0.477468 29.000000
21.036089 32.109806 3.804461 9.000000
63.064342 40.782539 8.530250 7.000000
74.610703 -20.215357 6.273796 3.000000
9.187200 -7.405197 0.484254 35.000000
21.083712 31.938723 3.765909 9.000000
29.666100 19.030678 3.984562 7.000000
74.179459 -20.390646 6.257291 23.000000
9.159733 -7.438605 0.492492 30.000000
21.144190 31.776411 3.728981 9.000000
29.753889 18.940720 3.981215 8.000000
9.148910 -7.482965 0.501578 28.000000
29.745043 18.782244 3.952140 5.000000
73.889420 -20.880743 6.285741 23.000000
9.155847 -7.544814 0.511768 27.000000
74.223305 -21.269171 6.334301 22.000000
9.116394 -7.568576 0.517326 31.000000
19.544102 28.693592 3.312325 8.000000
74.538895 -21.641445 6.394917 3.000000
9.118965 -7.627343 0.527370 22.000000
19.245497 28.044294 3.221147 22.000000
65.193306 40.217064 8.497333 8.000000
74.431953 -21.906515 6.433491 23.000000
9.132751 -7.695940 0.536061 26.000000
19.377426 28.015890 3.208025 9.000000
65.611366 40.127983 8.518087 2.000000
74.326218 -22.171734 6.444963 23.000000
9.107930 -7.732289 0.546712 28.000000
19.379086 27.799942 3.161577 9.000000
9.094493 -7.778418 0.553892 25.000000
18.987978 27.037216 3.059090 18.000000
9.093480 -7.832679 0.563889 21.000000
19.275145 27.233341 3.065762 12.000000
66.555519 39.722298 8.474823 24.000000
46.494144 -14.419024 4.087663 9.000000
9.056943 -7.859215 0.569699 31.000000
19.316711 27.091030 3.028034 9.000000
66.986786 39.647442 8.469934 9.000000
46.364246 -14.565229 4.089450 9.000000
19.388044 26.981319 3.000308 9.000000
67.259277 39.523926 8.461094 9.000000
46.124031 -14.675717 4.089995 9.000000
8.552567 -7.532147 0.555387 16.000000
20.854668 28.799009 3.192145 11.000000
67.551834 39.331894 8.464164 12.000000
46.264908 -14.898583 4.132706 17.000000
9.025180 -8.007298 0.596423 22.000000
21.031420 28.851854 3.180185 8.000000
67.789017 39.169563 8.436090 14.000000
46.270710 -15.069987 4.154776 17.000000
9.017877 -8.060081 0.604237 24.000000
19.425215 26.444227 2.899545 8.000000
66.888420 38.338375 8.280086 15.000000
38.464176 -12.683584 3.472198 8.000000
9.010144 -8.112770 0.616314 21.000000
19.431639 26.250771 2.857401 10.000000
68.190659 38.753429 8.382110 1.000000
38.374329 -12.810088 3.475415 10.000000
8.981450 -8.143881 0.624779 18.000000
21.401327 28.680731 3.105652 9.000000
68.363983 38.536850 8.345271 12.000000
91.418541 8.512829 9.747266 19.000000
45.416496 -15.354969 4.135365 33.000000
8.958590 -8.183185 0.633764 24.000000
20.738503 27.580967 2.964438 8.000000
68.273216 38.125343 8.287838 18.000000
90.973717 8.135193 9.696592 24.000000
45.509357 -15.572462 4.165905 24.000000
8.957767 -8.242863 0.640100 121.000000
20.771498 27.415085 2.930583 8.000000
95.291069 52.798962 11.488599 14.000000
91.257256 7.823506 9.707526 14.000000
45.639572 -15.804119 4.191593 30.000000
8.930744 -8.278649 0.650990 68.000000
95.332718 52.344624 11.411728 26.000000
90.733963 7.459689 9.649032 1.000000
8.925634 -8.334946 0.659252 18.000000
20.826210 27.102049 2.870150 8.000000
95.130234 51.823620 11.366856 1.000000
8.939793 -8.406776 0.671054 14.000000
94.943886 51.293144 11.266003 25.000000
92.812424 6.946022 9.880812 18.000000
8.933949 -8.463196 0.681557 36.000000
20.681965 26.500296 2.775520 8.000000
94.819229 50.735138 11.189009 31.000000
92.624565 6.606914 9.841907 1.000000
50.420589 -18.281864 4.720548 10.000000
8.895946 -8.495212 0.689868 191.000000
22.064972 28.059729 2.915937 6.000000
94.781258 50.311241 11.107987 27.000000
50.559109 -18.532030 4.777431 8.000000
8.896167 -8.552006 0.700723 190.000000
94.493195 49.736332 11.016142 30.000000
8.886013 -8.605133 0.708900 188.000000
22.199324 27.818569 2.857291 8.000000
94.387207 49.239609 10.945117 24.000000
101.233978 6.120800 10.731142 21.000000
7.894327 -7.698373 0.637719 9.000000
22.258356 27.703609 2.828080 9.000000
94.258423 48.733765 10.853252 20.000000
101.379837 5.756764 10.744295 26.000000
42.752434 -16.180386 4.095760 14.000000
7.758914 -7.622003 0.636652 3.000000
22.326481 27.580750 2.798945 18.000000
94.103752 48.238255 10.778692 29.000000
101.543304 5.410520 10.759552 1.000000
42.457932 -16.264074 4.089767 18.000000
93.868042 47.683796 10.675907 22.000000
42.236565 -16.340094 4.073641 8.000000
7.730475 -7.706228 0.654231 9.000000
27.774233 33.788849 3.388566 12.000000
93.844910 47.219597 10.615529 24.000000
41.994640 -16.432159 4.088102 17.000000
7.722903 -7.755321 0.665577 1.000000
27.925774 33.744465 3.362622 9.000000
93.755020 46.785397 10.550804 23.000000
41.807785 -16.535994 4.091608 10.000000
16.163260 -16.344822 1.405948 33.000000
93.778687 46.327950 10.514014 32.000000
41.560623 -16.614651 4.089105 11.000000
16.098883 -16.399509 1.425698 29.000000
93.800774 45.972828 10.426587 23.000000
41.346989 -16.688482 4.089203 8.000000
16.093870 -16.515051 1.442726 30.000000
22.014133 26.022560 2.544926 12.000000
93.224472 45.267372 10.307481 19.000000
41.117233 -16.762892 4.080057 11.000000
7.226954 -7.470672 0.657592 55.000000
21.977474 25.768724 2.498991 7.000000
93.307137 44.845535 10.241895 18.000000
40.837215 -16.840225 4.066721 13.000000
7.235161 -7.531589 0.666217 39.000000
93.248672 44.457359 10.183684 28.000000
40.687248 -16.936466 4.080630 9.000000
7.189967 -7.539662 0.671899 23.000000
48.595356 56.199032 5.377714 1.000000
93.382690 44.101921 10.144202 31.000000
40.456753 -17.006453 4.078893 9.000000
7.107080 -7.507648 0.673968 28.000000
49.022942 56.275311 5.349796 1.000000
40.237038 -17.087898 4.078420 9.000000
7.301270 -7.769626 0.702554 10.000000
40.003551 -17.162075 4.076430 10.000000
7.076352 -7.583149 0.690727 25.000000
28.214159 31.923973 2.994171 4.000000
92.513336 42.473156 9.873694 24.000000
39.804401 -17.241402 4.085157 8.000000
6.993938 -7.550123 0.692597 34.000000
28.258703 31.739172 2.971626 11.000000
92.454048 42.036339 9.815073 26.000000
39.602818 -17.326746 4.086183 9.000000
6.911783 -7.516508 0.696136 34.000000
28.219685 31.462399 2.925728 10.000000
92.639641 41.731117 9.783455 29.000000
39.332859 -17.380669 4.080019 8.000000
6.826851 -7.478977 0.693890 21.000000
92.735184 41.404781 9.743213 1.000000
39.093361 -17.438198 4.076543 23.000000
6.887475 -7.598492 0.709937 255.000000
38.920551 -17.516090 4.079591 16.000000
6.808507 -7.561613 0.711516 21.000000
91.915199 40.252323 9.538188 29.000000
38.732445 -17.602430 4.081596 19.000000
6.893420 -7.712579 0.730596 65.000000
91.594772 39.712540 9.454606 31.000000
38.511135 -17.664307 4.079674 11.000000
6.818427 -7.685181 0.732837 45.000000
91.712265 39.364784 9.451777 27.000000
38.300331 -17.737812 4.079072 16.000000
25.587868 27.353361 2.435295 6.000000
91.639984 38.993282 9.361510 23.000000
25.664682 27.215660 2.399407 7.000000
91.578529 38.533691 9.304368 30.000000
36.077652 -17.023024 3.876312 8.000000
6.769804 -7.798758 0.758381 67.000000
25.714140 27.087580 2.382529 6.000000
91.533722 38.120556 9.250643 35.000000
6.501284 -7.542449 0.738235 46.000000
25.891827 27.065861 2.356528 9.000000
91.443672 37.709038 9.193357 26.000000
6.466776 -7.558256 0.744441 255.000000
26.030079 27.011486 2.333794 9.000000
6.503240 -7.657514 0.758918 26.000000
91.142868 36.842613 9.067814 19.000000
31.560598 32.296207 2.746073 13.000000
91.268089 36.486156 9.031667 1.000000
6.476478 -7.737544 0.774635 40.000000
31.844324 32.348503 2.736571 13.000000
90.835968 35.964504 8.942664 6.000000
26.560535 -13.231020 2.951357 9.000000
6.440787 -7.746955 0.782279 66.000000
32.082451 32.341064 2.706446 22.000000
26.319162 -13.242915 2.946000 25.000000
6.364976 -7.718589 0.782099 33.000000
32.250477 32.295540 2.687590 13.000000
90.676994 35.098476 8.797548 20.000000
26.089968 -13.241921 2.935817 16.000000
6.703948 -8.187709 0.834690 28.000000
30.401701 30.221827 2.494245 9.000000
90.617599 34.712273 8.779977 26.000000
25.225616 -12.919712 2.853857 9.000000
6.437767 -7.921671 0.812329 26.000000
30.492020 30.069214 2.461735 34.000000
90.388496 34.245140 8.711544 29.000000
24.518286 -12.671093 2.793668 10.000000
6.555398 -8.127095 0.838261 47.000000
90.074638 33.749222 8.618544 29.000000
23.697517 -12.351921 2.705044 13.000000
89.799652 33.289188 8.581062 31.000000
23.002829 -12.097248 2.653704 13.000000
6.297884 -7.923200 0.826786 47.000000
29.788963 28.766869 2.293514 10.000000
90.660820 33.230984 8.583707 24.000000
22.290457 -11.827106 2.576506 19.000000
6.191372 -7.848082 0.821843 25.000000
30.027931 28.765585 2.273885 10.000000
91.346725 33.103123 8.602921 24.000000
21.629482 -11.573336 2.517739 9.000000
6.397100 -8.167327 0.860223 37.000000
92.083435 33.006908 8.626987 25.000000
78.647095 -5.941114 8.331450 1.000000
21.082815 -11.380422 2.467395 27.000000
6.458491 -8.308257 0.879965 33.000000
92.633202 32.857731 8.616376 26.000000
78.457710 -6.216092 8.299855 1.000000
20.505272 -11.161273 2.408466 9.000000
6.412309 -8.311539 0.887043 25.000000
93.223053 32.682785 8.660041 21.000000
78.378136 -6.485173 8.321541 1.000000
19.934727 -10.936565 2.361743 10.000000
6.470745 -8.441988 0.904400 197.000000
93.900520 32.497620 8.640887 13.000000
78.435989 -6.779501 8.302478 1.000000
19.376947 -10.731977 2.304654 10.000000
6.403259 -8.423764 0.907128 32.000000
94.324013 32.312721 8.652941 12.000000
78.944008 -7.115011 8.372945 1.000000
18.887110 -10.546999 2.258392 10.000000
6.572957 -8.713113 0.943362 19.000000
94.921242 32.129070 8.661624 27.000000
78.864243 -7.385434 8.367167 1.000000
18.457350 -10.395938 2.222759 13.000000
6.586895 -8.795279 0.957492 15.000000
56.569283 51.528255 3.822758 24.000000
78.914360 -7.682002 8.389409 1.000000
18.173803 -10.319963 2.200313 20.000000
6.381890 -8.586959 0.939787 35.000000
86.776115 78.490814 5.763594 10.000000
96.024132 31.719767 8.687468 25.000000
18.147799 -10.393343 2.212834 16.000000
6.287807 -8.525456 0.939844 43.000000
87.176933 78.274330 5.709630 10.000000
96.290192 31.398096 8.664953 6.000000
18.125801 -10.469155 2.225899 22.000000
6.239967 -8.522713 0.944568 19.000000
31.478399 28.056086 2.018037 10.000000
18.088526 -10.523547 2.225370 22.000000
6.228886 -8.573326 0.953234 38.000000
31.544661 27.908358 1.986244 10.000000
98.261246 31.283594 8.731813 26.000000
79.157074 -8.850911 8.427816 1.000000
18.074553 -10.604278 2.239515 17.000000
6.200030 -8.593392 0.960632 164.000000
31.587471 27.740505 1.960463 10.000000
98.402557 30.912952 8.697497 32.000000
79.178436 -9.147254 8.433603 1.000000
18.036970 -10.675534 2.251021 17.000000
6.250535 -8.733874 0.983096 33.000000
99.157860 30.789333 8.736935 14.000000
18.010010 -10.740381 2.252089 22.000000
31.606678 27.349609 1.897987 10.000000
79.813728 -9.799893 8.536907 2.000000
17.999130 -10.832079 2.274693 12.000000
31.801453 27.324606 1.874614 10.000000
79.482819 -10.026921 8.476745 1.000000
17.951918 -10.880635 2.276743 23.000000
6.505915 -9.294862 1.060484 6.000000
32.120602 27.414200 1.865903 10.000000
94.405777 28.197414 8.169637 15.000000
79.636360 -10.342957 8.511278 1.000000
17.923964 -10.953720 2.285692 10.000000
6.434466 -9.264882 1.062310 26.000000
32.113426 27.186024 1.822343 19.000000
94.764549 27.926674 8.157050 1.000000
79.849648 -10.654218 8.552215 1.000000
17.909990 -11.031231 2.299952 22.000000
6.285371 -9.124785 1.053227 27.000000
32.558025 27.358181 1.812127 11.000000
94.518333 27.478004 8.109837 1.000000
80.164734 -10.995457 8.590219 7.000000
17.885302 -11.106651 2.313149 16.000000
6.335720 -9.270430 1.075261 17.000000
32.706825 27.298691 1.793013 11.000000
94.611542 27.129423 8.074659 1.000000
79.820122 -11.246402 8.543425 1.000000
17.844131 -11.171915 2.316824 16.000000
6.109004 -9.002639 1.047594 16.000000
32.771156 27.129934 1.753365 11.000000
17.842514 -11.257788 2.325429 16.000000
6.084993 -9.041782 1.059022 29.000000
32.431274 26.648830 1.700589 10.000000
95.235878 26.572418 8.042020 7.000000
17.802317 -11.328227 2.337025 15.000000
5.913240 -8.856481 1.042278 21.000000
32.455105 26.479174 1.675014 7.000000
95.404831 26.207224 7.977813 17.000000
17.763828 -11.395420 2.348626 17.000000
5.879239 -8.872463 1.047364 2.000000
26.049461 21.101967 1.317167 8.000000
95.324211 25.845425 7.946510 1.000000
17.738117 -11.462132 2.353971 22.000000
14.012503 -21.299578 2.522324 9.000000
33.031773 26.548737 1.635423 11.000000
95.154808 25.425467 7.907265 1.000000
17.725765 -11.542060 2.372616 13.000000
13.997125 -21.455172 2.561458 15.000000
33.018772 26.358540 1.608289 10.000000
94.864891 24.993546 7.841412 1.000000
17.703764 -11.620356 2.379099 10.000000
6.444684 -9.950537 1.191672 4.000000
58.270649 46.168194 2.765035 12.000000
86.242905 -14.370224 9.251184 4.000000
9.983473 -6.602906 1.346822 4.000000
13.912520 -21.654348 2.605342 10.000000
33.197544 26.105131 1.533821 9.000000
9.917473 -6.611632 1.345391 8.000000
6.450078 -10.116800 1.220833 7.000000
33.218788 25.925364 1.508310 10.000000
9.918688 -6.662570 1.352927 1.000000
6.452377 -10.202707 1.236853 1.000000
17.586361 -11.906863 2.416012 10.000000
13.781626 -21.978313 2.680829 13.000000
59.505722 45.742905 2.581653 9.000000
88.393600 21.580730 7.081169 1.000000
17.541904 -11.970763 2.423425 13.000000
13.744638 -22.098875 2.707736 26.000000
59.753860 45.586205 2.532622 14.000000
84.521896 -15.649949 9.110456 1.000000
17.507153 -12.036832 2.435684 23.000000
13.713593 -22.204203 2.729163 16.000000
84.616997 -15.988547 9.111764 1.000000
17.487064 -12.117651 2.442814 11.000000
13.672679 -22.320528 2.755758 26.000000
59.737598 44.884872 2.413476 1.000000
84.910645 -16.351213 9.164736 1.000000
17.460602 -12.189747 2.448812 10.000000
13.625920 -22.428333 2.781409 11.000000
59.838943 44.618824 2.358783 12.000000
85.853485 19.631535 6.714726 22.000000
84.871223 -16.666456 9.151749 1.000000
17.431005 -12.264356 2.462257 12.000000
13.603007 -22.567770 2.811399 23.000000
37.196995 27.524328 1.421857 7.000000
86.138924 19.380653 6.685222 31.000000
85.314400 -17.047501 9.190228 13.000000
17.403946 -12.336366 2.468275 12.000000
13.539850 -22.650347 2.829460 13.000000
59.998440 44.057117 2.222237 10.000000
86.996582 19.238894 6.699349 31.000000
85.392380 -17.373276 9.189725 4.000000
17.390242 -12.422666 2.480333 14.000000
13.485303 -22.738953 2.848634 10.000000
60.132481 43.817215 2.169250 1.000000
86.694756 18.839121 6.624031 17.000000
17.326267 -12.468535 2.481177 18.000000
13.409877 -22.792734 2.868167 10.000000
87.317642 18.639595 6.619350 27.000000
85.416695 -18.031263 9.175508 6.000000
17.352467 -12.584185 2.495309 10.000000
13.413157 -22.990696 2.900974 10.000000
84.896034 -18.231131 9.080394 15.000000
17.304422 -12.641747 2.494731 10.000000
85.139809 -18.299026 8.922467 1.000000
17.315935 -12.650158 2.458463 12.000000
86.500153 18.449301 6.231268 13.000000
85.004608 -17.944273 8.824741 1.000000
17.329086 -12.562613 2.419720 10.000000
13.420201 -22.993553 2.845220 16.000000
60.173897 43.831314 1.923411 1.000000
87.052025 18.900848 6.260348 19.000000
85.192924 -17.689131 8.761446 10.000000
17.348148 -12.479687 2.400869 12.000000
13.437794 -22.831068 2.803134 10.000000
59.996445 44.039536 1.935884 19.000000
85.604736 -17.463163 8.751268 5.000000
17.369040 -12.402942 2.378896 11.000000
13.478301 -22.718105 2.767056 11.000000
37.122047 27.458843 1.217172 6.000000
86.842613 19.507132 6.239556 7.000000
85.443359 -17.104286 8.682221 6.000000
17.416069 -12.340393 2.360270 14.000000
13.542531 -22.636885 2.735266 13.000000
59.887596 44.638840 1.982015 1.000000
87.278038 19.925222 6.228696 10.000000
84.656441 -16.608932 8.519691 1.000000
17.444788 -12.269502 2.335739 18.000000
13.580391 -22.512472 2.703041 28.000000
59.722744 44.857407 2.021124 1.000000
86.760170 20.141842 6.228206 18.000000
84.585480 -16.303907 8.491880 1.000000
17.454290 -12.180810 2.315981 16.000000
13.620330 -22.392704 2.666903 17.000000
86.584877 20.435888 6.205355 7.000000
85.739403 -16.200630 8.555580 5.000000
17.496054 -12.114842 2.300584 12.000000
13.663465 -22.288015 2.632441 12.000000
59.621387 45.452221 2.094123 9.000000
86.156364 20.668409 6.164494 16.000000
85.875198 -15.916027 8.548143 3.000000
17.507107 -12.032302 2.277747 10.000000
13.686101 -22.142393 2.598205 12.000000
59.338863 45.581696 2.116193 1.000000
86.071915 20.966156 6.194724 31.000000
85.834518 -15.583301 8.492240 11.000000
17.568502 -11.979928 2.268746 20.000000
13.756608 -22.083731 2.574011 15.000000
85.990692 21.280544 6.178914 24.000000
17.591259 -11.905700 2.247558 11.000000
13.772484 -21.929703 2.539107 10.000000
33.376865 26.029991 1.234055 10.000000
85.764908 21.558569 6.199347 7.000000
9.920110 -6.661012 1.257995 1.000000
13.800940 -21.797220 2.502333 10.000000
33.297886 26.146439 1.249125 33.000000
86.090248 -14.669286 8.409027 1.000000
9.932771 -6.616823 1.248093 4.000000
13.832600 -21.679419 2.471687 9.000000
33.130768 26.212082 1.268590 16.000000
86.343643 -14.402500 8.413397 1.000000
9.981241 -6.598926 1.244948 1.000000
13.896973 -21.605263 2.446400 9.000000
58.389381 46.528267 2.268044 12.000000
94.532700 24.853102 6.852148 4.000000
86.503357 -14.103465 8.377553 1.000000
17.696033 -11.606445 2.183218 13.000000
6.467168 -9.973803 1.123653 5.000000
33.190701 26.647882 1.322769 11.000000
94.673462 25.261444 6.851829 1.000000
17.733229 -11.542513 2.171626 21.000000
26.056007 21.092209 1.065219 8.000000
94.712372 25.626308 6.895497 16.000000
17.751295 -11.461866 2.157500 19.000000
32.740013 26.702103 1.357228 10.000000
17.744183 -11.365340 2.136695 15.000000
32.625927 26.808777 1.378696 22.000000
17.793083 -11.309266 2.126665 14.000000
5.872264 -8.778511 0.959315 32.000000
32.509521 26.894217 1.392282 10.000000
17.835978 -11.244962 2.108265 10.000000
32.779610 27.310942 1.430288 11.000000
94.856354 27.145880 6.968495 1.000000
79.998703 -11.271563 7.594119 1.000000
17.838093 -11.159469 2.092772 14.000000
6.096950 -8.971389 0.966166 18.000000
32.655750 27.411140 1.451607 1.000000
80.170715 -11.010533 7.606753 5.000000
17.897022 -11.105275 2.080047 19.000000
58.237103 49.249020 2.636732 16.000000
17.921581 -11.029743 2.067063 14.000000
58.222858 49.604130 2.671033 13.000000
17.931774 -10.949898 2.045307 15.000000
6.459622 -9.287260 0.977807 14.000000
57.917904 49.711830 2.718736 13.000000
17.972092 -10.884285 2.041640 10.000000
6.252250 -8.922508 0.934034 4.000000
27.961706 24.178513 1.342547 1.000000
18.004549 -10.813949 2.026011 20.000000
27.902981 24.298471 1.363191 4.000000
99.079208 30.708042 7.435377 16.000000
18.013166 -10.733741 2.011671 13.000000
6.263531 -8.800626 0.907068 14.000000
57.703831 50.622723 2.854979 24.000000
98.427727 30.883114 7.412628 23.000000
78.825485 -9.092537 7.319005 1.000000
18.053890 -10.668536 1.993372 10.000000
6.219182 -8.674062 0.886876 37.000000
57.115810 50.478512 2.888311 5.000000
98.211586 31.211157 7.441075 25.000000
79.136642 -8.834642 7.330824 1.000000
18.074444 -10.595735 1.984166 21.000000
6.225027 -8.615356 0.875729 37.000000
56.880383 50.642967 2.939019 1.000000
18.109749 -10.527434 1.972727 13.000000
6.214362 -8.537658 0.862609 23.000000
96.329605 31.373755 7.333082 22.000000
18.140480 -10.456532 1.960826 16.000000
6.219615 -8.479381 0.847934 29.000000
96.003143 31.657091 7.352486 36.000000
18.156443 -10.381467 1.943894 13.000000
6.357655 -8.601293 0.854934 29.000000
56.580540 51.484325 3.072490 18.000000
95.415108 31.814381 7.315490 27.000000
18.221241 -10.330084 1.935704 13.000000
6.513106 -8.747557 0.862149 23.000000
85.336685 78.224068 4.710284 10.000000
94.846565 32.011566 7.315976 26.000000
18.633430 -10.473706 1.960352 10.000000
6.605404 -8.803971 0.860426 30.000000
84.919121 78.416000 4.763691 10.000000
94.276482 32.186165 7.280624 25.000000
19.044796 -10.617619 1.988206 10.000000
6.409593 -8.478077 0.821535 30.000000
84.943245 79.017059 4.862391 15.000000
93.864464 32.430115 7.275361 13.000000
19.559223 -10.810637 2.029895 10.000000
6.413780 -8.419290 0.810678 27.000000
56.111599 52.563438 3.262799 8.000000
93.349884 32.672375 7.280294 21.000000
78.815201 -6.535187 7.169527 1.000000
20.106230 -11.016963 2.070357 17.000000
6.404186 -8.346098 0.794698 23.000000
92.711098 32.812515 7.273880 14.000000
78.565605 -6.224641 7.144699 1.000000
20.653091 -11.223050 2.110213 10.000000
6.435071 -8.323006 0.787353 26.000000
92.160622 32.998280 7.274489 16.000000
79.278305 -6.002712 7.193571 6.000000
21.255947 -11.449935 2.159012 10.000000
6.438290 -8.264395 0.776681 22.000000
91.143379 32.975452 7.236809 24.000000
79.088692 -5.696898 7.146519 1.000000
21.903341 -11.700208 2.203133 10.000000
30.392548 29.308764 1.902528 32.000000
89.966011 32.922886 7.186486 1.000000
22.528124 -11.928027 2.248112 9.000000
30.018847 29.161484 1.915091 10.000000
89.801529 33.254230 7.183494 20.000000
23.189837 -12.169773 2.300466 22.000000
6.199048 -7.782114 0.714924 31.000000
29.982193 29.340237 1.948949 10.000000
89.994186 33.701168 7.242472 17.000000
23.957899 -12.466379 2.358078 10.000000
6.195276 -7.721914 0.704429 47.000000
29.994301 29.547438 1.978188 10.000000
90.244492 34.136551 7.288621 29.000000
24.694778 -12.745926 2.416659 10.000000
6.252140 -7.734540 0.698944 34.000000
30.384920 30.152472 2.033689 10.000000
90.480995 34.587524 7.351436 25.000000
6.230432 -7.650162 0.684726 29.000000
90.730797 35.101097 7.400198 30.000000
26.267719 -13.309086 2.524497 25.000000
26.361633 -13.235469 2.518471 23.000000
6.390559 -7.733100 0.680392 58.000000
90.934349 35.911694 7.488557 30.000000
26.928570 -13.396761 2.552064 6.000000
6.588339 -7.913186 0.691135 39.000000
91.255142 36.407112 7.559893 31.000000
6.625847 -7.901978 0.684941 33.000000
91.154388 36.754761 7.614424 32.000000
6.635753 -7.855134 0.675774 29.000000
26.134291 27.081762 1.932870 8.000000
91.372063 37.232452 7.678605 22.000000
6.441673 -7.568941 0.646211 31.000000
25.871576 27.006922 1.946927 9.000000
91.428055 37.627934 7.729023 27.000000
6.499040 -7.579882 0.638675 34.000000
25.768030 27.096952 1.972773 8.000000
91.517166 38.057442 7.783104 36.000000
6.542054 -7.576369 0.633283 50.000000
25.679192 27.192987 1.999411 9.000000
91.583855 38.479500 7.800718 24.000000
36.233784 -17.073502 3.293108 8.000000
6.652553 -7.652886 0.634412 37.000000
25.643267 27.355103 2.030659 7.000000
91.726372 38.916641 7.859377 29.000000
6.726876 -7.681343 0.631655 7.000000
91.708870 39.306473 7.905215 35.000000
38.408318 -17.747133 3.441368 23.000000
6.800887 -7.703244 0.628495 111.000000
91.611954 39.663017 7.944407 25.000000
38.594913 -17.678280 3.437900 14.000000
6.761701 -7.605186 0.615286 57.000000
92.113052 40.262352 8.052971 16.000000
38.832088 -17.606846 3.430509 22.000000
6.823114 -7.617848 0.611164 28.000000
38.986816 -17.521370 3.424010 15.000000
6.902101 -7.654806 0.608741 24.000000
39.223362 -17.471569 3.424593 23.000000
6.802862 -7.489367 0.590475 23.000000
92.587601 41.649368 8.204101 29.000000
39.420475 -17.386501 3.421081 16.000000
92.337891 41.925198 8.248340 24.000000
39.641884 -17.319113 3.419833 23.000000
6.904956 -7.498570 0.580612 30.000000
92.493553 42.405449 8.311827 27.000000
39.821655 -17.224117 3.399395 11.000000
6.945601 -7.482209 0.570775 30.000000
40.073486 -17.158962 3.400191 25.000000
6.980069 -7.464285 0.564199 22.000000
40.274891 -17.070795 3.396587 19.000000
7.048164 -7.489799 0.562397 32.000000
48.715034 56.258011 4.590745 6.000000
40.490513 -16.995703 3.409747 10.000000
7.072402 -7.460576 0.554947 33.000000
48.672543 56.587051 4.656708 1.000000
40.747532 -16.928194 3.402902 21.000000
7.110309 -7.445714 0.548568 36.000000
93.161430 44.755493 8.642570 29.000000
40.963104 -16.841969 3.392399 17.000000
93.310989 45.249020 8.726453 33.000000
41.161270 -16.755714 3.388342 21.000000
93.088066 45.563091 8.757599 1.000000
41.459354 -16.700184 3.392126 14.000000
41.641796 -16.596546 3.386317 26.000000
16.043756 -16.320545 1.155343 24.000000
94.155640 46.923756 8.944877 24.000000
41.878494 -16.504822 3.376683 25.000000
7.648859 -7.718595 0.540969 22.000000
27.730711 33.687931 2.905773 12.000000
93.996643 47.275387 9.001663 33.000000
42.123981 -16.440395 3.384126 9.000000
7.673335 -7.694793 0.533382 17.000000
27.615726 33.824051 2.946205 11.000000
93.940926 47.658951 9.086287 31.000000
42.329258 -16.341990 3.379856 15.000000
7.718586 -7.678277 0.526762 11.000000
22.325539 27.540247 2.416923 9.000000
42.635746 -16.281010 3.399540 17.000000
7.743382 -7.646682 0.518923 7.000000
27.464188 34.134155 3.017478 11.000000
95.312340 49.236507 9.347919 1.000000
42.797150 -16.171696 3.375772 8.000000
27.368206 34.246765 3.050146 12.000000
95.035393 49.514465 9.375343 16.000000
30.782473 -11.502972 2.413198 7.000000
8.859769 -8.627792 0.574544 130.000000
27.222572 34.321724 3.078647 12.000000
94.909134 49.891819 9.399722 33.000000
30.656822 -11.328139 2.388608 7.000000
8.864984 -8.572783 0.564311 92.000000
22.036922 28.003935 2.535588 8.000000
94.791649 50.253159 9.462012 33.000000
30.680182 -11.209140 2.375748 7.000000
8.881585 -8.520110 0.554576 30.000000
20.800402 26.613726 2.427156 5.000000
95.271469 50.955730 9.566494 14.000000
50.502579 -18.251776 3.886913 9.000000
8.931118 -8.504989 0.547091 32.000000
20.664995 26.641151 2.446395 9.000000
95.465340 51.510303 9.662101 27.000000
91.257721 6.845685 8.135220 1.000000
50.386616 -18.001345 3.863497 9.000000
8.901419 -8.420596 0.537130 28.000000
20.886644 27.141455 2.515000 8.000000
95.649452 52.041542 9.737373 31.000000
91.097572 7.201531 8.155607 1.000000
8.948593 -8.400350 0.527296 19.000000
20.722784 27.114082 2.530036 8.000000
95.668343 52.463730 9.814545 28.000000
91.683586 7.537762 8.226334 15.000000
45.631260 -15.944084 3.456330 7.000000
8.925452 -8.323119 0.517901 16.000000
20.699270 27.280169 2.562816 8.000000
95.416107 52.824718 9.887104 20.000000
91.853813 7.890799 8.244146 12.000000
45.683849 -15.765894 3.438747 9.000000
20.630783 27.397865 2.596851 8.000000
68.343849 38.149139 7.136929 9.000000
91.460739 8.194835 8.227664 12.000000
45.761341 -15.605173 3.423290 9.000000
8.919714 -8.190612 0.496965 10.000000
21.361763 28.586048 2.727089 9.000000
68.317848 38.432316 7.188869 14.000000
91.312569 8.502960 8.216954 23.000000
45.875511 -15.456645 3.419079 9.000000
8.991308 -8.201564 0.493053 15.000000
19.629803 26.460485 2.546681 8.000000
68.295044 38.781219 7.230440 5.000000
38.415653 -12.794082 2.845549 9.000000
23.426723 31.821722 3.082140 10.000000
68.004745 38.930923 7.255427 1.000000
45.915005 -15.104966 3.396923 10.000000
21.148815 28.970388 2.829219 9.000000
67.034798 38.702560 7.207909 27.000000
23.315517 32.150017 3.160469 10.000000
67.175690 39.097183 7.278740 25.000000
76.246452 -24.465378 5.585376 15.000000
8.596618 -7.610996 0.437068 89.000000
20.800333 28.904125 2.858891 11.000000
67.309715 39.474583 7.334883 10.000000
76.090752 -24.122793 5.539770 24.000000
8.674506 -7.628791 0.433682 19.000000
19.241838 26.946207 2.687325 7.000000
66.921326 39.577164 7.349389 20.000000
76.065323 -23.808271 5.517550 24.000000
9.063990 -7.912596 0.443290 22.000000
19.261845 27.174299 2.726758 8.000000
66.557129 39.676010 7.365493 18.000000
75.853668 -23.437117 5.468084 7.000000
9.069076 -7.861422 0.435901 20.000000
19.166197 27.250513 2.762464 8.000000
73.974136 -22.573816 5.326881 5.000000
9.070477 -7.799088 0.426098 89.000000
19.390436 27.785204 2.827307 10.000000
74.273979 -22.368069 5.301727 23.000000
9.085115 -7.759422 0.417223 26.000000
19.405115 28.014095 2.879626 10.000000
65.499222 40.012287 7.404062 8.000000
74.579010 -22.190456 5.290932 23.000000
9.090790 -7.706822 0.409936 21.000000
19.253189 28.013563 2.896200 8.000000
65.221703 40.171749 7.429768 21.000000
74.699028 -21.928463 5.280058 22.000000
9.115369 -7.670417 0.401448 25.000000
19.504761 28.592911 2.979466 8.000000
63.657146 39.515263 7.306811 25.000000
74.390450 -21.513903 5.224946 18.000000
9.116733 -7.614664 0.394049 27.000000
63.580349 39.791157 7.354335 26.000000
9.121707 -7.562235 0.384783 20.000000
21.096819 31.419062 3.317652 9.000000
63.578106 40.114799 7.410775 26.000000
9.140486 -7.524124 0.378259 27.000000
21.037880 31.568838 3.359055 8.000000
63.668430 40.483196 7.490920 1.000000
9.144884 -7.471684 0.373179 79.000000
21.025105 31.801634 3.402429 9.000000
63.285938 40.566486 7.503110 7.000000
74.825386 -20.497986 5.180209 18.000000
9.152999 -7.422539 0.364163 26.000000
63.107208 40.763420 7.538475 9.000000
44.901222 -12.115279 3.097144 7.000000
9.172503 -7.382792 0.357689 28.000000
62.778969 40.878269 7.556735 2.000000
77.729523 -20.696754 5.342670 5.000000
9.187979 -7.339920 0.349023 29.000000
61.587711 40.424797 7.496076 16.000000
76.595787 -20.065954 5.259165 22.000000
9.191417 -7.287640 0.344039 29.000000
29.502794 19.512667 3.605404 8.000000
76.601768 -19.796303 5.213432 24.000000
9.226154 -7.260267 0.334087 27.000000
19.998600 31.464178 3.491353 9.000000
29.461555 19.640987 3.640361 8.000000
77.330986 -19.697048 5.286327 12.000000
9.231749 -7.212633 0.333376 24.000000
19.871922 31.495089 3.507122 9.000000
60.826099 40.858036 7.572212 9.000000
9.230700 -7.157484 0.322187 27.000000
21.087648 33.708008 3.779505 10.000000
130.745941 23.171700 12.388068 10.000000
9.264926 -7.129803 0.316342 28.000000
21.055050 33.905441 3.835969 10.000000
130.506760 23.622990 12.443579 10.000000
9.283138 -7.089797 0.311994 27.000000
20.107096 32.645306 3.712054 9.000000
60.519936 41.609756 7.732245 26.000000
130.999695 24.208418 12.522411 12.000000
9.261433 -7.019624 0.302279 28.000000
20.061043 32.826599 3.765352 9.000000
9.279193 -6.979686 0.297966 26.000000
20.256109 33.420475 3.859364 9.000000
130.907364 25.161400 12.624369 10.000000
9.296824 -6.939742 0.291635 27.000000
60.820557 42.792995 7.947490 17.000000
45.515949 -10.366035 3.035116 140.000000
9.301034 -6.892457 0.284945 29.000000
60.722504 43.057606 8.020954 9.000000
45.693569 -10.238846 3.036351 199.000000
9.322326 -6.855447 0.278763 3.000000
60.598473 43.288334 8.090231 9.000000
45.978779 -10.125916 3.061069 199.000000
17.301899 -12.626017 0.508506 32.000000
20.136297 34.321487 4.070033 10.000000
60.589256 43.618023 8.149842 15.000000
46.313583 -10.021812 3.072587 191.000000
17.453537 -12.638897 0.500309 31.000000
19.956049 34.301697 4.093982 10.000000
60.457306 43.844250 8.192203 7.000000
17.524380 -12.592545 0.485940 33.000000
20.294277 35.164894 4.224337 10.000000
60.320827 44.083534 8.235140 19.000000
17.566416 -12.525377 0.482062 37.000000
20.049805 35.037289 4.235765 10.000000
17.559425 -12.423566 0.465593 31.000000
19.732573 34.777996 4.237986 10.000000
47.628372 -9.586265 3.141755 118.000000
17.572180 -12.336194 0.460980 35.000000
19.589725 34.808765 4.268628 10.000000
47.758907 -9.439196 3.156705 199.000000
17.570148 -12.243434 0.452324 37.000000
19.411381 34.789589 4.299723 1.000000
59.944576 45.138683 8.509817 11.000000
48.042450 -9.312404 3.181746 210.000000
17.610922 -12.176200 0.444745 36.000000
19.688538 35.592278 4.425893 8.000000
59.855904 45.416637 8.587221 11.000000
114.041397 26.643192 11.544877 14.000000
48.312092 -9.181074 3.188735 46.000000
17.684475 -12.131495 0.434243 36.000000
18.493002 33.708290 4.231102 9.000000
113.098740 26.797943 11.724256 2.000000
19.637415 35.499859 4.471725 10.000000
113.824028 26.529568 11.809889 1.000000
48.287418 -9.185117 3.316459 100.000000
17.667200 -12.119644 0.478711 29.000000
19.726034 35.368019 4.442305 4.000000
59.950378 45.143051 8.709698 8.000000
48.021553 -9.317049 3.326252 203.000000
17.609976 -12.175545 0.497059 34.000000
19.815994 35.225204 4.397768 7.000000
47.717361 -9.439637 3.316085 202.000000
17.569118 -12.242716 0.508388 31.000000
19.700008 34.734726 4.316886 10.000000
47.666065 -9.611165 3.340526 87.000000
17.589281 -12.352783 0.525292 37.000000
19.855457 34.711712 4.301859 9.000000
17.535500 -12.411232 0.536296 30.000000
20.092243 34.842907 4.298382 10.000000
60.334152 44.093273 8.580362 10.000000
17.550543 -12.518681 0.556981 30.000000
20.273808 34.861874 4.281386 10.000000
60.418945 43.832520 8.531013 18.000000
17.532553 -12.603058 0.576728 30.000000
20.077511 34.248676 4.186634 10.000000
60.441700 43.511799 8.472149 8.000000
17.441471 -12.634800 0.586536 33.000000
20.247408 34.250137 4.167773 9.000000
60.522858 43.250271 8.436010 13.000000
46.069851 -10.162836 3.332069 9.000000
17.305981 -12.633624 0.594761 32.000000
20.452333 34.322727 4.157071 10.000000
60.711742 43.018131 8.398742 11.000000
45.668526 -10.241606 3.313818 31.000000
9.325670 -6.865433 0.331557 22.000000
20.682320 34.421162 4.142726 10.000000
60.681198 42.710781 8.362797 8.000000
131.136307 25.680387 13.526227 10.000000
45.532867 -10.386609 3.314907 5.000000
9.302711 -6.896216 0.337620 20.000000
130.953400 25.146547 13.474252 10.000000
9.305258 -6.951096 0.344722 30.000000
20.321878 33.279518 3.967707 9.000000
60.317429 41.812508 8.206362 1.000000
130.524780 24.592138 13.444654 10.000000
9.299438 -6.999999 0.355621 29.000000
20.137407 32.707298 3.881168 9.000000
60.621204 41.694965 8.187841 17.000000
130.552734 24.102259 13.414936 10.000000
9.269588 -7.030902 0.361560 28.000000
21.040173 33.907890 3.997149 10.000000
60.663193 41.412666 8.135006 1.000000
130.554672 23.608131 13.429546 10.000000
9.267326 -7.082843 0.372671 29.000000
21.067781 33.676250 3.957911 10.000000
60.708759 41.118374 8.107898 1.000000
9.268864 -7.137986 0.379914 38.000000
19.949638 31.667231 3.702756 9.000000
60.817192 40.867458 8.063488 25.000000
9.250323 -7.177873 0.388413 26.000000
19.995577 31.459421 3.654967 9.000000
60.905094 40.618649 8.017501 9.000000
77.492249 -19.766930 5.886929 18.000000
9.227619 -7.214595 0.398801 27.000000
77.466553 -20.063065 5.904566 7.000000
9.225770 -7.265182 0.405970 28.000000
29.479658 19.357153 3.837432 6.000000
77.684418 -20.409113 5.940661 3.000000
9.218484 -7.314342 0.412995 29.000000
29.622894 19.296192 3.828116 8.000000
9.195289 -7.351019 0.421390 27.000000
20.995586 32.011406 3.638980 9.000000
29.687578 19.191059 3.809070 8.000000
44.978592 -12.169847 3.470852 5.000000
9.179786 -7.393936 0.428098 27.000000
21.020481 31.794643 3.602937 9.000000
63.525620 40.735767 8.118130 4.000000
74.723068 -20.512024 5.812698 18.000000
9.161373 -7.439938 0.438942 31.000000
63.792629 40.593449 8.094049 9.000000
9.144208 -7.476455 0.445498 27.000000
21.125700 31.462076 3.522238 5.000000
64.020241 40.409386 8.063989 10.000000
9.143497 -7.531958 0.455087 22.000000
63.446629 39.722885 7.933707 15.000000
75.297089 -21.548431 5.943883 4.000000
9.134868 -7.581221 0.462263 23.000000
19.480423 28.589378 3.166690 10.000000
63.470150 39.429882 7.879828 26.000000
74.826775 -21.710867 5.954031 5.000000
9.119598 -7.622464 0.471144 22.000000
19.243727 27.999796 3.086001 24.000000
65.284576 40.226196 8.059667 13.000000
74.511345 -21.915752 5.948917 1.000000
9.119300 -7.684606 0.478973 24.000000
19.438797 28.062719 3.064727 8.000000
65.504562 40.046951 8.028876 14.000000
74.477394 -22.188520 5.952354 1.000000
9.123986 -7.740441 0.488931 23.000000
19.342611 27.737299 3.017962 12.000000
74.445068 -22.476292 5.997273 23.000000
9.099025 -7.776796 0.499581 26.000000
19.093100 27.166735 2.940110 13.000000
9.100545 -7.835998 0.507537 29.000000
19.280390 27.220594 2.924232 8.000000
66.668533 39.773972 8.022444 22.000000
75.703094 -23.448502 6.153725 24.000000
9.086589 -7.882160 0.516780 18.000000
19.312525 27.065166 2.897217 9.000000
66.900681 39.580715 8.019156 3.000000
76.168991 -23.899117 6.254746 10.000000
9.057295 -7.915112 0.527277 19.000000
20.753487 28.860268 3.072494 9.000000
67.336823 39.522079 8.027306 10.000000
76.031303 -24.162373 6.278689 21.000000
8.448256 -7.435046 0.497265 24.000000
20.838127 28.765600 3.038914 9.000000
67.721291 39.414730 8.014404 15.000000
76.178421 -24.516895 6.312272 15.000000
9.034584 -8.015641 0.542115 23.000000
23.371073 32.014515 3.363296 10.000000
66.985718 38.658634 7.869615 27.000000
45.938530 -14.961799 3.827818 20.000000
9.011465 -8.048694 0.548665 28.000000
23.560501 32.026848 3.345685 4.000000
38.503601 -12.696585 3.212160 7.000000
9.015035 -8.111478 0.559173 22.000000
19.591770 26.438137 2.740070 21.000000
92.264595 8.932830 9.235952 27.000000
38.346474 -12.800790 3.224245 8.000000
8.973778 -8.134071 0.569052 17.000000
21.344397 28.583612 2.945441 9.000000
68.205002 38.400185 7.853972 20.000000
92.149696 8.580914 9.204928 1.000000
45.498924 -15.373988 3.847220 18.000000
8.958435 -8.180176 0.576342 20.000000
20.590322 27.364006 2.803454 8.000000
68.369400 38.163399 7.829137 17.000000
92.299469 8.253746 9.216805 9.000000
45.628269 -15.595362 3.871207 27.000000
8.977320 -8.255068 0.587942 21.000000
20.629988 27.218441 2.765899 8.000000
95.502922 52.851006 10.856282 20.000000
91.714607 7.878840 9.139377 7.000000
45.555393 -15.757163 3.886833 26.000000
8.957767 -8.297888 0.595057 22.000000
20.766788 27.191324 2.752828 8.000000
95.378799 52.348259 10.802159 1.000000
8.945244 -8.347414 0.604816 20.000000
20.797852 27.026070 2.713846 8.000000
95.301262 51.852097 10.695296 26.000000
92.604828 7.271895 9.206156 21.000000
50.366215 -17.815828 4.335961 9.000000
8.954302 -8.417477 0.616111 14.000000
20.611998 26.591990 2.659739 16.000000
94.896515 51.203381 10.610747 16.000000
92.864594 6.966225 9.262332 11.000000
8.915825 -8.443074 0.624183 121.000000
20.725800 26.537359 2.638202 8.000000
94.928841 50.772476 10.555542 18.000000
92.924240 6.628290 9.265796 5.000000
50.490620 -18.287317 4.396102 12.000000
8.893288 -8.480810 0.631125 164.000000
21.986559 27.939934 2.754416 7.000000
94.824585 50.270618 10.466658 30.000000
93.207664 6.305233 9.275225 4.000000
50.590260 -18.533430 4.429595 10.000000
8.897833 -8.547632 0.642304 167.000000
27.392761 34.561066 3.385586 12.000000
94.729591 49.797436 10.399211 18.000000
8.876884 -8.590290 0.651708 174.000000
22.188307 27.784866 2.704772 5.000000
94.563202 49.268448 10.304697 28.000000
43.005188 -16.104652 3.815802 6.000000
22.272421 27.681513 2.677693 8.000000
