VERSION .7
FIELDS x y z intensity
SIZE 4 4 4 4
TYPE F F F F
COUNT 1 1 1 1
WIDTH 1230
HEIGHT 1
VIEWPOINT 0 0 0 1 0 0 0
POINTS 1230
DATA ascii
38.555511 -12.728625 3.466567 8.000000
9.007928 -8.107928 0.613945 24.000000
19.467199 26.298809 2.862630 13.000000
68.350586 38.844318 8.401768 1.000000
38.416855 -12.824285 3.479266 8.000000
8.985229 -8.147308 0.622919 21.000000
21.489578 28.819981 3.119918 8.000000
68.342323 38.524639 8.342627 12.000000
91.274979 8.499460 9.731958 26.000000
45.407696 -15.334332 4.134076 29.000000
8.980872 -8.203539 0.631083 27.000000
20.713602 27.567881 2.968317 8.000000
68.368416 38.209816 8.301013 15.000000
91.186661 8.154235 9.719290 19.000000
45.533649 -15.563022 4.167632 24.000000
8.968790 -8.253005 0.640888 113.000000
20.651154 27.256247 2.913604 8.000000
91.158173 7.815012 9.696987 27.000000
45.531307 -15.766629 4.181650 29.000000
8.923421 -8.271861 0.650456 58.000000
95.307480 52.374073 11.391705 1.000000
8.933017 -8.341840 0.657658 15.000000
20.814716 27.067530 2.861262 8.000000
95.068214 51.789833 11.321240 25.000000
92.383301 7.254499 9.805182 9.000000
49.978081 -17.707985 4.638865 9.000000
8.954426 -8.420537 0.670001 10.000000
94.919357 51.279892 11.244059 31.000000
92.681976 6.936259 9.834118 9.000000
50.070736 -17.947639 4.672248 9.000000
8.915998 -8.446192 0.675887 47.000000
20.750011 26.587486 2.772799 9.000000
94.897202 50.776863 11.160236 26.000000
92.722214 6.613880 9.819471 26.000000
50.640663 -18.361660 4.741152 10.000000
8.899730 -8.498826 0.685852 173.000000
22.037563 28.024874 2.906052 7.000000
94.690704 50.263176 11.078465 23.000000
101.164650 6.843500 10.710814 16.000000
8.896255 -8.552090 0.698569 183.000000
94.567017 49.775188 10.987048 26.000000
101.432198 6.488220 10.736550 1.000000
8.886013 -8.605133 0.708900 183.000000
27.356682 34.281391 3.521098 9.000000
94.466591 49.281021 10.954322 29.000000
101.278641 6.123500 10.735877 12.000000
42.991589 -16.116674 4.089569 8.000000
7.865737 -7.670493 0.635410 9.000000
22.255236 27.699724 2.827684 9.000000
94.346794 48.779453 10.863427 35.000000
101.462212 5.796974 10.753239 8.000000
42.683903 -16.154448 4.073137 10.000000
7.748233 -7.611509 0.635775 1.000000
22.266897 27.507143 2.791475 9.000000
94.089386 48.230888 10.739758 18.000000
42.561573 -16.303774 4.083713 20.000000
93.985016 47.743214 10.670623 28.000000
42.287651 -16.359859 4.078568 12.000000
7.716337 -7.692134 0.653034 9.000000
27.690035 33.710400 3.372069 11.000000
93.782852 47.229401 10.573347 23.000000
42.015614 -16.423456 4.073710 14.000000
7.763165 -7.793031 0.665076 1.000000
93.727135 46.771484 10.510734 28.000000
41.790585 -16.529190 4.074108 20.000000
16.166769 -16.348372 1.406253 34.000000
93.795822 46.377151 10.443968 32.000000
41.553871 -16.595131 4.072122 12.000000
16.113216 -16.414110 1.418907 37.000000
93.660431 45.863503 10.409206 21.000000
41.322311 -16.686909 4.071364 10.000000
16.114767 -16.536495 1.444599 29.000000
93.484062 45.393421 10.336183 10.000000
41.090225 -16.751881 4.069567 23.000000
7.258179 -7.502950 0.660433 31.000000
93.040382 44.757317 10.214329 23.000000
40.870712 -16.837347 4.069472 9.000000
7.248988 -7.545981 0.667490 46.000000
93.319244 44.491001 10.154956 22.000000
40.583832 -16.901730 4.062816 8.000000
7.214071 -7.564939 0.674151 37.000000
48.794945 56.429852 5.386713 1.000000
93.331894 44.077934 10.102307 23.000000
40.466587 -17.010586 4.072157 8.000000
7.055629 -7.453298 0.669089 16.000000
48.925282 56.163200 5.326071 1.000000
93.239082 43.616859 10.038614 33.000000
40.292679 -17.111528 4.076354 9.000000
7.292459 -7.757535 0.699710 12.000000
27.933392 31.829508 3.005860 11.000000
39.985909 -17.154507 4.066972 10.000000
7.052526 -7.557617 0.688402 33.000000
28.002769 31.684788 2.971738 10.000000
92.440971 42.439934 9.865972 31.000000
39.723484 -17.206350 4.061608 11.000000
28.203005 31.676615 2.950892 10.000000
92.531059 42.071358 9.823249 36.000000
39.563076 -17.309359 4.066874 9.000000
6.857839 -7.457844 0.688927 27.000000
92.517113 41.675922 9.770515 35.000000
39.323753 -17.376644 4.079074 13.000000
6.783133 -7.431083 0.689446 30.000000
92.662460 41.372314 9.735573 1.000000
39.103752 -17.442833 4.062545 18.000000
6.884125 -7.594795 0.709592 211.000000
38.935463 -17.522800 4.066114 10.000000
6.825277 -7.580238 0.711480 54.000000
38.729214 -17.600962 4.066270 13.000000
6.920094 -7.742424 0.731602 40.000000
91.611496 39.719791 9.421165 28.000000
38.498856 -17.658672 4.063452 13.000000
6.813232 -7.676626 0.730335 32.000000
91.722885 39.369343 9.382567 26.000000
38.297100 -17.736317 4.063859 19.000000
25.615046 27.363258 2.423833 7.000000
91.716148 38.987885 9.332807 31.000000
25.637583 27.186924 2.390325 9.000000
91.453041 38.480888 9.256681 30.000000
36.087879 -17.027847 3.863350 8.000000
25.772282 27.129854 2.373924 7.000000
91.547508 38.126297 9.252036 30.000000
25.798691 26.968502 2.348052 9.000000
91.383842 37.684364 9.187343 26.000000
32.675617 -15.711666 3.548617 1.000000
6.479911 -7.573608 0.742454 96.000000
26.023155 27.004301 2.333173 8.000000
31.580790 -15.321188 3.447875 3.000000
6.477592 -7.627313 0.752411 17.000000
91.103249 36.789604 9.028007 30.000000
30.155348 -14.766427 3.315888 7.000000
6.755833 -8.011451 0.797172 63.000000
31.766735 32.507149 2.756047 13.000000
91.539169 36.594524 9.023790 14.000000
6.476478 -7.737544 0.774635 32.000000
31.894810 32.377174 2.724016 13.000000
90.828262 35.924782 8.906291 19.000000
26.498487 -13.211658 2.939756 9.000000
6.441356 -7.753142 0.780907 166.000000
32.096844 32.355576 2.699678 13.000000
26.324526 -13.245613 2.936211 30.000000
6.396865 -7.757259 0.782486 29.000000
32.268444 32.313530 2.681089 13.000000
90.654015 35.125973 8.813616 10.000000
26.090881 -13.242385 2.925604 9.000000
30.448275 30.247002 2.482168 11.000000
90.578606 34.697334 8.742064 31.000000
25.181780 -12.897262 2.843910 14.000000
6.390615 -7.863650 0.806380 26.000000
30.478107 30.055494 2.453116 31.000000
90.341522 34.227341 8.656025 20.000000
24.390987 -12.605305 2.769481 9.000000
6.577394 -8.154366 0.839234 20.000000
90.028358 33.767723 8.581411 26.000000
23.689426 -12.337191 2.694210 9.000000
29.768003 28.938013 2.313812 7.000000
89.786568 33.284340 8.512427 31.000000
22.942823 -12.065691 2.628498 20.000000
6.328983 -7.962325 0.829082 53.000000
29.767994 28.746618 2.277410 12.000000
22.302103 -11.828297 2.568710 10.000000
6.154334 -7.801133 0.816927 29.000000
30.230814 28.980181 2.282684 23.000000
91.494713 33.156750 8.582623 17.000000
21.691654 -11.606603 2.516298 9.000000
6.274197 -8.010414 0.843696 25.000000
92.380241 33.113297 8.637533 17.000000
21.009167 -11.340666 2.450354 9.000000
6.437180 -8.280841 0.875218 21.000000
92.511139 32.814434 8.605022 18.000000
20.448483 -11.130362 2.401796 18.000000
6.421628 -8.323618 0.884636 15.000000
93.265511 32.661118 8.628166 25.000000
19.927269 -10.941525 2.353291 9.000000
6.470827 -8.448200 0.904824 39.000000
94.000267 32.568886 8.616125 22.000000
78.830246 -6.813578 8.316284 1.000000
19.412455 -10.751643 2.301048 10.000000
6.412303 -8.435662 0.908409 15.000000
94.312737 32.308857 8.616845 29.000000
78.709198 -7.093848 8.320148 1.000000
18.900480 -10.554464 2.256171 10.000000
6.572957 -8.713113 0.943362 21.000000
94.862747 32.109268 8.621068 27.000000
78.966156 -7.394979 8.349988 3.000000
18.419029 -10.374354 2.210684 10.000000
6.527275 -8.715671 0.946911 19.000000
56.388874 51.363922 3.797221 19.000000
95.611015 31.972445 8.642911 23.000000
18.182398 -10.316451 2.193540 21.000000
6.349306 -8.543116 0.933117 37.000000
86.842422 78.523232 5.746604 10.000000
96.038078 31.687193 8.652167 27.000000
79.061737 -7.988977 8.380085 1.000000
18.170044 -10.406082 2.208156 24.000000
6.271746 -8.500575 0.933506 29.000000
87.148682 78.248962 5.666799 10.000000
96.225258 31.414087 8.624505 21.000000
79.209953 -8.283372 8.412864 3.000000
18.109251 -10.459596 2.216484 18.000000
6.219470 -8.494717 0.939613 29.000000
31.381462 27.969688 2.011823 6.000000
79.172081 -8.572879 8.384016 1.000000
18.110966 -10.545066 2.224885 32.000000
6.269866 -8.629730 0.959505 52.000000
31.481068 27.852097 1.982239 10.000000
98.411316 31.331373 8.708841 16.000000
79.135284 -8.848475 8.397390 1.000000
18.080099 -10.616015 2.233259 16.000000
6.181151 -8.570378 0.956079 204.000000
31.617493 27.766870 1.962327 10.000000
98.509377 30.965401 8.671117 27.000000
78.193443 -9.033461 8.300904 1.000000
18.049929 -10.674699 2.244769 30.000000
6.213192 -8.675296 0.972991 22.000000
98.832436 30.688286 8.671883 15.000000
78.349236 -9.314844 8.334601 1.000000
18.027088 -10.750566 2.254225 19.000000
31.576962 27.323895 1.881597 10.000000
94.707230 29.027220 8.265714 1.000000
78.496948 -9.638213 8.340233 1.000000
17.972559 -10.811814 2.256284 16.000000
14.367911 -20.382914 2.313421 9.000000
31.676676 27.217396 1.859955 17.000000
94.714203 28.650024 8.239711 1.000000
79.571045 -10.066271 8.458218 1.000000
17.965801 -10.897626 2.271564 10.000000
14.349244 -20.515697 2.340137 8.000000
32.149910 27.419821 1.844882 10.000000
79.650482 -10.373065 8.484821 7.000000
17.920479 -10.960185 2.282026 20.000000
6.387532 -9.200730 1.052854 39.000000
32.102474 27.176752 1.807012 22.000000
94.550819 27.863688 8.121332 1.000000
79.545036 -10.613574 8.462937 1.000000
17.902550 -11.026648 2.287856 10.000000
6.336301 -9.198723 1.059794 19.000000
32.560184 27.379393 1.805340 18.000000
94.391838 27.441233 8.064439 1.000000
80.042572 -10.978701 8.520094 12.000000
17.869780 -11.097012 2.296281 17.000000
6.355921 -9.293022 1.076156 15.000000
32.740086 27.307064 1.771952 11.000000
94.711395 27.158056 8.031247 1.000000
79.596581 -11.214906 8.491125 1.000000
17.842552 -11.166593 2.308930 19.000000
6.057565 -8.923484 1.036606 11.000000
32.769615 27.147940 1.746349 11.000000
17.842514 -11.257788 2.325429 16.000000
32.531864 26.731485 1.698503 10.000000
95.094559 26.532988 7.995398 1.000000
17.800789 -11.322890 2.329111 19.000000
5.895640 -8.826783 1.035164 33.000000
32.823891 26.770512 1.686401 5.000000
17.781044 -11.397705 2.342913 15.000000
6.047007 -9.125645 1.075323 9.000000
26.072754 21.120836 1.318345 7.000000
17.738117 -11.462132 2.353971 17.000000
14.042584 -21.345303 2.527739 9.000000
17.714447 -11.543497 2.360431 10.000000
13.981059 -21.430546 2.554007 13.000000
33.089493 26.414997 1.596933 8.000000
17.683342 -11.606951 2.372616 10.000000
6.431274 -9.929832 1.187106 3.000000
33.195000 26.300602 1.560352 4.000000
9.975380 -6.597554 1.343616 7.000000
13.906033 -21.635942 2.594350 10.000000
33.028652 25.972321 1.526018 10.000000
86.288422 22.058807 7.025080 11.000000
86.088310 -14.668956 9.224893 5.000000
9.929874 -6.619900 1.347074 5.000000
6.415314 -10.062274 1.214253 7.000000
33.254654 25.953354 1.495195 8.000000
86.503944 21.776445 6.973422 19.000000
9.935381 -6.673783 1.353088 1.000000
13.803355 -21.826311 2.645959 14.000000
86.635101 21.472116 6.930586 1.000000
85.334923 -15.169735 9.155561 1.000000
17.594940 -11.912670 2.413434 10.000000
13.792437 -21.978506 2.672286 11.000000
84.974777 -15.411895 9.107397 1.000000
17.548798 -11.970977 2.416577 16.000000
13.734630 -22.082783 2.696589 15.000000
59.646931 45.504631 2.514981 23.000000
84.393013 -15.626085 9.066269 1.000000
17.499664 -12.031684 2.427132 10.000000
13.695552 -22.174990 2.720973 16.000000
84.655884 20.011805 6.678169 7.000000
84.453987 -15.957747 9.063874 1.000000
17.487762 -12.118135 2.435387 10.000000
13.665388 -22.308626 2.745055 19.000000
59.722618 44.873615 2.373716 1.000000
84.384666 -16.249926 9.047303 1.000000
17.461302 -12.190235 2.441379 11.000000
13.609676 -22.392790 2.768046 20.000000
59.887676 44.655163 2.334602 20.000000
85.746246 19.607012 6.644578 23.000000
85.293968 -16.749472 9.166653 4.000000
17.427992 -12.262237 2.450526 15.000000
13.567579 -22.508995 2.794799 21.000000
37.221497 27.542458 1.406615 9.000000
86.253075 19.406336 6.663044 29.000000
84.082886 -16.831945 9.027933 1.000000
17.396193 -12.330871 2.463404 14.000000
13.544056 -22.648405 2.824854 14.000000
59.902073 43.986355 2.205685 13.000000
86.925835 19.223248 6.662651 25.000000
17.366693 -12.405845 2.469424 13.000000
13.485557 -22.739380 2.844019 10.000000
60.125008 43.811768 2.142990 1.000000
86.809082 18.863964 6.601584 31.000000
85.287704 -17.708811 9.139923 5.000000
17.347124 -12.483546 2.476603 14.000000
13.447942 -22.857431 2.871626 12.000000
87.234352 18.621815 6.550424 17.000000
85.259262 -17.998030 9.127845 4.000000
17.333420 -12.570372 2.481207 11.000000
13.390867 -22.952494 2.891461 10.000000
85.190857 -18.294443 9.081182 6.000000
17.281063 -12.624682 2.483792 10.000000
13.379873 -23.118675 2.915929 18.000000
86.661621 18.151917 6.284658 2.000000
84.933731 -18.254734 8.870229 1.000000
17.304594 -12.641872 2.449274 10.000000
13.366708 -23.095928 2.880074 19.000000
87.321777 18.624544 6.259137 10.000000
85.192574 -17.983952 8.813549 2.000000
17.317360 -12.554112 2.414302 22.000000
13.397646 -22.954908 2.840439 18.000000
86.963776 18.865793 6.238157 20.000000
85.230011 -17.696831 8.734568 13.000000
17.389166 -12.509193 2.398974 49.000000
13.458220 -22.865772 2.802712 16.000000
60.145805 44.149174 1.927673 18.000000
85.253044 -17.360424 8.684022 8.000000
17.385889 -12.414973 2.373654 12.000000
13.482512 -22.716169 2.762445 10.000000
60.220135 44.544289 1.961439 3.000000
86.504082 19.431087 6.184133 24.000000
85.417046 -17.099020 8.648841 11.000000
17.400520 -12.329376 2.350628 10.000000
13.540223 -22.633028 2.730147 11.000000
59.931683 44.671700 1.983474 18.000000
87.370430 19.946316 6.235291 16.000000
85.646652 -16.834255 8.619935 5.000000
17.424461 -12.255206 2.333017 18.000000
13.555185 -22.470690 2.688767 15.000000
86.922615 20.179556 6.208568 5.000000
85.707314 -16.520142 8.573743 6.000000
17.462774 -12.186730 2.313346 14.000000
13.612818 -22.380352 2.660812 20.000000
86.761742 20.477631 6.186763 4.000000
85.724846 -16.213375 8.523663 9.000000
17.513062 -12.126619 2.295298 30.000000
13.653303 -22.271441 2.625878 11.000000
59.526283 45.379719 2.077708 15.000000
86.364746 20.702459 6.163569 22.000000
84.488495 -15.659017 8.379829 1.000000
17.515955 -12.038383 2.271394 11.000000
13.691571 -22.151243 2.594653 14.000000
59.371223 45.573605 2.090633 1.000000
86.146698 20.984373 6.169005 20.000000
17.560942 -11.974772 2.260266 20.000000
13.755676 -22.073645 2.563948 10.000000
86.031509 21.290646 6.150761 22.000000
17.587141 -11.902913 2.247032 10.000000
13.778013 -21.938509 2.535561 10.000000
33.451920 26.088524 1.229419 11.000000
85.628792 21.524355 6.127567 24.000000
86.127617 -15.000697 8.433392 1.000000
9.912036 -6.655591 1.254864 5.000000
13.819808 -21.827023 2.501204 10.000000
33.199615 26.069273 1.245438 28.000000
85.532768 21.817928 6.141589 1.000000
85.947968 -14.645042 8.395129 1.000000
9.928631 -6.614066 1.247573 3.000000
13.864724 -21.729765 2.477427 9.000000
33.123100 26.206015 1.260919 19.000000
94.475784 24.468287 6.807242 1.000000
9.969156 -6.590937 1.239224 1.000000
13.896973 -21.605263 2.446400 9.000000
32.951206 26.276365 1.287656 5.000000
94.481949 24.839760 6.814201 1.000000
17.687717 -11.600990 2.182191 19.000000
6.459256 -9.961600 1.118097 9.000000
33.027386 26.516758 1.301462 11.000000
94.577080 25.235727 6.844854 1.000000
17.742199 -11.548350 2.165257 20.000000
26.021200 21.049004 1.040107 6.000000
17.752241 -11.462478 2.146436 23.000000
32.726452 26.672026 1.341528 10.000000
17.769943 -11.381840 2.132355 25.000000
6.025635 -9.076181 0.999126 24.000000
32.794186 26.927864 1.363168 19.000000
17.823727 -11.328742 2.115434 21.000000
5.972030 -8.927650 0.973723 22.000000
32.498158 26.884813 1.384426 10.000000
17.832394 -11.242702 2.100410 21.000000
32.791317 27.320696 1.423341 11.000000
95.002548 27.187717 6.944570 1.000000
79.917519 -11.260124 7.557992 1.000000
17.857841 -11.167487 2.083723 17.000000
6.041057 -8.889146 0.955418 16.000000
80.035248 -10.991928 7.565452 1.000000
17.875883 -11.092157 2.077590 18.000000
58.329029 49.326759 2.627546 16.000000
79.975281 -10.685188 7.513415 1.000000
17.913719 -11.024905 2.058743 23.000000
58.203838 49.587925 2.670160 16.000000
17.923281 -10.944711 2.044338 12.000000
6.402735 -9.205470 0.969196 9.000000
58.050606 49.825729 2.724965 13.000000
79.591652 -10.054764 7.456300 1.000000
17.964188 -10.879498 2.033342 17.000000
6.429594 -9.175593 0.958558 1.000000
79.903633 -9.796776 7.439600 1.000000
17.983820 -10.801497 2.016288 14.000000
14.367204 -20.344187 2.108916 10.000000
27.937075 24.328161 1.358382 5.000000
98.783867 30.616505 7.413213 18.000000
18.018045 -10.736649 2.004827 10.000000
6.254863 -8.788447 0.905813 14.000000
98.411156 30.877916 7.375192 25.000000
18.053890 -10.668536 1.993372 16.000000
6.245313 -8.710507 0.890602 32.000000
98.247322 31.222515 7.407611 23.000000
18.079332 -10.598600 1.977322 11.000000
6.207606 -8.591246 0.871416 39.000000
87.387169 77.804428 4.474408 10.000000
18.101143 -10.522432 1.971789 10.000000
6.221896 -8.544874 0.859734 27.000000
86.852905 77.873940 4.522112 10.000000
96.539459 31.442102 7.331245 14.000000
18.140776 -10.456702 1.957172 14.000000
6.210859 -8.467443 0.844896 29.000000
86.728264 78.337502 4.591828 10.000000
95.858757 31.609480 7.306009 30.000000
18.173731 -10.391352 1.945745 13.000000
6.313392 -8.541409 0.845251 19.000000
56.625271 51.525028 3.061536 12.000000
95.295197 31.811367 7.307148 25.000000
18.191216 -10.313061 1.928833 12.000000
6.508767 -8.738544 0.859460 22.000000
85.393127 78.275803 4.672897 10.000000
94.966248 32.070423 7.290463 23.000000
18.620409 -10.466386 1.958982 10.000000
6.584642 -8.776299 0.853868 35.000000
84.915451 78.412613 4.763485 10.000000
94.326591 32.240040 7.285362 29.000000
19.057842 -10.624893 1.989568 10.000000
6.421705 -8.494097 0.821218 37.000000
84.675957 78.740852 4.826088 10.000000
93.935173 32.454544 7.280841 23.000000
19.603426 -10.835069 2.026599 10.000000
6.407823 -8.411470 0.808069 28.000000
56.089714 52.542942 3.261527 16.000000
93.185158 32.614719 7.267447 19.000000
20.102495 -11.014917 2.061906 10.000000
6.407221 -8.350053 0.795074 29.000000
92.610069 32.776756 7.231475 30.000000
78.533348 -6.222085 7.114040 1.000000
20.688419 -11.242248 2.109680 10.000000
6.419822 -8.303283 0.785487 24.000000
79.350319 -6.008164 7.172101 7.000000
21.296070 -11.471548 2.154576 10.000000
6.404582 -8.221126 0.772615 19.000000
91.347366 33.049255 7.218908 14.000000
21.855017 -11.674395 2.198272 15.000000
30.432575 29.347363 1.890247 24.000000
90.285683 33.057735 7.178733 8.000000
22.550131 -11.939679 2.250308 10.000000
6.241386 -7.894464 0.728435 65.000000
30.147770 29.266279 1.907967 5.000000
89.829506 33.228943 7.151184 24.000000
23.168659 -12.168977 2.289581 10.000000
6.205340 -7.790014 0.713902 126.000000
29.957689 29.316259 1.932694 9.000000
90.260490 33.764969 7.229125 31.000000
23.963045 -12.469057 2.349084 10.000000
6.251609 -7.792130 0.707329 34.000000
29.987787 29.561651 1.971074 10.000000
90.376266 34.186401 7.282303 25.000000
24.708828 -12.742256 2.407821 21.000000
6.358824 -7.866519 0.709096 21.000000
30.438601 30.205742 2.022280 9.000000
90.607933 34.636047 7.344721 26.000000
6.252481 -7.677235 0.687149 38.000000
90.865166 35.116623 7.393057 28.000000
26.278727 -13.320427 2.525778 21.000000
26.370537 -13.239940 2.519322 28.000000
6.355679 -7.690892 0.674929 38.000000
90.954681 35.938072 7.507917 35.000000
26.812593 -13.339064 2.541072 6.000000
6.578840 -7.901776 0.688336 40.000000
91.127914 36.393227 7.533177 35.000000
6.627303 -7.900912 0.683141 27.000000
91.147614 36.752026 7.579348 34.000000
6.619730 -7.836167 0.672344 25.000000
26.040670 26.984749 1.925946 9.000000
91.397629 37.242867 7.646093 32.000000
31.856470 -15.420603 2.947111 5.000000
6.409481 -7.531114 0.639515 48.000000
25.878948 27.014618 1.934388 9.000000
91.467430 37.644138 7.697614 21.000000
33.501415 -16.072762 3.081019 6.000000
6.499040 -7.579882 0.638675 39.000000
25.740976 27.068502 1.957626 9.000000
91.545174 38.069092 7.715847 32.000000
34.712963 -16.512634 3.160368 8.000000
6.522559 -7.553792 0.629647 29.000000
25.621391 27.131779 1.981848 8.000000
91.459770 38.427364 7.790150 19.000000
6.665049 -7.661859 0.635349 31.000000
25.657410 27.370190 2.018646 8.000000
91.708015 38.908855 7.857805 27.000000
38.113010 -17.788588 3.435783 8.000000
6.736135 -7.686501 0.632272 8.000000
91.720558 39.311481 7.871172 35.000000
38.361408 -17.741711 3.437720 21.000000
6.794425 -7.695925 0.624301 76.000000
91.625679 39.668961 7.945597 31.000000
38.554131 -17.659599 3.434268 23.000000
6.735912 -7.581509 0.611403 31.000000
38.792156 -17.596903 3.434736 21.000000
6.743335 -7.528776 0.600477 57.000000
39.030396 -17.524582 3.412270 16.000000
6.912199 -7.666006 0.607823 37.000000
39.183468 -17.453800 3.406042 21.000000
6.792863 -7.478359 0.587838 24.000000
92.705772 41.702530 8.214572 36.000000
39.417007 -17.384972 3.405648 19.000000
92.542099 42.017914 8.266581 35.000000
39.646000 -17.312672 3.404733 23.000000
6.884031 -7.470611 0.575076 24.000000
50.376850 56.920647 4.502617 11.000000
92.452789 42.386761 8.308163 29.000000
39.803352 -17.216202 3.397833 17.000000
7.016924 -7.559044 0.576636 27.000000
50.079628 57.004444 4.561148 1.000000
40.087231 -17.164848 3.401358 27.000000
7.020988 -7.508042 0.567506 29.000000
48.887428 56.040714 4.522462 5.000000
40.311611 -17.086359 3.399683 24.000000
7.030309 -7.465601 0.558969 26.000000
48.774368 56.326530 4.583282 6.000000
40.509995 -17.003880 3.395960 16.000000
7.075072 -7.458177 0.553153 32.000000
40.726158 -16.919313 3.377889 23.000000
7.106993 -7.442242 0.544710 68.000000
93.121010 44.736076 8.638821 26.000000
40.907776 -16.819220 3.387817 26.000000
93.310989 45.249020 8.726453 32.000000
117.067017 3.740337 10.370869 2.000000
41.212063 -16.776392 3.392524 12.000000
117.173782 4.173703 10.360989 2.000000
41.400326 -16.676407 3.371628 21.000000
117.442177 4.593787 10.386076 3.000000
41.641796 -16.596546 3.386317 22.000000
16.070747 -16.336594 1.148856 24.000000
94.163109 46.886448 8.944030 22.000000
41.888981 -16.517401 3.385664 10.000000
7.628661 -7.703589 0.537833 25.000000
27.747795 33.732681 2.901140 12.000000
94.090096 47.322388 9.010613 25.000000
42.129726 -16.442638 3.368713 16.000000
7.676086 -7.692180 0.531485 13.000000
27.530540 33.719715 2.937117 11.000000
94.045929 47.712223 9.059361 28.000000
102.013168 5.096365 9.043916 1.000000
42.329258 -16.341990 3.379856 13.000000
7.725668 -7.685322 0.527245 14.000000
22.284698 27.489868 2.412502 9.000000
101.919189 5.466227 9.037301 1.000000
42.618221 -16.274317 3.382131 9.000000
7.732722 -7.636155 0.518209 7.000000
27.552074 34.243385 3.019427 12.000000
102.132172 5.853136 9.058027 7.000000
42.868221 -16.198551 3.365295 9.000000
27.393929 34.303501 3.046648 12.000000
94.899902 49.443874 9.343158 35.000000
30.806614 -11.511992 2.403550 8.000000
8.862925 -8.624838 0.570228 114.000000
27.167334 34.264359 3.065407 11.000000
95.001724 49.940491 9.408892 32.000000
30.675531 -11.335052 2.390065 7.000000
8.860933 -8.562884 0.559552 90.000000
22.021776 27.984686 2.527599 8.000000
94.886971 50.303696 9.433750 25.000000
30.634117 -11.192310 2.360736 7.000000
8.896143 -8.534076 0.551173 33.000000
21.955402 28.091526 2.555676 3.000000
50.596375 -18.285675 3.894132 9.000000
8.920267 -8.494656 0.546427 36.000000
20.660608 26.645096 2.440511 11.000000
95.491638 51.524490 9.664762 33.000000
50.481808 -18.035353 3.851986 9.000000
8.900863 -8.414186 0.532636 18.000000
20.710520 26.893158 2.492662 8.000000
95.658195 52.046299 9.738265 32.000000
8.941309 -8.393512 0.526866 20.000000
20.726080 27.118397 2.524449 8.000000
95.610741 52.475559 9.810513 27.000000
45.793350 -15.982786 3.451168 9.000000
8.943108 -8.333748 0.514482 15.000000
20.701529 27.302933 2.570289 8.000000
95.417625 52.825558 9.868069 25.000000
91.154289 7.862760 8.149417 1.000000
45.660275 -15.757759 3.436973 9.000000
20.624784 27.389900 2.596096 8.000000
68.415863 38.158020 7.115486 22.000000
91.488396 8.197313 8.197832 29.000000
45.808552 -15.621273 3.426821 9.000000
8.975647 -8.247750 0.502373 15.000000
21.364744 28.590040 2.727470 9.000000
68.150406 38.369446 7.145130 13.000000
91.297691 8.501575 8.215616 22.000000
45.913322 -15.469385 3.421897 9.000000
19.556074 26.361101 2.525590 8.000000
92.704865 8.975456 8.328761 1.000000
38.425114 -12.797233 2.846250 9.000000
23.367620 31.741438 3.074364 10.000000
93.104492 9.358715 8.400615 2.000000
45.977180 -15.143208 3.384933 16.000000
21.224197 29.052351 2.825309 9.000000
67.067734 38.690361 7.182736 27.000000
76.407692 -24.826363 5.603816 19.000000
23.259918 32.073353 3.152933 10.000000
67.192215 39.091103 7.266105 28.000000
76.319542 -24.488832 5.562617 24.000000
9.024092 -7.995080 0.456836 84.000000
20.771511 28.864075 2.848684 9.000000
67.344261 39.526443 7.326402 5.000000
76.259003 -24.176132 5.523961 24.000000
8.489624 -7.460943 0.420358 18.000000
19.317139 27.051659 2.697841 8.000000
66.944946 39.591133 7.324592 9.000000
76.057632 -23.805864 5.489041 9.000000
9.064048 -7.912647 0.441190 25.000000
19.169628 27.044201 2.713704 8.000000
66.713249 39.769081 7.355415 20.000000
75.894951 -23.478897 5.443789 5.000000
9.066786 -7.856666 0.431532 23.000000
19.140673 27.214226 2.752938 10.000000
9.070589 -7.799184 0.421923 95.000000
19.442928 27.839708 2.833543 9.000000
74.210617 -22.377243 5.270579 18.000000
9.081371 -7.756223 0.414965 26.000000
19.377026 27.973545 2.869477 8.000000
65.526909 40.029198 7.380139 14.000000
74.425941 -22.116634 5.252297 23.000000
9.090899 -7.706915 0.405776 24.000000
19.281696 28.055042 2.894504 9.000000
65.242889 40.184799 7.432181 23.000000
121.493706 16.210720 11.133212 10.000000
74.725815 -21.908001 5.281411 7.000000
9.111546 -7.667200 0.401279 25.000000
19.434870 28.490456 2.962726 17.000000
63.690971 39.536259 7.310693 26.000000
121.103912 16.589172 11.124243 10.000000
74.668404 -21.594288 5.244468 5.000000
9.116733 -7.614664 0.394049 24.000000
19.457588 28.749544 3.006648 8.000000
63.555042 39.775318 7.351408 24.000000
121.198158 17.054861 11.160106 10.000000
74.609886 -21.295429 5.221501 5.000000
9.110166 -7.552667 0.384296 25.000000
21.146797 31.493496 3.325511 9.000000
63.552853 40.098866 7.407831 25.000000
9.143163 -7.520974 0.376193 31.000000
63.784004 40.556679 7.477873 9.000000
9.160464 -7.484414 0.369682 84.000000
21.121235 31.947039 3.417986 9.000000
63.403217 40.641663 7.517015 6.000000
9.149117 -7.419391 0.364008 27.000000
63.000759 40.694660 7.499317 14.000000
44.926929 -12.139042 3.082892 6.000000
9.180387 -7.389138 0.353879 33.000000
62.024406 40.386940 7.465908 1.000000
9.195789 -7.346159 0.349320 27.000000
61.552471 40.401665 7.465821 10.000000
76.795433 -20.118256 5.245040 21.000000
9.211045 -7.303202 0.342720 30.000000
20.545740 32.052475 3.525145 9.000000
29.534931 19.533922 3.621820 8.000000
76.614494 -19.799589 5.242041 24.000000
9.216941 -7.255622 0.337897 27.000000
20.464466 32.172318 3.557296 9.000000
29.437782 19.625139 3.624943 8.000000
77.328827 -19.696499 5.244216 24.000000
9.231885 -7.212739 0.327242 22.000000
19.858641 31.474041 3.504778 9.000000
60.821968 40.855263 7.571698 8.000000
9.230700 -7.157484 0.322187 29.000000
21.073002 33.658455 3.774774 10.000000
130.515533 23.130865 12.366239 10.000000
9.253043 -7.120658 0.315936 27.000000
21.029146 33.863731 3.824229 10.000000
130.672684 23.653025 12.412639 10.000000
9.271308 -7.080761 0.307521 29.000000
20.130585 32.683441 3.716390 9.000000
60.497566 41.594376 7.703478 25.000000
130.686417 24.150524 12.492464 10.000000
9.265415 -7.022643 0.302409 29.000000
20.036613 32.812363 3.762917 9.000000
130.843750 24.652235 12.539099 10.000000
9.295212 -6.991735 0.296449 31.000000
20.191980 33.314671 3.840281 10.000000
9.300872 -6.942762 0.289735 26.000000
60.771763 42.758667 7.941113 14.000000
45.520813 -10.367144 3.035441 158.000000
9.310349 -6.896844 0.281147 28.000000
60.683636 43.014130 7.988563 17.000000
45.698441 -10.239938 3.036675 205.000000
9.306217 -6.843601 0.278282 1.000000
60.669533 43.339092 8.073385 15.000000
45.994434 -10.129365 3.045602 208.000000
17.314156 -12.634959 0.501380 33.000000
20.146725 34.339260 4.065120 10.000000
60.551220 43.590641 8.118373 12.000000
88.238548 18.273325 8.597323 13.000000
46.290245 -10.016762 3.054437 189.000000
17.445581 -12.633135 0.492558 29.000000
19.941759 34.277134 4.077061 10.000000
60.499855 43.875107 8.171568 1.000000
87.916267 18.542889 8.588312 19.000000
17.532568 -12.598428 0.482397 31.000000
20.215099 35.027695 4.200721 10.000000
60.312801 44.077671 8.234044 18.000000
17.566551 -12.525474 0.474531 29.000000
20.050173 35.037930 4.228719 9.000000
17.539021 -12.409130 0.465052 35.000000
19.757475 34.821884 4.236268 9.000000
87.052544 19.346912 8.649559 2.000000
47.609879 -9.582542 3.123513 120.000000
17.555944 -12.324797 0.453063 32.000000
19.579971 34.791435 4.266502 10.000000
87.256737 19.712168 8.723913 2.000000
47.761635 -9.431072 3.139712 200.000000
17.576515 -12.243314 0.444953 32.000000
19.510691 34.967571 4.321720 1.000000
59.911228 45.113567 8.478568 14.000000
87.358871 20.072050 8.788803 3.000000
48.068031 -9.317363 3.166278 209.000000
17.615097 -12.179087 0.441111 34.000000
19.650040 35.522682 4.417239 7.000000
59.796543 45.371597 8.578704 7.000000
48.316994 -9.182005 3.189059 38.000000
17.663864 -12.117356 0.433737 33.000000
18.577026 33.861446 4.243505 9.000000
34.373222 26.270807 5.036292 9.000000
19.707556 35.626659 4.480505 9.000000
48.288551 -9.185333 3.299301 100.000000
17.642603 -12.102771 0.470573 35.000000
19.912830 35.702938 4.477150 3.000000
59.876213 45.087204 8.685665 17.000000
48.007996 -9.314419 3.308164 207.000000
17.626564 -12.187015 0.490043 34.000000
19.606405 34.852634 4.351254 10.000000
47.713604 -9.438894 3.298768 202.000000
17.577463 -12.248531 0.501147 22.000000
19.695475 34.726734 4.308844 10.000000
47.654213 -9.600120 3.322529 64.000000
17.572992 -12.341344 0.521055 35.000000
19.922478 34.828880 4.309296 10.000000
17.539656 -12.414173 0.532671 31.000000
20.160051 34.960495 4.298640 10.000000
60.238701 44.023514 8.514018 14.000000
17.570971 -12.533251 0.553860 35.000000
20.341671 34.978573 4.288576 10.000000
60.425369 43.837181 8.505523 9.000000
17.549028 -12.614901 0.565946 30.000000
20.095484 34.279335 4.183370 10.000000
60.429592 43.503082 8.470452 19.000000
88.477562 18.322823 9.130118 8.000000
17.433538 -12.629054 0.578750 34.000000
60.598015 43.303982 8.420154 16.000000
45.963829 -10.139448 3.307889 9.000000
17.293871 -12.624784 0.594344 36.000000
60.765621 43.088181 8.408276 9.000000
45.664783 -10.240767 3.297129 30.000000
9.348289 -6.877053 0.328221 23.000000
60.724213 42.741058 8.342476 18.000000
45.563168 -10.393520 3.300718 7.000000
9.314803 -6.905180 0.336034 24.000000
131.046234 25.164373 13.483803 26.000000
9.289243 -6.939132 0.344128 31.000000
20.195211 33.072086 3.936143 9.000000
9.295495 -6.997031 0.353438 27.000000
20.135151 32.703636 3.873962 9.000000
60.548000 41.613487 8.150030 16.000000
130.860657 24.159107 13.399652 17.000000
9.287088 -7.049284 0.360302 27.000000
20.980206 33.811249 3.978742 10.000000
60.714787 41.447887 8.115950 1.000000
130.319092 23.565533 13.311916 10.000000
9.264956 -7.086157 0.368599 28.000000
21.136757 33.786507 3.963845 10.000000
60.709316 41.118752 8.056160 1.000000
130.363998 23.104008 13.331525 10.000000
9.257038 -7.128879 0.377388 30.000000
19.879116 31.530874 3.674484 9.000000
60.815407 40.866257 8.037366 20.000000
130.219696 22.586483 13.284913 12.000000
9.251683 -7.176342 0.384326 31.000000
20.470707 32.206951 3.741816 9.000000
60.940498 40.642262 7.996287 1.000000
130.461182 22.136127 13.324511 17.000000
77.416931 -19.747719 5.853168 21.000000
9.236863 -7.219225 0.395049 31.000000
20.593054 32.138634 3.708996 7.000000
77.425095 -20.052328 5.873337 21.000000
9.229806 -7.268360 0.402042 30.000000
29.469425 19.350433 3.811198 7.000000
77.228241 -20.289267 5.877752 12.000000
9.202883 -7.301963 0.410244 34.000000
29.649006 19.313200 3.818995 8.000000
9.191500 -7.347990 0.417103 27.000000
21.053263 32.099342 3.642216 9.000000
29.667816 19.178284 3.794060 8.000000
44.997845 -12.175057 3.472337 6.000000
9.175952 -7.390849 0.425860 26.000000
21.056723 31.873634 3.597601 9.000000
63.434105 40.677086 8.053222 14.000000
9.168026 -7.440031 0.432945 31.000000
21.078558 31.653816 3.548007 8.000000
63.884182 40.636040 8.051304 1.000000
9.140519 -7.473439 0.439128 25.000000
21.118057 31.450693 3.507627 9.000000
64.047844 40.426811 8.040730 12.000000
9.143620 -7.532059 0.450952 30.000000
63.464653 39.734169 7.922747 26.000000
9.132407 -7.576487 0.459997 19.000000
19.505669 28.615692 3.157792 20.000000
63.458649 39.422737 7.865217 26.000000
75.079742 -21.784266 5.919266 4.000000
9.127392 -7.628977 0.467388 25.000000
19.248960 28.028366 3.070459 22.000000
65.164192 40.152020 8.017793 22.000000
9.122046 -7.681475 0.476892 22.000000
19.359396 27.948095 3.052209 8.000000
65.534256 40.065105 8.032516 14.000000
74.635063 -22.235495 5.964955 1.000000
9.101257 -7.721159 0.483540 24.000000
19.371399 27.778580 3.016495 16.000000
74.632195 -22.532789 5.998661 3.000000
9.095425 -7.773719 0.493108 24.000000
19.033548 27.082001 2.919295 10.000000
9.093040 -7.829536 0.505021 25.000000
19.338263 27.302303 2.927126 8.000000
66.691093 39.787434 8.011459 26.000000
75.661263 -23.435545 6.136417 24.000000
9.075403 -7.872457 0.511942 21.000000
19.275496 27.013271 2.879991 8.000000
67.276718 39.803192 8.022867 6.000000
75.873489 -23.806398 6.174627 24.000000
9.055120 -7.910424 0.520762 120.000000
19.442728 27.037497 2.860873 8.000000
67.345932 39.527424 7.973302 16.000000
75.968941 -24.142555 6.217548 24.000000
8.722124 -7.676069 0.509321 19.000000
20.843769 28.762821 3.026515 9.000000
67.721809 39.415035 7.959194 15.000000
76.467308 -24.609867 6.279782 23.000000
9.030046 -8.005984 0.537454 24.000000
23.313013 31.934984 3.341040 10.000000
67.015121 38.675606 7.832139 26.000000
45.926842 -14.957992 3.792913 22.000000
8.996635 -8.035448 0.545653 22.000000
21.187359 28.800932 2.996121 6.000000
92.731117 9.304836 9.252995 29.000000
38.498871 -12.695024 3.211765 7.000000
9.015179 -8.111608 0.554940 19.000000
19.565353 26.402489 2.730600 13.000000
92.421318 8.948004 9.218909 30.000000
38.399288 -12.803523 3.214091 8.000000
8.981398 -8.140979 0.563174 13.000000
21.350668 28.592012 2.940037 9.000000
68.223541 38.410618 7.842305 11.000000
92.564079 8.619500 9.213552 7.000000
8.959937 -8.178679 0.574225 23.000000
20.587912 27.360804 2.791093 7.000000
68.376129 38.167156 7.802300 8.000000
91.960709 8.223453 9.150432 25.000000
45.595898 -15.584297 3.859996 27.000000
8.977469 -8.255206 0.583684 23.000000
20.648340 27.242657 2.762355 8.000000
95.427872 52.809471 10.809305 22.000000
45.599060 -15.772267 3.873608 23.000000
8.957843 -8.297958 0.592926 19.000000
20.764053 27.187744 2.746456 8.000000
95.436089 52.379700 10.751085 19.000000
45.685493 -15.989881 3.902907 9.000000
8.948971 -8.350893 0.602927 18.000000
20.697540 26.895720 2.700757 8.000000
95.138435 51.763504 10.638850 21.000000
50.448383 -17.854801 4.333901 9.000000
8.954457 -8.417623 0.611821 12.000000
20.633657 26.619932 2.656619 16.000000
94.917465 51.193298 10.574083 18.000000
50.225628 -17.983377 4.348516 9.000000
8.903632 -8.434477 0.619141 130.000000
21.886187 28.023121 2.773421 7.000000
94.760948 50.682682 10.499002 27.000000
50.649925 -18.345016 4.409973 10.000000
8.904207 -8.491224 0.629747 162.000000
21.993319 27.948523 2.742775 6.000000
94.671173 50.231632 10.395014 29.000000
50.621574 -18.524866 4.412828 8.000000
8.905116 -8.554629 0.640669 155.000000
27.371452 34.534180 3.375216 12.000000
94.763641 49.815334 10.365227 29.000000
8.880635 -8.593920 0.647657 159.000000
27.368639 34.271832 3.328559 7.000000
94.575211 49.274704 10.268435 31.000000
42.997723 -16.101856 3.790934 7.000000
22.254251 27.658930 2.663047 9.000000
94.523964 48.808350 10.205901 21.000000
42.764133 -16.193346 3.799654 13.000000
22.301601 27.520536 2.632334 17.000000
94.089958 48.168987 10.103589 21.000000
101.923904 5.430799 10.079849 5.000000
42.482738 -16.256573 3.795659 21.000000
7.746002 -7.659957 0.593803 6.000000
27.654289 33.871284 3.218760 12.000000
93.911018 47.643780 10.009916 24.000000
42.310101 -16.368544 3.801516 10.000000
7.767170 -7.737403 0.603353 8.000000
27.747988 33.732914 3.184597 11.000000
94.074783 47.294117 9.971743 26.000000
42.025860 -16.435919 3.797227 11.000000
7.756081 -7.783201 0.612398 1.000000
94.101387 46.896717 9.901608 28.000000
41.768978 -16.503786 3.779199 21.000000
16.167082 -16.342981 1.297327 31.000000
94.159683 46.495724 9.852763 17.000000
41.557690 -16.596653 3.797024 11.000000
16.106747 -16.407520 1.321687 26.000000
41.371822 -16.681713 3.800759 17.000000
7.123346 -7.304664 0.590085 3.000000
93.243385 45.216240 9.631555 31.000000
41.109550 -16.768129 3.798429 22.000000
7.210805 -7.448775 0.606850 19.000000
93.095222 44.763687 9.564496 21.000000
40.875778 -16.822746 3.797236 10.000000
7.162484 -7.453329 0.610509 61.000000
93.358093 44.429562 9.536703 16.000000
40.673321 -16.930670 3.800205 9.000000
7.174031 -7.517694 0.621007 31.000000
93.647713 44.167130 9.495810 1.000000
40.376808 -16.981140 3.778290 11.000000
7.111805 -7.507389 0.625244 27.000000
40.200226 -17.072266 3.798040 13.000000
7.080370 -7.529288 0.635765 9.000000
40.012569 -17.165943 3.801543 19.000000
50.408802 56.996830 5.013876 4.000000
92.407845 42.405197 9.217190 25.000000
39.780506 -17.222807 3.800148 17.000000
92.548897 42.059971 9.162157 35.000000
39.546719 -17.285757 3.783556 22.000000
7.028131 -7.637682 0.656644 9.000000
92.592728 41.632248 9.114154 25.000000
39.360695 -17.392969 3.802682 17.000000
6.865168 -7.515684 0.651123 21.000000
39.177822 -17.484072 3.798727 24.000000
6.765582 -7.464015 0.651454 16.000000
38.903488 -17.508411 3.792451 13.000000
6.853314 -7.606036 0.669249 31.000000
91.824348 40.174343 8.927496 36.000000
38.716434 -17.578852 3.802319 20.000000
6.841709 -7.649347 0.678045 65.000000
91.649834 39.717411 8.826713 36.000000
38.488171 -17.645643 3.793676 11.000000
6.846432 -7.711323 0.688540 146.000000
91.719803 39.349060 8.784392 35.000000
38.285252 -17.722715 3.809744 9.000000
6.883771 -7.810853 0.702471 18.000000
25.621073 27.350557 2.265904 6.000000
91.591148 38.897003 8.723354 28.000000
6.898848 -7.883266 0.714161 72.000000
25.561493 27.087286 2.219221 9.000000
91.528526 38.493851 8.652154 26.000000
25.742910 27.089464 2.200567 8.000000
91.694298 38.131104 8.618358 29.000000
34.165066 -16.273949 3.450643 7.000000
25.887957 27.042912 2.178253 9.000000
91.551270 37.716019 8.558289 25.000000
32.907001 -15.808786 3.341706 5.000000
26.005270 26.966898 2.153551 7.000000
91.377975 37.253460 8.494565 14.000000
31.463446 -15.257476 3.213079 5.000000
6.789155 -7.988523 0.742290 24.000000
91.117531 36.776878 8.423817 28.000000
31.879446 32.588333 2.556767 1.000000
91.185036 36.416042 8.383137 28.000000
6.540765 -7.811579 0.737459 53.000000
31.968380 32.440529 2.522451 13.000000
91.012871 35.961067 8.286322 28.000000
32.123470 32.359818 2.493384 13.000000
26.340662 -13.242213 2.750530 23.000000
6.274650 -7.603644 0.725680 27.000000
32.331341 32.331341 2.468288 10.000000
90.652550 35.070827 8.196285 26.000000
26.108215 -13.245454 2.751926 9.000000
30.374104 30.152260 2.287939 11.000000
90.508598 34.634293 8.137671 32.000000
30.239059 29.809353 2.225325 14.000000
90.190239 34.152027 8.047429 30.000000
6.541768 -8.104406 0.788606 38.000000
30.031048 29.388046 2.187368 9.000000
90.128159 33.751335 8.030797 29.000000
6.455479 -8.057755 0.790821 53.000000
29.946507 29.091211 2.136899 10.000000
89.887337 33.286011 7.931035 23.000000
6.178786 -7.767798 0.765470 40.000000
30.061184 28.989216 2.108255 21.000000
79.488358 -5.432910 7.854205 1.000000
6.273496 -7.946475 0.787917 21.000000
30.558224 29.273584 2.114080 11.000000
91.426254 33.113892 7.977359 25.000000
79.160202 -5.702049 7.823793 1.000000
21.680134 -11.595571 2.367390 9.000000
92.265396 33.035793 7.971084 28.000000
21.065329 -11.361488 2.308789 14.000000
6.405540 -8.234205 0.826537 29.000000
55.924816 52.774643 3.733859 10.000000
92.791199 32.840862 7.988765 20.000000
78.184006 -6.221871 7.717886 1.000000
20.502621 -11.155191 2.259804 11.000000
6.381053 -8.265059 0.834617 27.000000
56.244152 52.687614 3.674851 9.000000
93.421631 32.679188 7.997900 35.000000
78.222450 -6.486037 7.723762 1.000000
19.954496 -10.951942 2.215830 10.000000
6.453331 -8.422313 0.857421 65.000000
84.619720 78.688560 5.429107 10.000000
94.018196 32.519970 8.004253 26.000000
6.477930 -8.515824 0.870273 24.000000
85.064461 78.522720 5.358144 10.000000
94.493111 32.296959 7.999471 27.000000
18.900644 -10.550230 2.126206 10.000000
6.587422 -8.725950 0.896957 15.000000
85.402695 78.284584 5.301414 10.000000
95.037155 32.094368 8.017897 29.000000
18.475306 -10.401805 2.090106 10.000000
6.568500 -8.764339 0.906239 13.000000
95.529480 31.889576 8.014613 19.000000
18.178301 -10.318320 2.071619 10.000000
6.538832 -8.791716 0.916213 48.000000
95.913452 31.627514 8.001573 26.000000
18.144051 -10.386992 2.079410 17.000000
6.248776 -8.466350 0.887311 31.000000
96.780022 31.557819 8.011458 10.000000
18.128256 -10.453700 2.085042 18.000000
6.233656 -8.501634 0.894512 29.000000
18.068001 -10.515827 2.094006 14.000000
6.269420 -8.622786 0.912100 38.000000
98.311638 31.242952 8.046147 32.000000
18.058422 -10.599051 2.108458 17.000000
6.173185 -8.556184 0.911931 68.000000
98.350731 30.858955 8.021936 20.000000
18.046684 -10.677032 2.115123 13.000000
6.232819 -8.702699 0.932752 38.000000
27.976576 24.379738 1.522879 9.000000
18.010431 -10.744895 2.130267 23.000000
6.243780 -8.785852 0.946788 1.000000
57.848507 50.039299 3.085438 17.000000
17.963968 -10.802377 2.132915 12.000000
6.172593 -8.750209 0.946269 5.000000
58.142670 49.922375 3.051157 9.000000
17.970085 -10.895935 2.149486 28.000000
17.914644 -10.948025 2.151116 10.000000
6.391497 -9.203012 1.007883 9.000000
17.911867 -11.036700 2.163046 14.000000
6.129914 -8.892455 0.981025 114.000000
32.522274 27.289431 1.601267 10.000000
80.043663 -11.007318 7.979164 1.000000
17.874554 -11.104300 2.174576 11.000000
32.813240 27.348665 1.573791 11.000000
95.026352 27.212475 7.432266 1.000000
79.739281 -11.235011 7.966684 1.000000
17.839258 -11.160198 2.178249 16.000000
6.005177 -8.849633 0.984594 22.000000
32.705318 27.065809 1.534397 10.000000
17.809889 -11.232857 2.190819 17.000000
5.918146 -8.787238 0.984672 27.000000
32.766308 26.914549 1.510389 10.000000
17.786636 -11.313888 2.204444 10.000000
5.885612 -8.808440 0.990219 20.000000
32.853924 26.785461 1.480262 10.000000
17.748260 -11.381063 2.216003 18.000000
25.995279 21.035542 1.150228 7.000000
94.785164 25.663757 7.245677 1.000000
17.730656 -11.452925 2.225985 15.000000
94.576691 25.253311 7.205781 16.000000
17.715246 -11.530808 2.232820 14.000000
94.295097 24.773041 7.125368 9.000000
17.688946 -11.615047 2.242833 10.000000
6.447232 -9.954472 1.144072 1.000000
33.105095 26.191771 1.356104 25.000000
94.566292 24.474117 7.104755 21.000000
9.939053 -6.576020 1.269415 3.000000
6.461380 -10.056911 1.161539 1.000000
33.244843 26.104786 1.328361 20.000000
85.767151 21.861774 6.391028 1.000000
9.910192 -6.609277 1.275123 7.000000
13.860144 -21.739319 2.523385 9.000000
33.408035 26.035551 1.301462 10.000000
85.666145 21.533743 6.362648 14.000000
9.913959 -6.656882 1.280400 4.000000
13.832746 -21.855894 2.540694 13.000000
86.033394 21.307049 6.353263 21.000000
85.936607 -15.276694 8.635169 1.000000
17.571184 -11.892115 2.286192 10.000000
13.773986 -21.949104 2.568196 10.000000
59.381012 45.597599 2.182801 20.000000
86.213524 20.984713 6.313596 24.000000
85.915779 -15.598054 8.623374 12.000000
17.553877 -11.969954 2.293114 15.000000
13.737191 -22.069721 2.594728 15.000000
59.560566 45.389420 2.144029 1.000000
86.327362 20.709431 6.301296 22.000000
17.508896 -12.033531 2.304238 10.000000
13.703555 -22.187948 2.621377 23.000000
86.357338 20.382183 6.251298 15.000000
85.660179 -16.185659 8.609124 8.000000
17.492947 -12.117208 2.311726 10.000000
13.714742 -22.371658 2.656200 22.000000
59.830341 44.905563 2.024235 11.000000
86.556107 20.094467 6.213557 6.000000
17.470594 -12.192188 2.318145 16.000000
13.633183 -22.431463 2.670952 14.000000
60.019691 44.704720 1.972799 5.000000
87.264511 19.922132 6.212033 19.000000
17.416994 -12.249954 2.324496 12.000000
13.575343 -22.521875 2.698963 12.000000
37.134777 27.468260 1.185321 4.000000
87.175026 19.581800 6.169422 7.000000
85.388802 -17.093365 8.584589 6.000000
17.397465 -12.327211 2.338916 12.000000
13.530498 -22.616770 2.718888 14.000000
60.085968 44.072983 1.860192 11.000000
85.285095 -17.397957 8.595857 1.000000
17.388235 -12.416650 2.347552 14.000000
13.508877 -22.760590 2.749168 19.000000
36.719944 -7.631073 3.683957 3.000000
17.336054 -12.470987 2.353914 18.000000
13.444812 -22.842991 2.767179 14.000000
86.840248 18.505995 5.959703 12.000000
85.446632 -18.068741 8.563387 3.000000
17.298607 -12.540518 2.351281 10.000000
13.411900 -22.970118 2.790971 12.000000
17.306240 -12.638444 2.365872 10.000000
13.395702 -23.127399 2.818532 14.000000
85.380585 -18.381960 8.348057 1.000000
17.298161 -12.632545 2.319369 10.000000
13.374986 -23.091635 2.781212 12.000000
87.028267 18.530184 5.676054 7.000000
17.342602 -12.567794 2.292666 10.000000
13.421097 -22.976658 2.740412 13.000000
87.067047 18.872288 5.683057 32.000000
36.847435 -7.657568 3.531021 3.000000
17.343584 -12.476404 2.268168 24.000000
13.461465 -22.853033 2.698790 17.000000
37.306004 27.353897 0.969006 4.000000
86.613693 19.090803 5.611153 32.000000
85.336143 -17.423885 8.125722 2.000000
17.378979 -12.405460 2.244226 17.000000
13.514652 -22.761269 2.665503 17.000000
37.177086 27.469452 0.984408 4.000000
85.359650 -17.103024 8.075960 9.000000
17.421864 -12.339933 2.225074 16.000000
13.517627 -22.577364 2.621918 13.000000
36.980442 27.524233 0.997839 8.000000
86.594002 19.753160 5.603544 24.000000
17.437935 -12.260134 2.202844 14.000000
13.599125 -22.525745 2.593869 20.000000
59.829674 44.872425 1.631862 18.000000
86.977577 20.160322 5.617240 6.000000
85.659218 -16.526377 8.000772 6.000000
17.476164 -12.191541 2.183222 16.000000
13.619579 -22.382668 2.555151 10.000000
85.381889 20.120497 5.534283 15.000000
85.669495 -16.202908 7.950099 1.000000
17.505308 -12.116731 2.170036 12.000000
13.661043 -22.266619 2.524590 10.000000
59.696594 45.460155 1.715894 8.000000
85.081749 20.347811 5.519171 12.000000
85.819923 -15.921276 7.943492 1.000000
17.528547 -12.042533 2.148943 10.000000
13.709680 -22.163239 2.495597 10.000000
59.564781 45.705666 1.743131 14.000000
84.572388 20.569618 5.475961 13.000000
17.557360 -11.967841 2.132099 12.000000
13.796234 -22.130123 2.469719 9.000000
87.168633 21.539768 5.680606 9.000000
85.866234 -15.279643 7.875809 1.000000
17.595833 -11.904319 2.120477 9.000000
13.817240 -21.983927 2.440750 8.000000
87.346573 21.923738 5.681621 26.000000
86.168388 -15.023293 7.852497 1.000000
9.911115 -6.652462 1.180924 6.000000
13.860622 -21.883034 2.407542 9.000000
33.240776 26.082842 1.032626 7.000000
85.488007 21.758842 5.580847 2.000000
85.996178 -14.668703 7.785807 1.000000
9.952510 -6.627465 1.176632 7.000000
13.874869 -21.728937 2.373477 9.000000
86.389656 -14.410175 7.801190 7.000000
9.984739 -6.598735 1.167168 1.000000
94.332268 24.765205 6.187270 1.000000
86.256660 -14.078699 7.738572 1.000000
17.683908 -11.594079 2.051006 12.000000
32.931179 26.430065 1.098344 10.000000
94.133896 25.047092 6.179672 9.000000
17.712656 -11.524721 2.038494 14.000000
26.028399 21.047310 0.882377 6.000000
94.242744 25.446293 6.210006 12.000000
17.760447 -11.463384 2.020527 16.000000
32.553520 26.521633 1.136206 10.000000
94.666214 25.915506 6.278233 6.000000
17.769402 -11.377121 2.009356 11.000000
5.877828 -8.850193 0.931370 15.000000
32.537716 26.698263 1.153603 10.000000
17.785271 -11.299943 1.988125 16.000000
5.899681 -8.812838 0.918518 27.000000
32.693417 27.027130 1.184855 10.000000
17.835867 -11.240541 1.978026 17.000000
5.912794 -8.762778 0.908119 13.000000
32.812557 27.328691 1.215172 11.000000
80.055923 -11.293876 7.044903 1.000000
17.834244 -11.152730 1.955000 15.000000
