VERSION .7
FIELDS x y z intensity
SIZE 4 4 4 4
TYPE F F F F
COUNT 1 1 1 1
WIDTH 1221
HEIGHT 1
VIEWPOINT 0 0 0 1 0 0 0
POINTS 1221
DATA ascii
28.133247 -17.382233 4.824384 11.000000
7.440110 -10.849751 1.578037 19.000000
49.473988 41.838371 4.655783 1.000000
99.675674 29.279446 12.571719 1.000000
69.199913 -9.429996 10.300543 1.000000
28.003775 -17.437595 4.824351 14.000000
7.413633 -10.896553 1.590216 22.000000
49.412350 41.476582 4.579060 9.000000
100.105690 29.026560 12.576184 31.000000
69.307220 -9.678825 10.308756 1.000000
27.850973 -17.484432 4.814897 17.000000
7.392793 -10.939662 1.600124 23.000000
49.547623 41.310833 4.544929 21.000000
69.829475 -10.012824 10.391827 6.000000
27.583498 -17.451042 4.790797 9.000000
7.368608 -10.990489 1.612972 21.000000
27.137716 -17.308615 4.741576 9.000000
7.361449 -11.071486 1.630119 10.000000
26.697769 -17.159412 4.680804 10.000000
7.332425 -11.107547 1.638914 13.000000
50.318115 41.009212 4.448074 14.000000
26.168406 -16.955027 4.609979 9.000000
7.308885 -11.169148 1.653122 16.000000
104.256195 28.189051 12.878208 12.000000
25.752090 -16.819618 4.563926 18.000000
7.304353 -11.247717 1.670474 15.000000
51.434601 41.295395 4.438931 15.000000
25.572746 -16.830120 4.547987 18.000000
7.273352 -11.290360 1.679978 20.000000
52.110847 41.525143 4.437400 5.000000
25.295267 -16.780693 4.520377 7.000000
7.249296 -11.339767 1.693098 17.000000
52.022579 41.173485 4.394972 15.000000
105.937691 27.417076 12.893563 15.000000
24.539774 -16.403149 4.411372 9.000000
7.248388 -11.421633 1.708919 19.000000
52.292477 41.046772 4.345553 23.000000
76.216660 -13.164903 11.393773 2.000000
24.379192 -16.419222 4.398026 9.000000
7.206158 -11.447617 1.713640 17.000000
52.757294 41.129616 4.325923 15.000000
75.945770 -13.404956 11.346794 8.000000
7.196891 -11.521908 1.733037 10.000000
52.964714 40.980099 4.295377 1.000000
120.889984 29.894855 14.518925 10.000000
75.885857 -13.667694 11.331152 6.000000
23.370060 -15.983848 4.246609 10.000000
7.193474 -11.610933 1.747296 10.000000
120.861252 29.418106 14.480423 10.000000
75.706818 -13.922120 11.325687 5.000000
7.157293 -11.643119 1.760492 12.000000
120.642349 28.896866 14.375577 10.000000
75.530350 -14.162411 11.279211 9.000000
22.635391 -15.720291 4.153121 14.000000
7.142485 -11.715057 1.774703 10.000000
53.860977 40.734737 4.189476 16.000000
120.188866 28.367147 14.288411 13.000000
75.748100 -14.490831 11.333333 7.000000
22.329361 -15.629380 4.117185 10.000000
7.113898 -11.760334 1.785107 8.000000
54.136551 40.632099 4.140007 17.000000
120.236374 27.935640 14.216886 10.000000
74.150047 -14.453606 11.088247 1.000000
21.918537 -15.456100 4.056146 10.000000
7.098321 -11.832294 1.799416 9.000000
120.282242 27.482035 14.144847 19.000000
74.113029 -14.728551 11.077237 1.000000
21.595201 -15.346911 4.011424 9.000000
7.183536 -12.074437 1.842200 8.000000
119.982224 26.951157 14.032624 10.000000
74.099228 -15.008330 11.069844 1.000000
21.258997 -15.219948 3.968153 10.000000
7.191412 -12.184267 1.860139 7.000000
119.791428 26.447466 13.933813 10.000000
75.206345 -15.506054 11.229568 14.000000
20.965990 -15.126712 3.928399 9.000000
7.148344 -12.208453 1.867547 9.000000
55.358158 40.293915 3.971930 12.000000
119.680893 25.963398 13.801556 19.000000
75.218712 -15.796231 11.226282 11.000000
20.637701 -14.999671 3.872119 9.000000
7.142878 -12.302308 1.885466 9.000000
55.646400 40.192535 3.909893 9.000000
119.578011 25.482538 13.670788 10.000000
75.075897 -16.040064 11.144838 8.000000
7.136668 -12.391021 1.900311 7.000000
55.678024 40.200596 3.815432 7.000000
119.573875 25.459839 13.432212 10.000000
75.129631 -16.065256 10.988984 11.000000
7.120186 -12.357415 1.877619 6.000000
55.378517 40.293949 3.769033 17.000000
120.171257 26.047815 13.401362 10.000000
74.900711 -15.729450 10.851593 3.000000
20.682602 -15.026790 3.793365 10.000000
7.149465 -12.303761 1.850700 6.000000
119.795174 26.404442 13.304631 10.000000
75.308685 -15.540855 10.834330 14.000000
20.965450 -15.115197 3.807397 10.000000
7.163107 -12.228774 1.830595 8.000000
119.920700 26.893370 13.329431 10.000000
74.138046 -15.016192 10.617535 1.000000
21.287596 -15.223570 3.831925 10.000000
7.183628 -12.161380 1.809400 8.000000
120.172478 27.390759 13.346196 21.000000
21.626556 -15.357835 3.864838 9.000000
7.160426 -12.021264 1.780036 9.000000
54.127399 40.595703 3.782744 10.000000
120.528755 27.937067 13.375200 10.000000
75.574692 -14.744995 10.739384 4.000000
21.893097 -15.432439 3.878953 9.000000
7.087901 -11.800912 1.736596 8.000000
53.908955 40.741447 3.813381 20.000000
120.452126 28.362711 13.355751 10.000000
75.656746 -14.487043 10.730085 9.000000
22.320766 -15.611759 3.925148 10.000000
7.101047 -11.725223 1.717125 11.000000
120.618095 28.868797 13.385797 10.000000
75.525002 -14.175055 10.662948 5.000000
22.674835 -15.724233 3.951703 9.000000
7.134954 -11.688931 1.703310 10.000000
120.629684 29.339439 13.377007 19.000000
75.703712 -13.921549 10.639827 8.000000
23.057478 -15.870676 3.993753 10.000000
7.152671 -11.621954 1.682849 10.000000
53.049500 40.971741 3.853150 1.000000
75.664696 -13.641496 10.586564 9.000000
23.390194 -15.985636 4.021999 11.000000
7.169670 -11.554485 1.667237 10.000000
52.673889 40.990742 3.848443 15.000000
75.955025 -13.406590 10.606522 6.000000
24.500542 -16.619312 4.187113 6.000000
7.192153 -11.500916 1.653508 10.000000
52.456810 41.160973 3.867977 10.000000
75.995247 -13.140319 10.578239 4.000000
24.430382 -16.428917 4.137616 12.000000
7.203258 -11.425307 1.634462 12.000000
51.898674 40.987103 3.871041 19.000000
24.639500 -16.451149 4.142681 6.000000
7.232684 -11.379319 1.617339 20.000000
51.864208 41.269436 3.902943 16.000000
25.633335 -16.972771 4.282376 7.000000
7.264935 -11.342408 1.606150 18.000000
51.824471 41.548943 3.934653 3.000000
25.588507 -16.821297 4.243753 9.000000
7.280282 -11.275165 1.588518 14.000000
51.402325 41.520905 3.948851 1.000000
25.756783 -16.803450 4.245497 10.000000
7.303349 -11.220429 1.572721 15.000000
50.435806 41.046566 3.908912 5.000000
26.249014 -16.987747 4.294098 9.000000
7.317930 -11.153206 1.555247 10.000000
26.750706 -17.173649 4.348886 9.000000
7.332761 -11.091208 1.540754 14.000000
70.043419 -10.305640 9.559615 4.000000
27.271374 -17.373781 4.412148 7.000000
7.351922 -11.032084 1.526895 24.000000
49.577793 41.248055 3.967164 23.000000
69.784813 -10.006420 9.494196 5.000000
27.731833 -17.524563 4.447064 9.000000
7.382115 -10.989888 1.510743 21.000000
49.424679 41.428150 4.000932 7.000000
69.660507 -9.765350 9.460564 1.000000
27.857113 -17.467960 4.445662 20.000000
7.412667 -10.952581 1.499810 18.000000
98.403114 28.831022 11.157490 23.000000
69.399597 -9.444871 9.382571 1.000000
28.040741 -17.440248 4.447130 22.000000
7.430949 -10.893365 1.486097 16.000000
98.061432 29.121601 11.148841 3.000000
69.256989 -9.203948 9.359335 1.000000
28.145067 -17.362396 4.430050 15.000000
7.446221 -10.830268 1.469589 16.000000
49.140270 42.103428 4.093925 18.000000
97.368950 29.286196 11.081667 1.000000
69.196800 -8.937976 9.309527 1.000000
28.318701 -17.333334 4.418338 20.000000
7.458289 -10.763106 1.452606 10.000000
28.468096 -17.281664 4.419904 27.000000
7.476477 -10.709311 1.439629 10.000000
69.022461 -8.389307 9.264989 1.000000
28.599930 -17.211758 4.412295 22.000000
7.499238 -10.658469 1.424970 22.000000
49.276897 43.169056 4.259414 17.000000
68.724922 -8.121967 9.184508 1.000000
28.726259 -17.158281 4.411099 20.000000
7.504324 -10.583062 1.409392 23.000000
49.304379 43.498249 4.297937 19.000000
68.802101 -7.887669 9.191087 1.000000
28.936621 -17.140348 4.409839 9.000000
7.524594 -10.533529 1.394855 19.000000
48.955906 43.510948 4.327356 24.000000
32.441818 -3.587342 4.326060 3.000000
29.252184 -17.175880 4.429780 28.000000
7.549195 -10.486493 1.383157 19.000000
49.143791 44.001392 4.392880 21.000000
93.753265 30.426107 10.829646 12.000000
32.521927 -3.492815 4.335258 1.000000
29.430260 -17.149456 4.436019 26.000000
7.576466 -10.443436 1.372021 14.000000
48.962524 44.163483 4.414236 19.000000
32.546627 -3.374850 4.319439 1.000000
29.582130 -17.093021 4.419120 33.000000
7.638873 -10.448671 1.364956 9.000000
48.832188 44.356037 4.451116 11.000000
32.528614 -3.258255 4.315513 1.000000
29.714752 -17.031576 4.430024 28.000000
7.737647 -10.506601 1.369136 9.000000
48.799473 44.653847 4.509414 16.000000
32.624966 -3.147174 4.320916 1.000000
29.810507 -16.941608 4.404593 26.000000
7.806450 -10.519063 1.362923 13.000000
48.751110 44.938988 4.555013 17.000000
84.506256 28.784737 9.887499 9.000000
30.030657 -16.928310 4.416131 24.000000
7.896155 -10.558850 1.362515 16.000000
48.688408 45.180756 4.586424 18.000000
84.223656 29.016973 9.850486 29.000000
30.181774 -16.868023 4.404699 21.000000
7.970735 -10.585208 1.357634 9.000000
48.613571 45.475861 4.643231 18.000000
84.268333 29.378326 9.899773 3.000000
30.314825 -16.796865 4.396663 17.000000
8.048123 -10.603011 1.352133 10.000000
48.409882 45.587273 4.673178 9.000000
30.413742 -16.713184 4.390213 29.000000
8.135023 -10.644018 1.353709 10.000000
48.367508 45.866974 4.731282 10.000000
30.402086 -16.561991 4.367461 26.000000
8.228166 -10.680634 1.350489 9.000000
48.288036 46.128925 4.763443 21.000000
68.064468 -5.081954 8.925211 7.000000
30.544649 -16.501654 4.361174 18.000000
8.295147 -10.686334 1.347891 9.000000
48.179096 46.396183 4.817966 10.000000
87.752708 32.026123 10.478080 24.000000
30.680618 -16.430126 4.359620 19.000000
8.411471 -10.754581 1.350753 12.000000
48.137733 46.665005 4.864567 19.000000
30.874786 -16.388777 4.353862 17.000000
8.491744 -10.775594 1.342786 10.000000
47.962017 46.820522 4.898577 1.000000
86.625755 32.319130 10.387207 31.000000
66.968376 -4.283704 8.763092 1.000000
31.020966 -16.327833 4.353986 24.000000
8.572910 -10.800822 1.344791 9.000000
86.056786 32.449512 10.332501 22.000000
66.966881 -4.037215 8.737084 1.000000
31.175680 -16.263626 4.342381 23.000000
8.666157 -10.836499 1.338512 9.000000
47.114368 46.672405 4.916640 23.000000
85.539284 32.612968 10.317010 20.000000
31.343128 -16.212048 4.351542 16.000000
8.768710 -10.882719 1.340796 10.000000
47.000542 46.902206 4.969281 16.000000
84.938316 32.740910 10.291112 24.000000
31.522921 -16.158873 4.355699 10.000000
8.844870 -10.899148 1.336727 18.000000
46.841732 47.071209 5.004799 10.000000
84.865913 33.036655 10.343852 29.000000
31.666170 -16.099926 4.355504 20.000000
8.928795 -10.928299 1.333985 16.000000
46.757523 47.332291 5.061018 19.000000
84.200531 33.150497 10.294188 20.000000
31.832417 -16.030926 4.344617 21.000000
9.036484 -10.969932 1.333474 10.000000
46.648190 47.569084 5.103109 13.000000
83.645287 33.252686 10.255645 15.000000
31.993780 -15.965457 4.352293 22.000000
9.124253 -11.001932 1.330969 10.000000
46.579453 47.848549 5.149912 9.000000
83.379997 33.518543 10.270599 23.000000
32.197186 -15.919833 4.346551 17.000000
9.231032 -11.044107 1.327680 19.000000
46.573109 48.177357 5.203068 7.000000
82.759529 33.621986 10.209283 16.000000
32.329697 -15.845153 4.344195 19.000000
9.320152 -11.068037 1.324468 9.000000
46.341923 48.291157 5.243989 10.000000
82.076416 33.695465 10.171556 19.000000
32.442505 -15.753234 4.338794 8.000000
9.416016 -11.099056 1.322055 12.000000
44.824684 47.054111 5.137433 1.000000
81.659393 33.824429 10.164255 22.000000
9.538116 -11.159808 1.323114 18.000000
44.636375 47.201641 5.169874 1.000000
81.151291 33.962967 10.147552 24.000000
37.145889 -17.725639 4.907845 9.000000
9.615795 -11.179394 1.321227 9.000000
80.494209 34.051765 10.081662 29.000000
37.034222 -17.490183 4.869275 34.000000
9.733280 -11.224525 1.315487 10.000000
44.014469 47.216259 5.216215 2.000000
80.040901 34.173367 10.100598 25.000000
37.364803 -17.502953 4.890880 18.000000
9.862616 -11.297765 1.319982 8.000000
46.787369 50.561157 5.603066 8.000000
79.571541 34.351269 10.089350 19.000000
9.947983 -11.303642 1.314731 9.000000
46.626057 50.758766 5.654428 16.000000
79.197517 34.518272 10.087709 22.000000
10.044002 -11.332736 1.314196 11.000000
46.583599 51.069225 5.719449 9.000000
79.111382 34.826324 10.092929 26.000000
10.165859 -11.385883 1.311251 9.000000
46.440914 51.289101 5.761450 3.000000
79.142006 35.153568 10.142293 26.000000
27.923893 -12.578797 3.581507 8.000000
10.273953 -11.430426 1.312191 9.000000
79.273857 35.543964 10.205772 27.000000
27.975266 -12.502224 3.577901 9.000000
10.389144 -11.481769 1.313867 10.000000
18.183655 20.365908 2.311834 7.000000
79.455421 35.942299 10.275298 24.000000
10.501065 -11.516270 1.308721 9.000000
18.138615 20.444384 2.328676 7.000000
79.414749 36.275112 10.318063 26.000000
35.526375 -15.572808 4.501836 8.000000
10.617157 -11.566313 1.310124 7.000000
79.618034 36.704418 10.392090 32.000000
116.594498 1.261723 15.061098 10.000000
35.631657 -15.463516 4.480484 16.000000
10.690544 -11.560917 1.302873 12.000000
45.461834 52.040493 5.984822 1.000000
79.723289 37.141708 10.456339 29.000000
35.699902 -15.330507 4.481630 27.000000
10.832625 -11.620635 1.303327 7.000000
45.147278 52.045979 6.003641 18.000000
79.771629 37.486671 10.510128 28.000000
35.875381 -15.265159 4.483491 32.000000
10.962270 -11.677714 1.305570 10.000000
21.767649 25.262600 2.923359 8.000000
79.917892 37.896538 10.593738 28.000000
35.657856 -15.018484 4.435712 33.000000
11.070018 -11.714403 1.302443 8.000000
21.579697 25.230888 2.933875 9.000000
80.042664 38.315670 10.628820 24.000000
35.579945 -14.839654 4.392284 27.000000
11.195820 -11.760880 1.303606 10.000000
21.476910 25.315744 2.957053 10.000000
80.110710 38.692535 10.687228 18.000000
35.553379 -14.661305 4.368106 23.000000
11.336748 -11.813594 1.302979 8.000000
21.485807 25.488119 2.992747 8.000000
80.291809 39.143589 10.793722 24.000000
35.583405 -14.535810 4.365849 28.000000
11.459607 -11.862626 1.300985 9.000000
20.623974 24.648506 2.907886 9.000000
80.178978 39.452950 10.797920 19.000000
35.493259 -14.354622 4.328310 29.000000
11.574726 -11.898396 1.294755 10.000000
20.446619 24.619328 2.912478 9.000000
80.360260 39.891178 10.888684 20.000000
35.399422 -14.165926 4.297028 35.000000
11.698821 -11.938105 1.297864 7.000000
20.389790 24.734791 2.939842 9.000000
80.205658 40.181515 10.919396 10.000000
35.526413 -14.065903 4.292649 21.000000
11.834033 -11.987870 1.299108 7.000000
20.286730 24.803200 2.966893 11.000000
80.259972 40.594994 10.979793 14.000000
35.774487 -14.005465 4.316094 45.000000
11.981161 -12.039856 1.298015 8.000000
20.279091 24.980127 3.001803 8.000000
80.209915 40.904266 11.023340 19.000000
35.782043 -13.857389 4.283725 28.000000
12.133317 -12.107931 1.294868 7.000000
20.307644 25.185522 3.035464 8.000000
80.138153 41.238472 11.082076 3.000000
35.959106 -13.789009 4.285814 17.000000
12.220073 -12.113895 1.287752 8.000000
20.277388 25.328428 3.066990 8.000000
80.474770 41.767632 11.180849 8.000000
38.544521 -14.626296 4.580562 8.000000
12.396910 -12.190919 1.295116 8.000000
20.786898 26.160818 3.182074 8.000000
79.869308 41.825687 11.149902 1.000000
38.729645 -14.534376 4.581582 18.000000
12.512656 -12.223388 1.293757 7.000000
20.603197 26.125652 3.192030 8.000000
80.197273 42.372707 11.265514 18.000000
38.686966 -14.364500 4.570574 22.000000
12.672573 -12.289158 1.293235 9.000000
20.618229 26.333244 3.226254 8.000000
81.113831 43.219826 11.447968 23.000000
37.332642 -13.706154 4.383529 17.000000
12.828277 -12.344926 1.288659 7.000000
20.391594 26.241365 3.235093 1.000000
81.213562 43.655891 11.517235 26.000000
37.177074 -13.494618 4.359426 32.000000
12.989157 -12.408371 1.293939 7.000000
21.348398 27.681459 3.427599 8.000000
37.025654 -13.293570 4.308407 23.000000
13.128398 -12.458384 1.294162 12.000000
81.560547 44.597607 11.693799 28.000000
37.196625 -13.201247 4.315670 22.000000
13.272646 -12.503136 1.291061 9.000000
20.620062 27.136414 3.389805 8.000000
81.729164 45.061104 11.790097 30.000000
13.433260 -12.566225 1.292730 9.000000
20.803602 27.587271 3.460939 8.000000
81.767937 45.474068 11.852837 29.000000
39.132423 -13.573768 4.514252 9.000000
13.601254 -12.621381 1.290994 9.000000
20.560804 27.474195 3.461475 8.000000
81.967316 45.979103 11.956089 31.000000
34.381802 -11.784932 3.954800 7.000000
13.732299 -12.649631 1.289200 8.000000
82.027176 46.389847 12.021797 27.000000
39.035358 -13.220335 4.469920 8.000000
13.937529 -12.744567 1.290826 10.000000
82.141594 46.852737 12.097200 26.000000
39.001644 -13.049768 4.431505 16.000000
14.046679 -12.759106 1.287027 2.000000
82.402878 47.402897 12.245514 23.000000
38.989590 -12.894575 4.432245 22.000000
22.185078 30.546350 3.914669 9.000000
82.499176 47.842335 12.318407 31.000000
82.213272 8.582937 10.779683 1.000000
39.151470 -12.789110 4.430744 8.000000
14.957265 -13.382735 1.340106 7.000000
22.062647 30.613132 3.939467 27.000000
82.638702 48.328865 12.416574 31.000000
82.299225 8.882428 10.809649 20.000000
21.980104 30.735472 3.978154 9.000000
82.751419 48.783226 12.459020 31.000000
82.565521 9.217435 10.819495 13.000000
14.954438 -13.193390 1.303601 9.000000
14.995169 21.123667 2.745574 6.000000
82.767242 49.202229 12.573920 27.000000
82.408997 9.491322 10.847434 36.000000
15.007621 -13.133553 1.296639 20.000000
21.848003 31.017469 4.047884 9.000000
82.735817 49.575222 12.629602 10.000000
82.193031 9.742732 10.837893 25.000000
15.138215 -13.159449 1.293599 27.000000
21.860294 31.277792 4.105056 9.000000
82.217232 10.080441 10.846333 8.000000
15.369654 -13.266729 1.298735 15.000000
15.547524 -13.321135 1.298868 26.000000
15.714774 -13.364864 1.294280 26.000000
21.801151 31.923374 4.247327 9.000000
15.753384 -13.289094 1.285833 30.000000
21.701860 32.017391 4.277062 9.000000
25.899900 -7.539324 2.849459 6.000000
15.813180 -13.250031 1.276276 21.000000
25.869184 -7.432530 2.838458 9.000000
15.979579 -13.285358 1.274658 30.000000
26.069441 -7.386738 2.847878 6.000000
16.216473 -13.391613 1.278952 22.000000
19.894836 30.023651 4.059051 9.000000
73.872017 -20.639336 8.075145 8.000000
16.636692 -13.636381 1.293070 29.000000
18.926653 28.813078 3.915552 8.000000
16.989077 -13.821425 1.305004 18.000000
17.592464 26.976494 3.675103 8.000000
17.265385 -13.941363 1.310634 29.000000
17.501839 27.043375 3.704349 21.000000
74.082047 -19.836367 8.020036 9.000000
17.414272 -13.956454 1.306319 10.000000
19.434752 30.272736 4.168728 10.000000
17.814770 -14.175586 1.324668 4.000000
16.298000 25.612316 3.550146 19.000000
74.574791 -19.397482 8.044549 2.000000
18.173611 -14.342355 1.338950 6.000000
16.232712 25.687534 3.564238 9.000000
74.174629 -19.003416 7.980307 2.000000
18.339666 -14.374969 1.331344 9.000000
15.899119 25.365034 3.543164 9.000000
74.415443 -18.788549 7.985570 5.000000
18.447760 -14.350850 1.327178 11.000000
20.020031 32.201096 4.514637 9.000000
57.392540 39.018574 9.667079 10.000000
37.055420 -9.211480 3.979528 5.000000
18.733917 -14.463554 1.331510 30.000000
57.151070 39.146805 9.674015 23.000000
37.116089 -9.095983 3.969299 111.000000
19.013231 -14.568287 1.334977 6.000000
19.963707 32.628922 4.622196 9.000000
56.947258 39.314625 9.725416 14.000000
37.315800 -8.993180 3.980163 98.000000
19.517303 -14.846680 1.358136 2.000000
56.874588 39.558315 9.773521 19.000000
37.566956 -8.908149 3.996631 38.000000
19.695675 -14.868722 1.353787 8.000000
16.984741 28.211561 4.025774 8.000000
56.768204 39.793835 9.829606 18.000000
74.571320 -17.421904 7.940729 23.000000
19.834137 -14.859438 1.355213 33.000000
16.940474 28.372856 4.069175 8.000000
56.561161 39.958675 9.856041 10.000000
20.109398 -14.950900 1.357108 1.000000
56.534077 40.236107 9.912807 6.000000
20.686924 -15.262864 1.378798 5.000000
16.283579 27.721422 4.015910 8.000000
56.009182 40.172615 9.907907 8.000000
20.823687 -15.246217 1.375145 14.000000
16.182949 27.782780 4.038978 8.000000
56.097042 40.532928 9.985407 3.000000
74.681854 -16.296932 7.885751 6.000000
21.010643 -15.270729 1.370325 18.000000
15.243152 26.391273 3.855556 9.000000
55.587849 40.475941 9.957866 4.000000
74.714684 -16.044722 7.897037 23.000000
21.382935 -15.421859 1.377068 12.000000
15.122135 26.394053 3.875200 8.000000
55.053600 40.381744 9.936023 9.000000
74.682495 -15.724458 7.873437 23.000000
21.658974 -15.500587 1.381855 18.000000
16.400314 28.869772 4.259283 8.000000
54.861252 40.550755 9.964545 6.000000
22.004894 -15.626506 1.395538 27.000000
16.238655 28.830736 4.279940 8.000000
54.491024 40.586777 9.984818 10.000000
75.413788 -15.343110 7.966490 4.000000
15.055666 26.961039 4.016084 8.000000
54.282688 40.726974 10.033140 5.000000
22.729416 -15.891671 1.414647 10.000000
14.892503 26.888918 4.024854 9.000000
53.730385 40.621231 9.994551 1.000000
75.189781 -14.738021 7.931482 9.000000
23.031303 -15.983339 1.420144 17.000000
14.705925 26.783188 4.033483 8.000000
53.682194 40.880070 10.084297 8.000000
23.414854 -16.122686 1.435166 12.000000
14.591077 26.806440 4.066847 9.000000
53.289631 40.890575 10.098575 9.000000
14.580239 26.786530 4.085498 8.000000
53.047005 40.704399 10.148087 7.000000
14.679449 26.746033 4.070851 8.000000
53.225563 40.547012 10.143160 9.000000
75.770447 -14.577374 8.205161 3.000000
23.483959 -16.176313 1.489476 19.000000
14.817508 26.764532 4.054737 9.000000
53.685661 40.587418 10.166376 8.000000
75.602875 -14.832694 8.206447 4.000000
23.058830 -16.008406 1.480962 17.000000
15.006101 26.883299 4.064238 9.000000
54.010323 40.537357 10.188944 6.000000
22.688242 -15.874678 1.480274 13.000000
15.176105 26.955244 4.067018 8.000000
54.344650 40.492500 10.201094 12.000000
16.286781 28.693235 4.320226 8.000000
54.680984 40.432266 10.224202 10.000000
75.316124 -15.624639 8.288248 8.000000
22.011822 -15.642987 1.486128 12.000000
54.897846 40.296982 10.201928 6.000000
75.258949 -15.900709 8.329060 10.000000
21.604652 -15.473117 1.476413 18.000000
15.228153 26.386570 3.945966 27.000000
55.230476 40.230473 10.224078 5.000000
75.018944 -16.137455 8.322537 11.000000
21.295986 -15.370454 1.477553 12.000000
16.119392 27.695889 4.127830 9.000000
55.639389 40.231819 10.236962 9.000000
74.937027 -16.407431 8.347159 10.000000
20.952250 -15.239468 1.471178 23.000000
16.252199 27.701200 4.119957 18.000000
55.828106 40.057495 10.232344 8.000000
74.976906 -16.690638 8.398737 21.000000
20.814688 -15.256375 1.488030 9.000000
16.395485 27.712212 4.107658 8.000000
56.108921 39.963032 10.221316 6.000000
74.845932 -16.949638 8.404523 16.000000
20.555880 -15.177265 1.486730 4.000000
56.465378 39.905785 10.222541 11.000000
74.775597 -17.222073 8.430764 15.000000
20.095026 -14.951110 1.470511 4.000000
17.002779 28.275017 4.162198 8.000000
56.581493 39.692417 10.206090 10.000000
74.647629 -17.480955 8.437046 10.000000
19.775696 -14.826434 1.468426 27.000000
17.207741 28.379810 4.169228 8.000000
56.694435 39.462383 10.163350 13.000000
74.635025 -17.753044 8.483232 7.000000
19.664850 -14.856231 1.477179 8.000000
19.822948 32.437000 4.748442 8.000000
56.873993 39.293369 10.158563 11.000000
19.271694 -14.670468 1.472888 4.000000
19.927389 32.340893 4.724834 6.000000
56.934868 39.027916 10.119203 12.000000
18.904350 -14.500577 1.461387 5.000000
57.103756 38.851395 10.088118 9.000000
18.684629 -14.441122 1.460895 17.000000
15.987747 25.536129 3.704602 8.000000
57.714718 38.958389 10.158345 2.000000
18.433905 -14.355572 1.461770 10.000000
15.989891 25.332647 3.662332 10.000000
74.271179 -19.097233 8.574732 18.000000
18.257582 -14.336369 1.468611 9.000000
16.289696 25.609137 3.694374 16.000000
74.229973 -19.376970 8.618791 8.000000
18.033392 -14.257253 1.462429 4.000000
19.466618 30.357325 4.357677 9.000000
74.226219 -19.652996 8.653409 6.000000
18.323456 -14.596031 1.510807 5.000000
17.436848 26.973906 3.858399 19.000000
74.085045 -19.906473 8.658959 13.000000
17.411894 -13.969525 1.447484 9.000000
18.933222 29.087875 4.156983 8.000000
73.971100 -20.139099 8.694055 9.000000
17.208458 -13.910289 1.450314 15.000000
18.997318 28.931656 4.114889 8.000000
73.842010 -20.408823 8.674485 11.000000
19.157309 28.954515 4.103048 8.000000
26.007641 -7.290831 3.077429 6.000000
19.984018 29.964769 4.231064 9.000000
25.918108 -7.368298 3.074774 9.000000
20.148607 29.995598 4.219256 9.000000
25.811863 -7.430694 3.069825 35.000000
15.987964 -13.315943 1.414827 19.000000
25.790020 -7.521989 3.075082 10.000000
15.793461 -13.252288 1.409134 24.000000
25.938541 -7.678422 3.115575 8.000000
15.769021 -13.325856 1.429197 32.000000
15.704309 -13.370141 1.438615 24.000000
19.576372 28.240267 3.921130 17.000000
82.140244 50.040279 13.534670 12.000000
15.506976 -13.300479 1.435744 26.000000
21.533823 30.845062 4.272743 1.000000
82.332970 49.784088 13.487779 6.000000
15.336411 -13.252054 1.442216 24.000000
21.814262 31.004034 4.279006 9.000000
82.187561 49.305210 13.401570 20.000000
82.233444 9.747522 11.652803 31.000000
15.133127 -13.173587 1.434669 29.000000
15.025033 21.197073 2.914355 7.000000
82.574005 49.126373 13.418036 1.000000
82.844971 9.512234 11.764127 17.000000
14.979002 -13.136232 1.438594 10.000000
21.914387 30.654882 4.193462 9.000000
82.543983 48.680359 13.314486 20.000000
82.570435 9.174213 11.675927 16.000000
14.928939 -13.184802 1.445186 8.000000
22.060753 30.644318 4.181987 9.000000
82.663727 48.343498 13.254025 24.000000
82.445297 8.869081 11.683301 6.000000
39.167774 -12.681050 4.814446 8.000000
14.812510 -13.178925 1.455975 7.000000
22.151789 30.545340 4.152344 9.000000
82.412582 47.849800 13.189589 31.000000
82.114845 8.529201 11.617270 1.000000
39.019279 -12.776083 4.823168 19.000000
22.370878 30.610744 4.145566 9.000000
82.327240 47.397636 13.097349 28.000000
38.996414 -12.919487 4.840425 18.000000
82.190338 46.918571 13.014463 25.000000
38.954308 -13.064178 4.833839 9.000000
14.034101 -12.765572 1.426470 9.000000
82.023308 46.444355 12.911980 28.000000
34.443584 -11.698726 4.305395 5.000000
13.880065 -12.718737 1.425456 11.000000
20.544895 27.482924 3.679151 8.000000
81.868591 45.961304 12.827635 28.000000
39.053059 -13.408937 4.894412 7.000000
13.717787 -12.658409 1.423149 9.000000
20.595407 27.340954 3.658140 8.000000
81.909294 45.608852 12.792321 11.000000
37.309105 -12.977805 4.696321 21.000000
13.575634 -12.619674 1.426207 9.000000
20.560017 27.096643 3.611017 8.000000
81.601074 45.009056 12.682730 22.000000
37.263653 -13.115293 4.717597 29.000000
13.393747 -12.542419 1.428027 9.000000
21.310051 27.872389 3.700011 8.000000
81.519478 44.630611 12.582115 23.000000
37.189518 -13.220654 4.713447 28.000000
13.274803 -12.522672 1.426639 9.000000
21.310453 27.662201 3.657806 8.000000
36.929035 -13.280712 4.700466 19.000000
13.069108 -12.419473 1.422079 10.000000
20.304789 26.167341 3.446115 7.000000
81.011276 43.565376 12.403820 2.000000
36.928314 -13.440807 4.713865 38.000000
12.946093 -12.388859 1.419685 9.000000
20.337337 26.011885 3.417961 8.000000
80.599480 42.999966 12.286403 1.000000
37.113285 -13.662385 4.771846 34.000000
12.781289 -12.321210 1.422146 8.000000
20.615974 26.170025 3.419264 6.000000
80.569458 42.605335 12.209358 9.000000
37.305843 -13.873919 4.795446 9.000000
12.635575 -12.270409 1.417115 7.000000
20.881819 26.317978 3.424399 8.000000
79.984077 41.939175 12.066303 7.000000
39.239170 -14.764668 5.066061 8.000000
12.500567 -12.228645 1.422351 8.000000
79.938690 41.542542 12.004397 1.000000
12.377218 -12.197076 1.419499 8.000000
79.756699 41.077396 11.906575 19.000000
35.999035 -13.833154 4.694241 15.000000
12.224034 -12.130519 1.421909 8.000000
20.451355 25.210306 3.251639 8.000000
35.854034 -13.928465 4.695585 32.000000
12.094390 -12.090168 1.420989 8.000000
20.441143 25.009800 3.212644 9.000000
35.817528 -14.058374 4.710834 18.000000
11.986096 -12.070069 1.425412 9.000000
20.397732 24.770842 3.174564 10.000000
35.921070 -14.251175 4.744982 8.000000
11.804492 -11.974655 1.423803 8.000000
20.531450 24.747824 3.152903 10.000000
79.408699 39.436096 11.656830 11.000000
35.408581 -14.205451 4.697975 29.000000
11.688400 -11.948311 1.421200 9.000000
20.545382 24.589436 3.124904 12.000000
79.309052 39.076485 11.592730 13.000000
35.093750 -14.214432 4.669141 30.000000
11.561397 -11.897151 1.419296 13.000000
20.681635 24.568933 3.109279 8.000000
79.330627 38.726414 11.543715 1.000000
35.049095 -14.346105 4.683585 91.000000
11.420184 -11.838346 1.418846 9.000000
21.442520 25.284151 3.186357 7.000000
79.493507 38.445782 11.515483 13.000000
35.148613 -14.530293 4.717113 22.000000
11.300235 -11.800255 1.420800 9.000000
21.561180 25.244898 3.167485 8.000000
79.375992 38.047638 11.447904 10.000000
35.629276 -14.882134 4.802594 37.000000
11.184325 -11.765241 1.420203 9.000000
21.647791 25.158995 3.154950 10.000000
79.258720 37.634808 11.379877 1.000000
35.563801 -15.008111 4.814835 30.000000
11.046773 -11.702074 1.419236 9.000000
45.045132 51.964859 6.476526 7.000000
79.482933 37.401829 11.362077 10.000000
35.646576 -15.189848 4.846927 8.000000
10.931784 -11.665624 1.418383 8.000000
79.388428 37.002563 11.266938 17.000000
116.727028 1.691053 16.323534 2.000000
10.813654 -11.624664 1.419746 10.000000
79.507294 36.703854 11.249104 17.000000
116.682594 1.221942 16.358034 2.000000
10.689217 -11.575685 1.420058 9.000000
18.126614 20.459610 2.516490 7.000000
79.376915 36.308075 11.181686 24.000000
10.577566 -11.535302 1.418828 8.000000
18.151861 20.351738 2.501012 8.000000
79.377464 35.957115 11.132208 25.000000
10.474217 -11.506979 1.421566 10.000000
46.147434 51.396053 6.298332 1.000000
79.344208 35.625412 11.095487 22.000000
27.917351 -12.493883 3.874700 10.000000
10.354694 -11.459767 1.419190 9.000000
46.506203 51.415287 6.260535 8.000000
79.195160 35.226837 11.026634 31.000000
27.853163 -12.576185 3.871558 7.000000
10.215719 -11.389604 1.413934 12.000000
46.513931 51.064404 6.188931 1.000000
79.127518 34.849915 10.968691 29.000000
10.144116 -11.385507 1.419978 9.000000
46.571648 50.752853 6.135463 17.000000
79.180923 34.527485 10.927841 31.000000
10.031083 -11.338078 1.420349 9.000000
46.625015 50.438652 6.069768 10.000000
79.659691 34.405815 10.946500 21.000000
9.903401 -11.276773 1.418683 10.000000
46.849785 50.310612 6.026617 1.000000
80.167366 34.276997 10.968008 28.000000
37.252430 -17.466171 5.270640 8.000000
9.822427 -11.267596 1.418254 9.000000
80.778862 34.205425 11.004163 25.000000
9.687917 -11.191929 1.414893 9.000000
44.374367 46.973820 5.585256 1.000000
81.177193 34.023766 11.010157 25.000000
9.597531 -11.169985 1.418038 9.000000
44.768032 47.043938 5.578809 1.000000
81.743828 33.909557 11.007334 12.000000
9.514061 -11.155295 1.419485 16.000000
46.390831 48.392818 5.711751 12.000000
82.195717 33.761208 11.020751 29.000000
32.405380 -15.770168 4.667852 12.000000
9.398515 -11.101974 1.418558 9.000000
46.482143 48.116859 5.653161 10.000000
82.662636 33.599434 11.035144 23.000000
32.285625 -15.851516 4.677694 15.000000
9.294367 -11.064825 1.419426 16.000000
46.626137 47.946705 5.616038 11.000000
83.222916 33.506023 11.110944 18.000000
32.115891 -15.900570 4.673437 21.000000
9.215548 -11.045155 1.423114 11.000000
46.671787 47.643024 5.553579 12.000000
83.943672 33.422218 11.125915 9.000000
31.952787 -15.979843 4.671684 22.000000
9.123751 -11.016971 1.422728 9.000000
46.645130 47.267994 5.494745 1.000000
84.354126 33.261990 11.165635 11.000000
31.815685 -16.050356 4.672453 22.000000
9.015089 -10.963439 1.421751 19.000000
46.737106 47.015274 5.427000 17.000000
84.748535 33.025036 11.135748 14.000000
31.593178 -16.083639 4.648403 15.000000
8.924045 -10.934164 1.421168 10.000000
46.937523 46.888397 5.407920 8.000000
84.954910 32.764339 11.115509 24.000000
31.438522 -16.150270 4.659427 19.000000
8.836157 -10.907852 1.425904 10.000000
46.998497 46.606400 5.348714 15.000000
85.535324 32.628559 11.159514 14.000000
31.269760 -16.201780 4.661530 17.000000
8.726923 -10.854103 1.424512 15.000000
47.271759 46.534988 5.302106 10.000000
86.108459 32.486160 11.186076 10.000000
66.964325 -4.060521 9.380753 1.000000
31.117922 -16.268055 4.647752 19.000000
8.660745 -10.849127 1.424779 16.000000
47.957310 46.864990 5.324365 13.000000
86.448189 32.270073 11.182824 11.000000
67.157288 -4.307558 9.409834 1.000000
30.936743 -16.311094 4.641591 17.000000
8.555441 -10.798151 1.423677 10.000000
48.148300 46.724174 5.280297 15.000000
87.426270 32.305271 11.245913 5.000000
30.795841 -16.381332 4.648014 18.000000
8.487523 -10.793468 1.428637 9.000000
48.087872 46.324509 5.219837 22.000000
87.843391 32.059219 11.249808 4.000000
30.667164 -16.450481 4.649596 25.000000
8.387976 -10.743847 1.427805 9.000000
48.223927 46.116001 5.169358 17.000000
68.048241 -5.104630 9.553993 10.000000
30.497700 -16.503805 4.633042 16.000000
8.290367 -10.699441 1.422632 10.000000
48.249962 45.803509 5.119077 16.000000
88.401718 31.582788 11.243656 1.000000
67.930351 -5.346235 9.540128 9.000000
30.359468 -16.566269 4.639233 17.000000
8.206885 -10.668408 1.424190 9.000000
48.455746 45.662384 5.088052 14.000000
30.370922 -16.717272 4.662635 23.000000
8.133936 -10.654153 1.427761 10.000000
48.464520 45.352299 5.025713 12.000000
67.720955 -5.817641 9.528420 1.000000
30.264704 -16.803631 4.668054 25.000000
8.037183 -10.607807 1.426990 10.000000
48.586128 45.133217 4.962937 9.000000
30.117256 -16.859570 4.672763 28.000000
7.970762 -10.600636 1.431453 12.000000
48.723801 44.929550 4.925250 8.000000
29.989122 -16.932499 4.674723 27.000000
7.888508 -10.567841 1.432611 10.000000
48.794415 44.664864 4.880981 19.000000
67.919197 -6.551840 9.553301 1.000000
29.772125 -16.933546 4.649167 23.000000
7.801937 -10.532174 1.430835 9.000000
48.930775 44.461178 4.831882 15.000000
68.091331 -6.808422 9.592975 1.000000
29.664770 -17.016687 4.660348 22.000000
7.720364 -10.498477 1.431794 20.000000
49.058243 44.249821 4.793646 17.000000
68.164429 -7.068158 9.606857 1.000000
29.550638 -17.102356 4.664841 24.000000
7.646236 -10.477921 1.432033 19.000000
49.082005 43.946075 4.722406 13.000000
67.914536 -7.281948 9.563006 1.000000
29.348742 -17.129412 4.660975 20.000000
7.583875 -10.472864 1.436671 24.000000
49.039402 43.600479 4.669102 24.000000
93.586899 30.047464 11.477118 1.000000
67.611771 -7.500244 9.524182 1.000000
29.058107 -17.102873 4.636735 22.000000
7.544853 -10.499773 1.445698 23.000000
49.249092 43.495358 4.640732 16.000000
93.877289 29.761599 11.447010 1.000000
68.877350 -7.884117 9.718614 1.000000
28.862928 -17.110312 4.620112 25.000000
7.530797 -10.557789 1.456933 26.000000
49.290661 43.181114 4.582302 14.000000
94.155838 29.452517 11.432201 1.000000
68.958237 -8.173949 9.734578 1.000000
28.716118 -17.179436 4.619516 18.000000
7.508684 -10.608820 1.469356 10.000000
28.566599 -17.212080 4.621937 25.000000
7.492867 -10.661271 1.482386 10.000000
28.427135 -17.270382 4.609582 14.000000
7.489268 -10.735614 1.496022 16.000000
49.064934 42.068592 4.394750 24.000000
28.292814 -17.324276 4.615286 24.000000
7.453993 -10.776985 1.506873 17.000000
28.203163 -17.411831 4.616937 22.000000
7.436527 -10.824261 1.517177 19.000000
97.747368 28.675949 11.642284 9.000000
28.027321 -17.438684 4.609835 17.000000
7.417582 -10.890092 1.531541 19.000000
49.419624 41.423912 4.260442 20.000000
27.862782 -17.491844 4.611847 25.000000
7.401172 -10.947942 1.545385 22.000000
49.494377 41.207897 4.198637 17.000000
69.544899 -9.996795 9.836849 4.000000
27.610304 -17.454510 4.584924 9.000000
7.368844 -10.986695 1.554054 22.000000
68.581940 -10.115070 9.705820 1.000000
27.135607 -17.293947 4.528046 9.000000
7.358181 -11.058196 1.569744 23.000000
68.764862 -10.387431 9.749156 1.000000
26.715992 -17.164536 4.485451 8.000000
7.324553 -11.091413 1.577878 10.000000
50.251358 40.911037 4.122228 8.000000
68.928635 -10.670717 9.765442 1.000000
26.222408 -16.977024 4.423626 9.000000
7.305013 -11.150483 1.591900 18.000000
25.728207 -16.791210 4.356080 13.000000
7.287835 -11.213710 1.606573 14.000000
51.520912 41.320343 4.085690 18.000000
25.586081 -16.826097 4.347385 18.000000
7.280476 -11.288432 1.620763 14.000000
51.739571 41.199764 4.080012 9.000000
25.434427 -16.860228 4.359259 7.000000
7.254491 -11.339170 1.633754 19.000000
51.775536 40.919209 4.013188 19.000000
24.588642 -16.423397 4.229364 9.000000
7.240854 -11.405360 1.649211 16.000000
52.398052 41.100090 4.014740 13.000000
121.070969 30.815599 13.836664 10.000000
75.972572 -13.136398 10.780803 1.000000
24.425026 -16.443895 4.216804 19.000000
7.215761 -11.449570 1.659326 10.000000
52.652935 40.989189 3.975981 12.000000
121.156357 30.364943 13.767414 10.000000
75.914650 -13.399463 10.792871 12.000000
24.345779 -16.514334 4.223529 4.000000
7.176543 -11.484870 1.667634 10.000000
120.967499 29.846821 13.689410 10.000000
75.876625 -13.679705 10.780803 7.000000
23.414257 -16.008078 4.077131 12.000000
7.170382 -11.569152 1.685692 16.000000
120.662819 29.302893 13.576889 16.000000
75.961761 -13.969003 10.786018 1.000000
7.145087 -11.618716 1.696522 10.000000
120.549133 28.830048 13.530800 10.000000
75.552834 -14.207582 10.749645 7.000000
22.682941 -15.747447 3.988986 10.000000
7.132836 -11.694639 1.713491 16.000000
53.838448 40.658642 3.831015 15.000000
120.559258 28.365730 13.454559 17.000000
75.480492 -14.439637 10.732078 1.000000
22.310966 -15.604905 3.937978 15.000000
7.108966 -11.742925 1.724402 8.000000
54.196964 40.618324 3.798473 16.000000
120.257607 27.829987 13.344031 10.000000
75.736259 -14.776517 10.789804 3.000000
21.905231 -15.440992 3.881103 9.000000
7.100671 -11.822174 1.739725 8.000000
120.230194 27.359766 13.308001 12.000000
21.635723 -15.364344 3.857018 9.000000
7.105652 -11.938785 1.764992 6.000000
120.055061 26.857489 13.212470 16.000000
74.178024 -15.024291 10.542455 1.000000
21.301085 -15.244457 3.811965 10.000000
7.194755 -12.185073 1.802698 8.000000
55.042362 40.314430 3.659212 1.000000
119.984497 26.402256 13.086042 23.000000
75.234932 -15.525637 10.687015 11.000000
21.006931 -15.145103 3.768762 9.000000
7.153830 -12.208048 1.810107 7.000000
55.389717 40.257755 3.624530 12.000000
119.610870 25.860785 12.970069 23.000000
75.161507 -15.784219 10.643358 4.000000
20.713203 -15.043501 3.730027 6.000000
7.175496 -12.343598 1.834079 9.000000
55.677639 40.155979 3.561630 12.000000
119.438622 25.365675 12.833482 11.000000
74.937271 -16.024122 10.592587 5.000000
7.134839 -12.377852 1.840340 7.000000
55.738213 40.184879 3.444816 13.000000
119.773445 25.414938 12.631363 10.000000
7.145710 -12.391712 1.822286 6.000000
55.457241 40.292042 3.436555 10.000000
119.729340 25.842657 12.571336 19.000000
75.226830 -15.811646 10.393309 5.000000
20.966375 -15.227373 3.697135 2.000000
7.164761 -12.320182 1.797924 9.000000
55.199383 40.399845 3.429295 19.000000
119.681816 26.291857 12.533157 10.000000
75.312546 -15.541653 10.328884 3.000000
21.021679 -15.150161 3.664774 9.000000
7.160620 -12.209863 1.770587 9.000000
119.853775 26.790493 12.539705 16.000000
74.337082 -15.070012 10.147397 1.000000
21.336893 -15.258822 3.691274 10.000000
7.203738 -12.180855 1.755147 7.000000
120.226738 27.314844 12.523401 16.000000
74.240044 -14.767263 10.059465 3.000000
21.732883 -15.427637 3.717240 10.000000
7.099152 -11.904213 1.706744 8.000000
54.121914 40.532581 3.448998 19.000000
120.287888 27.792761 12.518529 14.000000
75.434677 -14.731345 10.173356 4.000000
22.034336 -15.520487 3.739866 10.000000
7.100667 -11.812824 1.682534 8.000000
53.919819 40.675781 3.456966 18.000000
120.151985 28.203516 12.558080 10.000000
74.365303 -14.239753 10.008585 1.000000
22.368731 -15.633681 3.772308 10.000000
7.116223 -11.741030 1.666285 14.000000
53.844456 40.929447 3.497236 1.000000
120.504761 28.752739 12.584035 10.000000
75.598717 -14.202548 10.126874 4.000000
22.767746 -15.794548 3.805637 9.000000
7.128901 -11.665275 1.647126 10.000000
120.521820 29.201834 12.574518 21.000000
74.823181 -13.773125 10.002649 1.000000
7.147045 -11.603737 1.627473 12.000000
75.995598 -13.701154 10.111471 1.000000
23.489449 -16.047457 3.871570 10.000000
7.179647 -11.561554 1.615601 10.000000
52.662521 40.952385 3.531234 12.000000
74.578339 -13.177017 9.916720 1.000000
7.190950 -11.485610 1.599068 18.000000
52.404491 41.060837 3.558957 11.000000
24.428619 -16.427731 3.969784 18.000000
7.211195 -11.433475 1.583170 16.000000
52.012947 41.047878 3.565271 10.000000
24.690662 -16.479078 3.976622 6.000000
7.242601 -11.386140 1.566132 15.000000
51.915874 41.280960 3.592185 11.000000
25.558432 -16.923174 4.090029 9.000000
7.266250 -11.331394 1.550350 18.000000
51.583527 41.326195 3.614356 8.000000
25.582449 -16.810921 4.062707 13.000000
7.270709 -11.247412 1.530654 14.000000
51.038357 41.197475 3.609677 1.000000
25.907278 -16.888742 4.087958 9.000000
7.305084 -11.214531 1.520175 10.000000
50.296825 40.904282 3.601861 10.000000
26.425135 -17.088644 4.137409 8.000000
7.319448 -11.147035 1.505223 10.000000
101.995445 28.247503 10.806290 1.000000
26.853615 -17.233095 4.178058 9.000000
7.333695 -11.080005 1.485702 25.000000
101.627846 28.547161 10.778357 1.000000
69.924629 -10.288163 9.053988 4.000000
27.278753 -17.365099 4.211312 8.000000
7.356500 -11.030606 1.470798 17.000000
49.547943 41.193962 3.670199 18.000000
100.013840 28.489691 10.636522 1.000000
69.501633 -10.002956 8.982649 4.000000
27.785429 -17.551645 4.262550 10.000000
7.375268 -10.971421 1.457159 23.000000
49.368855 41.352024 3.690688 16.000000
100.176628 28.914499 10.664504 14.000000
27.876671 -17.466669 4.249184 21.000000
7.399414 -10.920675 1.442361 21.000000
99.113434 29.001574 10.580777 15.000000
28.069378 -17.444471 4.245329 25.000000
7.426986 -10.879394 1.428692 23.000000
98.334091 29.165222 10.508921 16.000000
28.199530 -17.389200 4.238175 19.000000
7.447649 -10.824251 1.415746 18.000000
49.042946 41.990364 3.801835 24.000000
97.867897 29.399015 10.488025 20.000000
28.357422 -17.343430 4.240530 23.000000
7.456670 -10.752751 1.400719 11.000000
49.079952 42.334793 3.850763 5.000000
96.880478 29.489960 10.429445 1.000000
28.479050 -17.281511 4.231947 19.000000
7.483326 -10.711153 1.389469 10.000000
96.493057 29.758898 10.381599 1.000000
68.739243 -8.379233 8.760345 1.000000
28.608477 -17.216902 4.218090 26.000000
7.497602 -10.648245 1.371073 23.000000
49.253967 43.088226 3.945235 19.000000
96.152504 30.021824 10.391706 8.000000
68.758232 -8.138073 8.759090 1.000000
28.784037 -17.179163 4.216832 18.000000
7.514110 -10.589027 1.357821 22.000000
49.273445 43.409824 4.004922 15.000000
68.665916 -7.872056 8.731339 1.000000
28.939013 -17.134943 4.218822 10.000000
7.556313 -10.566230 1.349272 19.000000
49.041763 43.556622 4.023252 21.000000
29.282890 -17.193913 4.229642 28.000000
7.556040 -10.488278 1.331277 18.000000
49.126141 43.923840 4.076737 9.000000
93.858185 30.423944 10.230947 15.000000
29.429758 -17.142282 4.230114 21.000000
7.586208 -10.449187 1.320726 15.000000
49.036854 44.168480 4.128986 14.000000
29.563055 -17.075119 4.222099 22.000000
7.689753 -10.510564 1.320554 9.000000
48.950630 44.416866 4.170152 11.000000
29.781736 -17.056162 4.232212 30.000000
7.771212 -10.544468 1.318976 10.000000
48.672646 44.475403 4.182778 4.000000
67.009300 -6.464066 8.420992 1.000000
29.895439 -16.982973 4.215553 17.000000
7.834221 -10.548787 1.311517 15.000000
66.996880 -6.226906 8.416647 1.000000
30.028593 -16.913338 4.207244 28.000000
7.921078 -10.584472 1.310234 20.000000
84.206444 28.961727 9.327872 12.000000
67.212807 -6.022233 8.417296 1.000000
30.209948 -16.869932 4.199448 27.000000
7.989624 -10.602588 1.306390 9.000000
83.950653 29.234711 9.343276 18.000000
30.395216 -16.834476 4.210854 20.000000
8.066945 -10.620109 1.302956 10.000000
48.466866 45.593075 4.373022 17.000000
67.905373 -5.570907 8.486477 1.000000
30.420118 -16.702866 4.181212 18.000000
8.179099 -10.686216 1.302881 9.000000
48.424519 45.888939 4.419429 13.000000
68.228554 -5.345741 8.512231 6.000000
30.418480 -16.564037 4.160749 21.000000
8.233962 -10.676591 1.295877 16.000000
48.354794 46.160431 4.475355 19.000000
88.485001 31.891455 9.935551 6.000000
68.304192 -5.111841 8.495111 8.000000
30.572641 -16.502993 4.155082 18.000000
8.335855 -10.731042 1.296437 9.000000
48.500580 46.640556 4.528233 5.000000
87.811600 32.012890 9.873047 21.000000
30.744917 -16.450752 4.145584 28.000000
8.430910 -10.771685 1.295436 10.000000
48.043983 46.541599 4.548410 1.000000
87.108238 32.101387 9.839272 16.000000
30.894255 -16.392200 4.157979 14.000000
8.520213 -10.803960 1.293373 10.000000
48.111603 46.933754 4.605652 7.000000
86.692162 32.274979 9.820638 31.000000
31.035797 -16.321808 4.144125 20.000000
8.587649 -10.815515 1.286001 9.000000
47.196953 46.380314 4.580752 1.000000
86.321419 32.532089 9.825917 3.000000
31.213388 -16.276367 4.141538 28.000000
8.707587 -10.880515 1.285430 10.000000
47.134247 46.659512 4.637759 15.000000
85.558304 32.586018 9.784264 22.000000
31.415287 -16.235476 4.147890 18.000000
8.776097 -10.884109 1.279802 15.000000
47.025333 46.894196 4.667220 19.000000
85.056824 32.718407 9.771445 21.000000
31.520069 -16.143520 4.141353 20.000000
8.882427 -10.933723 1.279539 20.000000
46.961689 47.158813 4.712233 17.000000
84.758018 32.994652 9.752255 25.000000
31.693941 -16.093168 4.131638 13.000000
8.965251 -10.957297 1.275988 10.000000
46.943012 47.453754 4.772959 16.000000
84.328468 33.132889 9.730755 21.000000
31.880852 -16.055317 4.142726 21.000000
9.046289 -10.981834 1.274822 11.000000
46.861572 47.753323 4.831081 8.000000
83.743515 33.291737 9.710423 19.000000
32.026344 -15.967747 4.140611 10.000000
9.151324 -11.018909 1.273300 18.000000
46.617756 47.854462 4.870881 15.000000
83.311203 33.440224 9.704799 14.000000
32.191349 -15.909956 4.129336 14.000000
9.262817 -11.070351 1.267925 18.000000
46.592270 48.146706 4.920142 18.000000
82.679482 33.522236 9.676291 24.000000
32.347816 -15.854033 4.129899 24.000000
9.342752 -11.094875 1.268988 10.000000
46.450161 48.370136 4.960017 15.000000
82.284676 33.713852 9.644483 32.000000
32.581280 -15.820620 4.139466 7.000000
9.442073 -11.129771 1.264095 12.000000
46.277382 48.511196 4.994015 1.000000
81.750175 33.845314 9.658812 32.000000
9.551344 -11.175284 1.262892 16.000000
81.284912 34.018883 9.619202 20.000000
37.340145 -17.786343 4.690429 11.000000
9.659781 -11.214686 1.261119 9.000000
80.797691 34.130280 9.605869 23.000000
37.392822 -17.667524 4.675429 13.000000
9.746453 -11.239717 1.257100 10.000000
80.313812 34.256741 9.593345 23.000000
36.821301 -17.217022 4.580920 9.000000
9.874053 -11.294940 1.257151 9.000000
46.807709 50.512344 5.311003 7.000000
79.764725 34.368622 9.573425 21.000000
36.890102 -17.100344 4.553655 8.000000
9.964557 -11.322474 1.255935 9.000000
46.568298 50.660389 5.355199 11.000000
79.208443 34.506580 9.553734 27.000000
36.834991 -16.903275 4.524483 21.000000
10.071506 -11.355781 1.250573 8.000000
46.483711 50.888317 5.412241 17.000000
78.996490 34.709927 9.571764 31.000000
36.872749 -16.772802 4.522264 8.000000
10.195835 -11.419456 1.253232 9.000000
46.419487 51.193565 5.450846 5.000000
79.188179 35.140987 9.641147 27.000000
27.915594 -12.575058 3.396397 9.000000
10.298339 -11.449514 1.247137 9.000000
46.292343 51.430904 5.506626 1.000000
79.255295 35.519028 9.695797 31.000000
27.953684 -12.480874 3.385160 8.000000
10.396754 -11.482121 1.248995 8.000000
18.164808 20.316233 2.183126 7.000000
79.362099 35.866714 9.753379 31.000000
35.206776 -15.572100 4.243291 8.000000
10.530043 -11.544001 1.248937 9.000000
18.128389 20.432859 2.212154 7.000000
79.499779 36.280418 9.802020 21.000000
35.274910 -15.433229 4.230399 10.000000
10.622251 -11.555657 1.240817 8.000000
45.287979 51.423382 5.585436 8.000000
79.548180 36.655376 9.855446 28.000000
35.453053 -15.363951 4.231656 20.000000
10.736241 -11.594086 1.238061 8.000000
45.314774 51.799122 5.658264 1.000000
79.686928 37.057079 9.919667 21.000000
35.596500 -15.286105 4.229019 8.000000
10.860194 -11.650208 1.236706 8.000000
45.298431 52.165024 5.728621 4.000000
79.830757 37.480446 9.985784 21.000000
35.566734 -15.119166 4.205220 7.000000
10.978340 -11.690744 1.236825 8.000000
45.006069 52.195259 5.763103 1.000000
79.909676 37.875561 10.044218 23.000000
35.547337 -14.964631 4.183104 7.000000
11.091608 -11.729046 1.233629 8.000000
21.670504 25.319160 2.810239 7.000000
79.997894 38.259922 10.103387 24.000000
35.575764 -14.823333 4.166416 8.000000
11.218316 -11.768047 1.231041 9.000000
21.592409 25.415899 2.835622 9.000000
80.214706 38.725502 10.195874 32.000000
35.553066 -14.661177 4.143857 34.000000
