VERSION .7
FIELDS x y z intensity
SIZE 4 4 4 4
TYPE F F F F
COUNT 1 1 1 1
WIDTH 1238
HEIGHT 1
VIEWPOINT 0 0 0 1 0 0 0
POINTS 1238
DATA ascii
4.244988 3.446119 -0.720806 168.000000
10.900441 2.871881 -1.632414 10.000000
14.543529 -2.389414 -1.935127 6.000000
5.688580 -8.712961 -0.443399 17.000000
4.240489 3.468329 -0.717333 140.000000
10.899678 2.914444 -1.631878 8.000000
14.863596 -2.391407 -1.984668 4.000000
5.721358 -8.696698 -0.458148 23.000000
4.235883 3.490551 -0.713842 130.000000
10.789175 2.927310 -1.612945 6.000000
15.107798 -2.368520 -2.018705 4.000000
5.723769 -8.634568 -0.468606 34.000000
4.233757 3.517430 -0.710973 115.000000
10.834610 2.988418 -1.617590 30.000000
15.145132 -2.314826 -2.030653 4.000000
5.770390 -8.632736 -0.484235 73.000000
4.237665 3.544495 -0.709678 115.000000
10.882384 3.040464 -1.622193 33.000000
15.059235 -2.250618 -2.020828 4.000000
5.927001 -8.803703 -0.506063 32.000000
4.236496 3.569989 -0.706755 140.000000
10.909268 3.093182 -1.623920 1.000000
15.493377 -2.257478 -2.083524 6.000000
6.055516 -8.927170 -0.525695 37.000000
4.303262 3.653307 -0.715117 7.000000
10.997751 3.161865 -1.638805 1.000000
15.884324 -2.252189 -2.137769 6.000000
6.371138 -3.957974 -0.771129 1.000000
6.189292 -9.052784 -0.547855 31.000000
10.829821 3.156605 -1.611476 1.000000
15.793177 -2.180248 -2.132909 6.000000
6.355388 -3.915979 -0.774064 1.000000
6.257575 -9.077649 -0.566243 9.000000
10.861152 3.211035 -1.611910 1.000000
15.800693 -2.122298 -2.135692 6.000000
6.258795 -3.824884 -0.767057 1.000000
5.966880 -8.598018 -0.548481 17.000000
10.878300 3.259508 -1.612173 1.000000
15.705161 -2.048107 -2.124515 6.000000
6.361612 -3.855765 -0.783171 1.000000
6.205372 -8.875372 -0.578924 22.000000
10.880452 3.305734 -1.610312 1.000000
15.658116 -1.983633 -2.119957 6.000000
5.912548 -8.390895 -0.559513 194.000000
10.840142 3.336934 -1.604126 1.000000
15.699678 -1.927678 -2.127377 6.000000
6.478088 -3.852527 -0.805482 1.000000
5.955851 -8.389996 -0.573445 31.000000
10.785834 3.363544 -1.593881 1.000000
15.695690 -1.868819 -2.134321 6.000000
6.028245 -8.429485 -0.590280 24.000000
10.796974 3.412562 -1.593421 1.000000
15.599798 -1.799440 -2.114789 6.000000
6.163738 -8.552525 -0.613396 36.000000
10.808766 3.459913 -1.590962 1.000000
6.231292 -8.576637 -0.629834 255.000000
10.776561 3.495280 -1.588186 1.000000
6.076660 -8.305744 -0.620430 184.000000
4.328847 3.963878 -0.690548 1.000000
10.797400 3.545829 -1.587094 1.000000
5.573387 -3.177715 -0.711694 1.000000
6.176153 -8.380193 -0.642187 255.000000
4.275352 3.942419 -0.678032 7.000000
10.728465 3.566806 -1.574849 1.000000
5.775181 -0.555069 -0.787527 8.000000
5.554282 -3.139903 -0.712290 8.000000
6.222812 -8.382078 -0.654967 7.000000
4.261220 3.958384 -0.673972 29.000000
5.732460 -0.528757 -0.784489 6.000000
5.552424 -3.112053 -0.713959 10.000000
6.605711 -8.830035 -0.705384 24.000000
4.305227 4.028760 -0.677007 32.000000
7.866455 2.681024 -1.150259 1.000000
5.753962 -0.509479 -0.788197 6.000000
5.572042 -3.096266 -0.719524 25.000000
6.527946 -8.662877 -0.705253 85.000000
4.283545 4.038021 -0.671756 56.000000
7.833731 2.701959 -1.142493 1.000000
5.711363 -0.484616 -0.782113 4.000000
5.587264 -3.077976 -0.724538 29.000000
6.931821 -9.125720 -0.759156 158.000000
4.301649 4.084967 -0.670647 13.000000
7.814134 2.728818 -1.139682 1.000000
5.717984 -0.463071 -0.783791 5.000000
5.611029 -3.064316 -0.731810 33.000000
6.464362 -8.445865 -0.717618 9.000000
7.505541 2.651956 -1.093253 1.000000
5.670115 -0.438283 -0.778015 4.000000
5.647981 -3.057675 -0.739706 24.000000
6.310602 -8.185615 -0.708246 255.000000
5.686305 -0.417576 -0.782038 6.000000
5.675250 -3.048145 -0.745367 27.000000
12.685321 12.215888 -1.962935 6.000000
5.692603 -0.397067 -0.783714 8.000000
5.713056 -3.038965 -0.755592 8.000000
5.943811 -7.596793 -0.684646 255.000000
12.777234 12.394981 -1.968449 5.000000
5.679192 -0.375220 -0.781673 8.000000
5.801806 -3.061534 -0.769465 3.000000
5.970286 -7.581433 -0.695106 85.000000
12.856241 12.559029 -1.968313 1.000000
5.665623 -0.352480 -0.780623 8.000000
6.047170 -7.621429 -0.711043 67.000000
12.970530 12.763916 -1.980104 4.000000
5.641766 -0.332218 -0.779190 8.000000
6.073191 -7.599590 -0.722928 21.000000
13.016918 12.903817 -1.974974 4.000000
5.618136 -0.309185 -0.776757 8.000000
6.428847 -7.984452 -0.772570 35.000000
13.063251 13.035919 -1.972261 1.000000
5.569767 -0.286051 -0.769919 9.000000
6.236354 -7.690271 -0.756636 72.000000
13.091926 13.165250 -1.961268 1.000000
12.668091 4.903457 -1.817316 188.000000
5.546178 -0.261551 -0.766501 31.000000
6.169371 -7.550933 -0.755418 26.000000
13.166814 13.337976 -1.966568 3.000000
12.557165 4.916044 -1.801702 231.000000
5.551645 -0.241419 -0.770094 36.000000
6.179349 -7.509492 -0.763671 255.000000
13.223698 13.494170 -1.962437 1.000000
12.526114 4.956910 -1.792662 39.000000
5.537647 -0.220479 -0.768035 33.000000
6.262945 -7.549114 -0.782310 22.000000
13.355922 13.729401 -1.969241 6.000000
12.522536 5.008657 -1.787579 1.000000
5.533433 -0.200968 -0.767349 30.000000
13.391013 13.857116 -1.964187 6.000000
12.772100 5.162857 -1.813661 1.000000
5.519416 -0.180205 -0.764326 27.000000
13.438976 14.014034 -1.958559 6.000000
12.615389 5.155951 -1.786947 1.000000
5.510166 -0.158725 -0.762955 26.000000
6.099131 -2.934003 -0.839418 1.000000
13.591559 14.277533 -1.964084 6.000000
5.505807 -0.136482 -0.762269 30.000000
13.633966 14.417514 -1.963120 6.000000
5.506250 -0.117262 -0.762269 31.000000
6.517634 -7.582801 -0.850178 10.000000
13.755280 14.647884 -1.966691 6.000000
5.496738 -0.096906 -0.760898 34.000000
6.642725 -7.671277 -0.871742 33.000000
13.831614 14.837782 -1.967498 6.000000
5.492105 -0.076689 -0.760213 28.000000
6.503193 -7.454750 -0.860277 31.000000
13.899931 15.015817 -1.955825 6.000000
5.472549 -0.055400 -0.757471 28.000000
6.591036 -7.502419 -0.878965 9.000000
13.896241 15.122640 -1.948624 10.000000
9.615999 4.177165 -1.344903 1.000000
5.472451 -0.035340 -0.759381 29.000000
13.922832 15.263489 -1.934719 10.000000
9.410933 4.129152 -1.309215 1.000000
5.477631 -0.014340 -0.759112 34.000000
6.494555 -2.922857 -0.911081 1.000000
6.842115 -7.676724 -0.926808 52.000000
13.850541 15.291101 -1.913918 10.000000
9.340806 4.141226 -1.299849 1.000000
5.467611 0.003817 -0.758694 28.000000
6.480838 -2.890878 -0.914102 1.000000
7.056317 -7.864394 -0.965300 26.000000
13.815711 15.365461 -1.895052 6.000000
5.467825 0.023858 -0.756785 27.000000
14.125131 15.825871 -1.926772 6.000000
5.467693 0.044853 -0.756785 32.000000
6.511201 -2.844674 -0.921580 6.000000
14.185719 15.994619 -1.919310 6.000000
5.467227 0.064889 -0.758694 36.000000
6.529600 -2.825610 -0.927834 8.000000
6.782421 -7.396528 -0.946860 19.000000
14.207304 16.137720 -1.907526 6.000000
5.466938 0.085882 -0.758694 34.000000
6.589593 -2.822942 -0.938700 9.000000
6.778412 -7.337982 -0.953095 29.000000
14.359134 16.431215 -1.912955 6.000000
5.466586 0.105918 -0.758694 32.000000
6.635954 -2.814062 -0.947667 9.000000
6.860928 -7.375489 -0.971717 49.000000
14.342174 16.527891 -1.895280 6.000000
5.466161 0.125954 -0.758694 35.000000
6.673188 -2.801039 -0.955368 9.000000
6.873720 -7.335146 -0.978570 30.000000
14.562394 16.906456 -1.909017 6.000000
5.460951 0.146815 -0.756100 37.000000
6.724631 -2.792311 -0.965069 16.000000
7.029650 -7.446653 -1.007703 8.000000
14.633902 17.109896 -1.906419 6.000000
5.440442 0.166221 -0.754308 54.000000
6.775611 -2.784408 -0.974818 14.000000
14.769083 17.396631 -1.908257 6.000000
5.454613 0.187620 -0.756367 61.000000
6.840387 -2.781766 -0.986599 23.000000
7.064077 -7.376654 -1.026648 22.000000
14.802619 17.566227 -1.900711 7.000000
5.463787 0.207988 -0.757740 39.000000
6.881915 -2.769303 -0.997708 17.000000
7.050925 -7.311656 -1.033558 255.000000
14.803240 17.691923 -1.884388 10.000000
5.458132 0.228764 -0.756100 33.000000
6.942173 -2.764030 -1.008952 24.000000
14.752285 17.762905 -1.861838 10.000000
5.457079 0.246850 -0.758007 33.000000
6.993734 -2.753495 -1.018909 15.000000
6.640303 -6.785590 -0.984469 242.000000
14.688661 17.812435 -1.829202 16.000000
5.461349 0.267105 -0.756785 35.000000
7.040547 -2.742164 -1.025601 30.000000
6.584346 -6.679261 -0.979156 30.000000
14.577122 17.809761 -1.799178 10.000000
5.460314 0.289986 -0.755831 32.000000
7.114600 -2.741017 -1.040339 9.000000
6.519197 -6.567162 -0.977483 12.000000
14.500325 17.842646 -1.773154 9.000000
5.459322 0.308091 -0.755831 34.000000
7.175828 -2.733010 -1.049115 9.000000
6.497035 -6.497035 -0.977069 9.000000
14.385717 17.834784 -1.747007 10.000000
5.458231 0.329059 -0.754877 37.000000
7.240563 -2.727319 -1.063990 9.000000
6.527009 -6.479338 -0.989364 11.000000
14.299576 17.855173 -1.720012 8.000000
5.466609 0.349678 -0.758156 37.000000
7.293727 -2.725562 -1.073520 9.000000
6.560592 -6.465107 -1.000614 9.000000
14.328233 18.025969 -1.707146 8.000000
5.460417 0.370339 -0.756516 36.000000
7.342757 -2.720540 -1.082399 9.000000
6.593151 -6.451983 -1.010285 11.000000
14.402432 18.249737 -1.695010 8.000000
5.469030 0.392984 -0.755971 36.000000
7.395986 -2.718262 -1.091996 9.000000
6.626686 -6.437423 -1.021593 14.000000
14.656733 18.699144 -1.707216 7.000000
5.477707 0.411871 -0.756378 28.000000
7.449721 -2.714422 -1.101627 16.000000
6.674630 -6.436616 -1.033532 11.000000
14.635081 18.819912 -1.683824 8.000000
5.476086 0.432901 -0.756378 32.000000
7.491690 -2.698651 -1.110614 17.000000
6.711747 -6.425100 -1.045478 10.000000
14.549208 18.844860 -1.652273 7.000000
5.464983 0.452184 -0.752143 39.000000
7.576643 -2.696431 -1.121664 10.000000
6.767134 -6.430755 -1.057027 10.000000
14.454120 18.850597 -1.627736 7.000000
5.463075 0.473154 -0.753100 39.000000
7.664388 -2.699057 -1.137661 14.000000
6.803048 -6.419841 -1.070706 14.000000
14.358493 18.875538 -1.600167 7.000000
5.466238 0.493619 -0.753780 39.000000
7.730908 -2.687649 -1.148837 15.000000
6.851360 -6.418121 -1.081241 15.000000
14.239447 18.862112 -1.561448 7.000000
5.474648 0.514615 -0.752262 44.000000
7.810843 -2.681867 -1.163586 9.000000
6.906878 -6.422761 -1.094621 10.000000
14.171499 18.909010 -1.536374 7.000000
5.487554 0.537092 -0.753333 40.000000
7.899937 -2.680130 -1.178358 10.000000
6.940616 -6.406859 -1.104593 10.000000
13.963546 18.767691 -1.492224 8.000000
5.490607 0.557716 -0.753046 40.000000
7.970140 -2.671413 -1.191850 12.000000
6.991056 -6.401634 -1.118586 12.000000
13.898549 18.824005 -1.468040 10.000000
5.493352 0.579313 -0.753722 67.000000
8.045938 -2.662498 -1.203156 14.000000
7.048249 -6.411165 -1.132760 10.000000
13.795304 18.821310 -1.439534 9.000000
5.530723 0.603759 -0.758159 29.000000
8.134826 -2.658871 -1.221079 18.000000
7.096757 -6.407914 -1.145237 17.000000
13.688944 18.820484 -1.411162 9.000000
5.528604 0.624041 -0.757188 29.000000
8.205754 -2.648805 -1.230260 8.000000
7.149171 -6.407831 -1.156697 10.000000
13.574494 18.800743 -1.377687 9.000000
5.545982 0.647578 -0.758910 17.000000
8.290706 -2.641119 -1.246116 6.000000
7.207510 -6.414890 -1.174466 12.000000
13.472558 18.783617 -1.349033 9.000000
5.583055 0.672658 -0.763316 9.000000
8.380175 -2.635828 -1.261232 19.000000
7.256238 -6.410751 -1.187146 10.000000
13.378382 18.797407 -1.322251 9.000000
5.614981 0.698388 -0.767036 9.000000
8.407841 -2.610704 -1.270221 24.000000
7.301289 -6.403059 -1.199272 12.000000
13.259008 18.768013 -1.284732 9.000000
5.627512 0.718904 -0.768061 8.000000
8.487872 -2.603104 -1.280931 12.000000
7.350272 -6.398508 -1.210365 10.000000
13.194056 18.815092 -1.264678 9.000000
5.654187 0.745392 -0.771090 8.000000
8.682340 -2.624660 -1.313527 1.000000
7.398827 -6.393260 -1.226626 12.000000
13.017395 18.708666 -1.230371 9.000000
4.489967 2.773060 -0.541630 1.000000
5.656327 0.767781 -0.770764 7.000000
8.947977 -2.667508 -1.355482 1.000000
7.447751 -6.388006 -1.239546 16.000000
12.926574 18.731142 -1.196709 9.000000
4.483340 2.793892 -0.538453 1.000000
5.683321 0.792670 -0.771774 6.000000
7.519552 -6.401904 -1.254587 13.000000
12.840017 18.731327 -1.174266 9.000000
4.516340 2.835292 -0.541662 1.000000
5.665670 0.810380 -0.770774 4.000000
9.003020 -2.615619 -1.371048 4.000000
7.560898 -6.389454 -1.268105 12.000000
12.716022 18.697016 -1.137531 8.000000
4.506892 2.851341 -0.536077 1.000000
5.711823 0.838356 -0.776439 5.000000
9.060328 -2.594585 -1.379928 1.000000
7.598783 -6.373876 -1.277571 17.000000
12.630941 18.726139 -1.108680 10.000000
4.478163 2.850708 -0.530797 1.000000
5.690107 0.852423 -0.770761 3.000000
11.541302 -3.254984 -1.760062 1.000000
7.655529 -6.373821 -1.292013 10.000000
12.536552 18.712744 -1.081907 9.000000
5.687231 0.872300 -0.769757 4.000000
11.590127 -3.225121 -1.770071 1.000000
7.723829 -6.382898 -1.308475 12.000000
12.449150 18.730385 -1.056677 9.000000
5.698815 0.895468 -0.770739 6.000000
11.588071 -3.174485 -1.772081 1.000000
12.348641 18.720587 -1.026227 9.000000
5.725120 0.921116 -0.772688 5.000000
11.594254 -3.130541 -1.775544 1.000000
12.223615 18.672525 -0.997829 8.000000
5.751016 0.947950 -0.775633 5.000000
11.604511 -3.089891 -1.779736 1.000000
12.153664 18.707853 -0.966234 10.000000
11.597685 -3.038269 -1.776804 1.000000
5.060369 -4.033858 -0.872671 15.000000
12.023404 18.656670 -0.934142 6.000000
11.640533 -3.006112 -1.790329 3.000000
5.051208 -3.996366 -0.874283 18.000000
11.934503 18.661461 -0.909053 6.000000
11.732953 -2.984150 -1.802848 1.000000
5.025117 -3.948699 -0.870904 21.000000
21.129663 33.295021 -1.570036 10.000000
11.744739 -2.934825 -1.807074 1.000000
5.024456 -3.915659 -0.875987 24.000000
21.049072 33.425362 -1.517470 10.000000
14.220018 2.571398 -1.899897 4.000000
11.826430 -2.913606 -1.818147 1.000000
5.022739 -3.884815 -0.876587 25.000000
20.930450 33.495724 -1.475917 10.000000
14.376904 2.654222 -1.916954 5.000000
11.885977 -2.875520 -1.829798 1.000000
5.016693 -3.850835 -0.878687 25.000000
20.879549 33.688393 -1.432537 10.000000
11.909566 -2.839456 -1.834154 1.000000
5.019256 -3.822264 -0.879926 24.000000
20.854345 33.911514 -1.390221 1.000000
13.783069 2.651706 -1.832901 4.000000
11.914943 -2.792431 -1.837685 1.000000
5.020766 -3.794421 -0.883347 25.000000
13.453074 2.639388 -1.782992 4.000000
11.997371 -2.765401 -1.848823 1.000000
5.014464 -3.760862 -0.883154 26.000000
13.069074 2.616203 -1.728687 1.000000
11.963871 -2.709343 -1.846423 1.000000
5.007490 -3.727033 -0.887293 28.000000
21.614880 35.987427 -1.304598 10.000000
12.675872 2.585848 -1.675623 1.000000
12.045797 -2.681520 -1.859740 1.000000
5.012780 -3.702497 -0.889149 26.000000
21.492487 36.068295 -1.253458 7.000000
12.331880 2.562789 -1.626911 1.000000
12.025931 -2.630873 -1.859566 1.000000
5.001738 -3.666084 -0.890323 29.000000
12.114614 2.563993 -1.592886 1.000000
12.040778 -2.585716 -1.860313 1.000000
5.014763 -3.647452 -0.893570 29.000000
12.017961 2.591789 -1.577111 1.000000
11.986653 -2.528169 -1.854881 1.000000
4.999251 -3.608227 -0.895035 28.000000
11.655806 2.558430 -1.522339 1.000000
12.078252 -2.499087 -1.869759 1.000000
5.000618 -3.580091 -0.896100 27.000000
11.511072 2.570920 -1.502564 1.000000
12.174534 -2.472512 -1.883248 1.000000
4.996681 -3.568046 -0.896802 29.000000
32.428581 56.669353 -1.538688 142.000000
11.255848 2.555200 -1.466310 1.000000
12.130284 -2.415065 -1.877163 1.000000
5.001885 -3.542843 -0.898566 65.000000
32.177059 56.687935 -1.467837 102.000000
11.223234 2.591088 -1.455119 1.000000
12.148759 -2.372484 -1.878664 1.000000
5.018370 -3.526969 -0.903574 28.000000
11.122640 2.610840 -1.437230 1.000000
12.157780 -2.325819 -1.878664 1.000000
5.006532 -3.491306 -0.902398 27.000000
11.012626 2.627640 -1.416221 1.000000
12.463341 -2.334702 -1.922217 1.000000
5.006574 -3.464131 -0.904454 30.000000
10.921905 2.648341 -1.397825 1.000000
12.777802 -2.345165 -1.971697 5.000000
5.011292 -3.439017 -0.906167 28.000000
10.966724 2.659209 -1.391563 4.000000
5.010995 -3.450404 -0.898411 30.000000
11.034795 2.632930 -1.394947 1.000000
12.491247 -2.339930 -1.901569 4.000000
4.999085 -3.469282 -0.892039 32.000000
11.078644 2.598472 -1.399218 1.000000
12.192029 -2.332371 -1.848509 1.000000
5.003571 -3.499635 -0.886415 28.000000
32.180996 56.671825 -1.331008 1.000000
11.170299 2.576813 -1.409592 4.000000
12.155220 -2.371543 -1.837606 1.000000
5.007394 -3.529711 -0.885012 27.000000
32.449593 56.637260 -1.424294 110.000000
11.281059 2.558853 -1.424425 1.000000
12.175444 -2.424055 -1.839842 1.000000
4.994431 -3.549358 -0.879665 53.000000
11.494239 2.560843 -1.450090 1.000000
12.031378 -2.441252 -1.815033 1.000000
5.006281 -3.585467 -0.877480 30.000000
11.653324 2.551491 -1.473198 1.000000
11.969559 -2.476598 -1.800589 1.000000
4.974002 -3.607197 -0.865714 32.000000
11.914610 2.562973 -1.507191 1.000000
11.912611 -2.510381 -1.789053 1.000000
4.974496 -3.632787 -0.863507 25.000000
12.108861 2.556152 -1.530511 1.000000
11.846057 -2.543900 -1.771871 1.000000
4.993783 -3.675012 -0.862567 23.000000
21.454424 35.990131 -1.133772 7.000000
11.865955 -2.593706 -1.774092 1.000000
4.984860 -3.696687 -0.857841 25.000000
21.612762 35.969677 -1.179474 19.000000
11.722336 -2.607367 -1.745475 1.000000
4.982480 -3.726015 -0.854466 27.000000
19.356024 31.948008 -1.089069 2.000000
13.078967 2.613436 -1.656548 3.000000
11.693232 -2.648054 -1.740506 1.000000
4.989702 -3.758645 -0.853506 28.000000
13.210806 2.584674 -1.674304 1.000000
11.688861 -2.692141 -1.737037 1.000000
4.991846 -3.790390 -0.848557 22.000000
13.614894 2.611959 -1.724293 1.000000
11.650707 -2.730503 -1.724384 1.000000
4.994247 -3.821154 -0.845752 26.000000
20.880762 33.664101 -1.286450 10.000000
11.660170 -2.777844 -1.725144 1.000000
5.008266 -3.861064 -0.844899 17.000000
20.926199 33.462921 -1.336852 10.000000
14.236741 2.625775 -1.813453 4.000000
11.634988 -2.819099 -1.723008 1.000000
5.013437 -3.895833 -0.843778 12.000000
21.018270 33.350624 -1.369730 10.000000
14.350013 2.587146 -1.823959 5.000000
11.620937 -2.860829 -1.713941 1.000000
5.012327 -3.923108 -0.837978 10.000000
21.195259 33.372627 -1.422025 10.000000
14.773915 2.610358 -1.879329 5.000000
11.616332 -2.904892 -1.706290 1.000000
5.045780 -3.977772 -0.841324 9.000000
21.327532 33.310493 -1.457261 10.000000
11.567287 -2.939866 -1.696481 1.000000
5.097036 -4.050010 -0.846679 8.000000
5.975710 0.991416 -0.760931 4.000000
11.571388 -2.986101 -1.694421 1.000000
5.137159 -4.112697 -0.847668 7.000000
19.989082 30.745232 -1.434435 9.000000
5.871439 0.952017 -0.748258 5.000000
11.565198 -3.031915 -1.690949 1.000000
20.026859 30.569302 -1.474199 9.000000
5.762225 0.911616 -0.734923 7.000000
11.564146 -3.076981 -1.688173 1.000000
7.893734 -6.376267 -1.298100 17.000000
20.214987 30.611115 -1.518257 9.000000
5.716249 0.882879 -0.730693 11.000000
11.529459 -3.113046 -1.680512 1.000000
7.848104 -6.387084 -1.285463 25.000000
12.486298 18.764954 -0.960450 6.000000
5.704606 0.859686 -0.729820 10.000000
11.599166 -3.179701 -1.688158 1.000000
7.774026 -6.369767 -1.267871 19.000000
12.565065 18.741154 -0.985144 8.000000
5.673384 0.832714 -0.726428 23.000000
11.530753 -3.206432 -1.675641 1.000000
7.722469 -6.379506 -1.254750 13.000000
12.675036 18.756187 -1.012122 9.000000
5.666451 0.810492 -0.726170 18.000000
11.562373 -3.263105 -1.673493 1.000000
7.665551 -6.379899 -1.240454 14.000000
12.773459 18.760338 -1.042531 9.000000
5.640477 0.779671 -0.724382 32.000000
7.612523 -6.383138 -1.226848 11.000000
12.874971 18.768267 -1.069348 9.000000
5.618843 0.755703 -0.720238 25.000000
8.937457 -2.593189 -1.289667 7.000000
7.574727 -6.398874 -1.215744 13.000000
12.954501 18.736610 -1.090166 9.000000
4.511413 2.753778 -0.509863 1.000000
5.601905 0.731538 -0.718703 18.000000
7.503209 -6.385731 -1.195797 19.000000
13.096121 18.800806 -1.124613 10.000000
5.579822 0.707864 -0.716530 25.000000
8.690775 -2.592484 -1.250391 19.000000
7.454162 -6.391247 -1.183012 13.000000
13.184345 18.780321 -1.150358 8.000000
4.542787 2.729582 -0.517779 1.000000
5.582375 0.686418 -0.717511 25.000000
8.625148 -2.607371 -1.235906 22.000000
7.420194 -6.409461 -1.172662 10.000000
13.280832 18.778034 -1.177198 9.000000
4.654879 2.773764 -0.535122 1.000000
5.565154 0.663604 -0.714981 25.000000
8.539497 -2.617307 -1.223476 25.000000
7.341239 -6.388393 -1.155264 10.000000
13.423684 18.840170 -1.212362 9.000000
5.557570 0.642050 -0.714692 27.000000
8.473481 -2.631086 -1.212236 22.000000
7.267366 -6.368823 -1.138579 11.000000
13.526848 18.838472 -1.239790 9.000000
5.535225 0.617941 -0.712496 26.000000
8.407872 -2.644540 -1.197961 17.000000
7.248440 -6.399359 -1.130727 16.000000
13.621014 18.830528 -1.266797 9.000000
5.537329 0.597635 -0.713468 22.000000
8.331964 -2.655865 -1.185481 19.000000
7.188705 -6.393658 -1.114845 9.000000
13.729841 18.842125 -1.299363 9.000000
5.524561 0.575781 -0.712531 25.000000
8.275610 -2.671354 -1.174211 20.000000
7.147448 -6.404036 -1.103593 15.000000
13.806859 18.802639 -1.324627 9.000000
5.497000 0.551581 -0.709678 40.000000
8.190791 -2.677163 -1.160498 17.000000
7.113718 -6.420975 -1.091845 16.000000
13.907196 18.801359 -1.352519 10.000000
5.494173 0.530964 -0.708078 71.000000
8.091453 -2.679126 -1.144843 12.000000
7.046866 -6.407660 -1.075079 10.000000
14.064648 18.869173 -1.385825 7.000000
5.485959 0.509883 -0.708729 54.000000
8.035157 -2.693205 -1.133750 13.000000
6.990910 -6.403744 -1.063414 11.000000
14.204319 18.918375 -1.422077 7.000000
5.477874 0.487924 -0.708413 58.000000
7.969286 -2.703657 -1.122857 24.000000
6.953463 -6.416471 -1.052928 12.000000
14.323552 18.939131 -1.452345 7.000000
5.479503 0.467832 -0.709373 44.000000
7.879714 -2.707051 -1.107252 11.000000
6.891912 -6.404359 -1.035351 10.000000
14.346045 18.838696 -1.473174 7.000000
5.471218 0.447893 -0.708093 47.000000
7.799877 -2.711626 -1.094490 12.000000
6.860273 -6.417484 -1.027152 13.000000
14.499362 18.889111 -1.506494 7.000000
5.482983 0.426706 -0.708413 33.000000
7.729636 -2.719002 -1.081659 19.000000
6.835236 -6.445706 -1.017314 10.000000
14.671316 18.968777 -1.542341 6.000000
5.479441 0.406231 -0.708733 33.000000
7.668124 -2.730496 -1.071620 9.000000
6.805124 -6.464597 -1.006409 12.000000
14.803729 19.002539 -1.578831 7.000000
5.480713 0.385171 -0.710651 33.000000
7.579300 -2.730210 -1.056307 17.000000
6.764056 -6.472913 -0.995574 10.000000
14.878122 18.967955 -1.601177 7.000000
5.466994 0.365993 -0.709683 32.000000
7.514645 -2.735107 -1.045715 10.000000
6.758637 -6.508527 -0.989501 36.000000
14.996027 18.967836 -1.635690 7.000000
5.468420 0.344044 -0.709683 31.000000
7.424074 -2.738885 -1.030551 9.000000
6.825969 -6.626385 -0.993173 8.000000
15.089017 18.955910 -1.660209 7.000000
5.469710 0.324961 -0.708727 27.000000
7.356029 -2.753234 -1.017319 8.000000
6.825917 -6.670443 -0.987960 30.000000
15.235119 19.002939 -1.694602 7.000000
5.465914 0.304635 -0.708085 35.000000
7.287035 -2.769541 -1.004170 7.000000
6.852970 -6.750873 -0.985610 29.000000
15.287683 18.925947 -1.722592 8.000000
5.471995 0.283902 -0.708727 32.000000
7.199706 -2.778135 -0.987216 1.000000
6.951246 -6.893254 -0.994394 144.000000
15.119607 18.584782 -1.721550 7.000000
5.467922 0.263600 -0.709041 30.000000
7.175605 -2.800538 -0.981279 1.000000
7.305516 -7.300417 -1.038149 8.000000
14.860866 18.130590 -1.709189 7.000000
5.473558 0.243767 -0.711596 34.000000
7.271379 -7.314657 -1.027649 9.000000
14.843555 17.981081 -1.724518 7.000000
5.469375 0.222541 -0.711907 28.000000
7.077189 -2.822081 -0.965219 1.000000
7.193796 -7.294949 -1.009981 255.000000
14.872988 17.870132 -1.744071 9.000000
5.475357 0.202686 -0.710639 22.000000
7.240905 -2.907890 -0.985746 1.000000
7.224610 -7.377528 -1.008818 36.000000
14.937478 17.833374 -1.769555 9.000000
5.471139 0.181496 -0.709996 14.000000
7.118466 -7.322636 -0.986942 27.000000
15.056192 17.841848 -1.800451 9.000000
5.471519 0.161435 -0.711907 10.000000
6.941949 -2.855597 -0.940286 1.000000
7.042877 -7.293112 -0.970881 24.000000
15.139834 17.808128 -1.823156 16.000000
5.472198 0.141383 -0.710952 13.000000
6.857887 -2.853259 -0.923861 1.000000
7.052121 -7.361596 -0.965448 30.000000
15.252101 17.813801 -1.862123 19.000000
5.472453 0.120365 -0.712862 23.000000
6.934441 -2.914971 -0.934273 2.000000
6.982470 -7.340007 -0.948712 30.000000
15.322948 17.764338 -1.879293 17.000000
5.478064 0.100402 -0.711596 35.000000
6.938161 -2.946504 -0.929545 1.000000
6.904812 -7.311852 -0.932943 55.000000
15.409273 17.738842 -1.915297 9.000000
5.473202 0.079292 -0.712862 30.000000
6.865010 -7.323289 -0.920584 34.000000
15.338750 17.527485 -1.914903 14.000000
5.473456 0.059231 -0.712862 32.000000
6.815362 -7.316257 -0.908206 34.000000
15.388398 17.460855 -1.942110 6.000000
5.473636 0.039169 -0.712862 29.000000
6.789852 -7.347794 -0.899928 33.000000
15.255995 17.183241 -1.937632 7.000000
5.473746 0.018152 -0.712862 35.000000
6.740047 -7.347744 -0.884611 33.000000
15.115062 16.905277 -1.940131 6.000000
5.478734 0.000000 -0.713508 33.000000
6.822310 -7.489739 -0.888142 255.000000
14.946616 16.605726 -1.931072 6.000000
5.488489 -0.020116 -0.715757 33.000000
14.932405 16.468149 -1.944880 6.000000
5.483538 -0.041154 -0.714154 31.000000
6.934628 -7.726056 -0.891856 22.000000
14.800349 16.208450 -1.943463 6.000000
5.478393 -0.061197 -0.713508 35.000000
6.904409 -7.741174 -0.878328 9.000000
14.801187 16.090532 -1.955045 6.000000
5.493032 -0.079579 -0.715445 27.000000
7.100583 -8.014468 -0.897250 11.000000
14.635274 15.793596 -1.948202 6.000000
5.487479 -0.100575 -0.716715 31.000000
6.946528 -7.898722 -0.874041 29.000000
14.410355 15.442403 -1.933376 7.000000
5.497238 -0.120910 -0.716091 31.000000
6.647452 -7.612067 -0.829093 32.000000
14.356341 15.271918 -1.940743 10.000000
5.516559 -0.142529 -0.718674 31.000000
6.545086 -7.550527 -0.807482 255.000000
14.434538 15.242766 -1.969618 9.000000
5.505780 -0.164370 -0.719305 28.000000
6.454840 -7.504444 -0.789465 152.000000
14.477728 15.192490 -1.987466 9.000000
5.510159 -0.182791 -0.719953 32.000000
6.172405 -3.002486 -0.796612 1.000000
6.511310 -7.621070 -0.790656 8.000000
14.299230 14.885075 -1.976555 6.000000
5.524334 -0.206430 -0.720930 26.000000
14.303790 14.781001 -1.991422 6.000000
12.649092 5.102862 -1.698902 1.000000
5.523620 -0.224748 -0.720930 24.000000
14.107495 14.476692 -1.974853 6.000000
12.675544 5.059594 -1.712049 1.000000
5.542528 -0.246838 -0.723516 28.000000
6.318671 -7.565092 -0.746326 24.000000
14.136789 14.410835 -1.990039 6.000000
12.672964 5.009907 -1.716695 5.000000
5.546665 -0.267396 -0.723194 28.000000
13.958656 14.115454 -1.977964 6.000000
12.590486 4.918954 -1.710024 1.000000
5.555550 -0.288237 -0.724485 33.000000
6.198803 -7.530455 -0.717972 39.000000
13.869226 13.927444 -1.982646 6.000000
12.686526 4.902956 -1.725440 1.000000
5.568892 -0.312324 -0.728369 28.000000
6.150782 -7.525501 -0.706921 58.000000
13.841200 13.797785 -1.992073 6.000000
5.567952 -0.330797 -0.727396 25.000000
6.396659 -7.879513 -0.725715 33.000000
13.784375 13.640777 -1.993787 6.000000
5.586495 -0.352451 -0.729982 24.000000
6.382394 -7.923927 -0.718619 25.000000
13.605724 13.365641 -1.981033 6.000000
5.609963 -0.375564 -0.732234 20.000000
6.023628 -7.534873 -0.671178 39.000000
13.647494 13.313383 -1.997156 4.000000
5.618440 -0.396821 -0.733525 35.000000
5.779836 -3.082257 -0.722006 1.000000
5.907788 -7.443093 -0.651163 25.000000
13.605392 13.175336 -2.003967 1.000000
5.631690 -0.421472 -0.734477 20.000000
5.703287 -3.068336 -0.709268 10.000000
5.936455 -7.535766 -0.647270 255.000000
13.491034 12.969113 -1.996624 1.000000
5.654977 -0.442077 -0.737701 21.000000
5.693406 -3.087408 -0.705877 10.000000
6.015031 -7.690585 -0.648490 27.000000
5.677898 -0.464813 -0.741919 20.000000
5.665039 -3.098948 -0.699202 32.000000
6.002151 -7.726781 -0.639570 20.000000
4.355112 4.096879 -0.654834 1.000000
5.676458 -0.486644 -0.738936 22.000000
5.645256 -3.115064 -0.694749 31.000000
6.207135 -8.048499 -0.653714 70.000000
4.327250 4.038051 -0.656567 21.000000
7.630357 2.658665 -1.063788 1.000000
5.718826 -0.511398 -0.746729 16.000000
5.629880 -3.133551 -0.689716 17.000000
6.399338 -8.360909 -0.667953 255.000000
4.312436 3.994758 -0.657287 9.000000
7.653407 2.635279 -1.071398 1.000000
5.736697 -0.535207 -0.748302 10.000000
5.627237 -3.159150 -0.688527 9.000000
4.282737 3.938178 -0.655697 27.000000
7.803431 2.654985 -1.093958 1.000000
5.764439 -0.559114 -0.751155 9.000000
6.649670 -8.818004 -0.677430 48.000000
4.298931 3.926840 -0.662355 13.000000
5.816560 -0.583646 -0.760270 8.000000
6.676171 -8.917730 -0.669636 32.000000
4.357627 3.949869 -0.675296 6.000000
10.625128 3.526273 -1.499698 1.000000
5.917757 -0.618849 -0.772774 4.000000
6.628765 -8.928894 -0.658732 45.000000
10.698446 3.507128 -1.514223 1.000000
6.033895 -0.653360 -0.787170 5.000000
6.138947 -8.329710 -0.602069 255.000000
10.683044 3.456707 -1.514144 1.000000
6.237008 -8.524913 -0.601653 226.000000
10.704326 3.420304 -1.521365 1.000000
16.704723 -1.867831 -2.183085 6.000000
6.232484 -8.584579 -0.593103 75.000000
10.686754 3.375674 -1.521252 1.000000
16.693514 -1.922648 -2.182441 6.000000
10.737041 3.344216 -1.534484 1.000000
16.518637 -1.969728 -2.157643 6.000000
7.120707 -4.238058 -0.850477 1.000000
6.006004 -8.398384 -0.557373 197.000000
10.691319 3.289079 -1.530276 1.000000
16.560499 -2.033374 -2.166986 6.000000
7.135488 -4.282350 -0.848241 1.000000
5.982815 -8.421752 -0.546825 119.000000
10.684195 3.239997 -1.537309 1.000000
16.532904 -2.097387 -2.161501 6.000000
7.069177 -4.277874 -0.836388 1.000000
5.890415 -8.359485 -0.528781 24.000000
10.690178 3.201107 -1.540523 1.000000
16.516399 -2.150969 -2.157308 6.000000
7.007233 -4.275555 -0.825119 1.000000
6.381140 -9.119986 -0.563858 29.000000
10.668589 3.152080 -1.535736 24.000000
16.641087 -2.232220 -2.171719 6.000000
6.966578 -4.285868 -0.816408 1.000000
6.338204 -9.126278 -0.551211 27.000000
10.593966 3.087860 -1.527280 89.000000
16.692116 -2.301377 -2.176474 6.000000
7.010502 -4.348390 -0.817602 1.000000
6.262584 -9.088310 -0.534011 32.000000
4.250940 3.563171 -0.693837 39.000000
10.595199 3.044129 -1.533606 39.000000
16.629524 -2.357849 -2.166497 6.000000
6.169054 -9.019803 -0.519159 31.000000
4.244344 3.531237 -0.696516 50.000000
10.634356 3.013229 -1.541598 31.000000
15.432874 -2.245911 -2.014423 1.000000
5.882557 -8.665677 -0.486599 10.000000
4.249139 3.508952 -0.700073 140.000000
10.682702 2.984674 -1.552931 56.000000
15.189466 -2.267371 -1.980998 5.000000
5.976645 -8.874097 -0.483970 52.000000
4.242318 3.477246 -0.701710 120.000000
10.697809 2.944659 -1.561371 43.000000
15.039174 -2.304003 -1.957138 5.000000
5.790461 -8.662764 -0.460406 30.000000
4.254366 3.461130 -0.708411 135.000000
10.698446 2.902694 -1.563847 27.000000
14.928082 -2.343014 -1.941104 6.000000
5.707940 -8.604166 -0.447202 19.000000
4.251303 3.432820 -0.708710 153.000000
10.766380 2.876789 -1.576119 1.000000
14.674901 -2.358420 -1.906657 5.000000
5.728884 -8.704827 -0.436763 27.000000
4.247703 3.404269 -0.712789 124.000000
10.866741 2.860974 -1.597268 8.000000
14.352234 -2.363131 -1.868480 4.000000
5.723256 -8.762732 -0.429514 20.000000
4.247927 3.378954 -0.716526 139.000000
10.895780 2.825957 -1.604012 11.000000
5.635810 -8.694989 -0.414358 35.000000
4.252010 3.356831 -0.719945 187.000000
11.011243 2.810824 -1.625480 1.000000
13.958095 -2.405964 -1.816955 5.000000
5.739240 -8.926071 -0.413235 9.000000
4.251987 3.331587 -0.723626 143.000000
11.107322 2.792027 -1.642222 1.000000
13.582566 -2.392529 -1.771648 1.000000
5.839927 -9.152741 -0.413294 2.000000
4.251934 3.306466 -0.726335 168.000000
11.226855 2.778366 -1.666619 1.000000
6.109697 -4.164629 -0.676818 1.000000
6.301930 -9.960968 -0.432213 7.000000
4.246587 3.279768 -0.729281 153.000000
11.304190 2.751485 -1.680664 1.000000
12.872491 -2.367189 -1.674333 4.000000
5.862245 -4.024491 -0.645876 1.000000
4.255075 3.259138 -0.735157 172.000000
11.245687 2.693624 -1.678729 1.000000
12.712336 -2.385939 -1.656923 1.000000
6.224379 -4.306750 -0.684844 1.000000
6.102270 -9.792273 -0.400901 14.000000
4.349180 3.305996 -0.755146 10.000000
11.221092 2.642216 -1.681750 1.000000
12.537613 -2.400750 -1.637550 2.000000
6.202264 -10.030571 -0.399464 5.000000
11.432851 2.647890 -1.714113 1.000000
12.124863 -2.370014 -1.580433 1.000000
11.426839 2.602407 -1.720127 1.000000
11.999091 -2.391122 -1.567342 1.000000
5.945954 -4.211528 -0.646447 1.000000
5.556642 -9.131887 -0.339669 1.000000
11.455471 2.562701 -1.727129 1.000000
11.999541 -2.439153 -1.568613 1.000000
5.925404 -4.232794 -0.639650 6.000000
12.240626 -20.275515 -0.723610 31.000000
11.521874 2.533248 -1.742040 1.000000
11.937696 -2.467833 -1.563752 1.000000
9.724489 -6.951787 -1.052128 32.000000
5.087379 -8.493660 -0.292116 7.000000
11.921920 2.573255 -1.809719 1.000000
11.768950 -2.477961 -1.538559 1.000000
9.703432 -6.990615 -1.046305 31.000000
5.120152 -8.619892 -0.287053 1.000000
12.051605 2.555053 -1.832366 1.000000
11.784119 -2.528447 -1.537525 1.000000
9.682363 -7.029486 -1.038388 7.000000
12.050544 -20.449600 -0.650571 29.000000
13.595167 2.827799 -2.072820 5.000000
11.745438 -2.565215 -1.535826 1.000000
9.682330 -7.081206 -1.034701 1.000000
4.865910 -8.323670 -0.255842 1.000000
13.511615 2.758794 -2.070830 5.000000
11.749500 -2.613409 -1.541929 1.000000
17.384548 -12.812312 -1.851412 7.000000
4.883107 -8.423801 -0.249865 5.000000
13.399490 2.682347 -2.061808 5.000000
11.638262 -2.633470 -1.528587 1.000000
17.353729 -12.888018 -1.849347 7.000000
13.269113 2.658656 -2.068399 5.000000
11.673340 -2.643549 -1.558741 1.000000
17.348864 -12.889101 -1.887072 7.000000
13.133018 2.681492 -2.051097 5.000000
11.658142 -2.593088 -1.563851 1.000000
17.360348 -12.803831 -1.902418 7.000000
4.910501 -8.471058 -0.264948 5.000000
13.117786 2.730892 -2.050340 5.000000
11.714928 -2.560694 -1.578714 1.000000
9.668998 -7.076637 -1.073581 9.000000
4.948431 -8.471620 -0.280900 5.000000
11.961795 2.536012 -1.871096 1.000000
11.733118 -2.519647 -1.586303 1.000000
9.613374 -6.981962 -1.077099 18.000000
12.028313 -20.420023 -0.711659 35.000000
11.898828 2.570444 -1.862777 1.000000
11.794535 -2.487648 -1.601926 1.000000
12.055625 -20.303986 -0.742079 34.000000
11.483844 2.524887 -1.799247 1.000000
11.871121 -2.456230 -1.617496 1.000000
5.930698 -4.236576 -0.678697 1.000000
5.104419 -8.528862 -0.326259 4.000000
11.532249 2.581990 -1.806261 1.000000
11.931509 -2.427493 -1.633271 1.000000
5.986021 -4.225803 -0.692637 1.000000
12.247656 -20.303171 -0.807299 67.000000
11.445601 2.606680 -1.794173 1.000000
12.023498 -2.395986 -1.646711 1.000000
5.842692 -4.091097 -0.680511 1.000000
5.602128 -9.213881 -0.380330 7.000000
11.479454 2.660795 -1.796859 1.000000
12.123621 -2.371968 -1.663670 1.000000
5.908958 -4.108363 -0.691709 1.000000
5.720164 -9.334458 -0.399521 8.000000
4.246621 3.272701 -0.760173 38.000000
11.450380 2.698316 -1.793844 1.000000
12.481741 -2.394569 -1.718373 3.000000
5.634267 -9.122657 -0.406287 9.000000
4.238926 3.291605 -0.757128 236.000000
11.421315 2.737799 -1.786730 1.000000
12.654801 -2.379714 -1.750140 5.000000
4.235152 3.313627 -0.753833 119.000000
11.617721 2.829947 -1.819065 1.000000
12.731759 -2.343607 -1.761827 2.000000
4.234954 3.338569 -0.753092 124.000000
11.688957 2.894890 -1.827646 1.000000
6.256265 -9.892609 -0.486488 17.000000
4.230958 3.360636 -0.749760 119.000000
11.606358 2.919623 -1.816392 1.000000
13.601623 -2.395885 -1.891875 4.000000
4.234591 3.388908 -0.747776 129.000000
11.509461 2.942283 -1.798741 7.000000
5.784605 -9.006989 -0.472987 10.000000
4.230360 3.411033 -0.744400 109.000000
11.207301 2.908842 -1.749038 1.000000
5.655622 -8.738915 -0.470866 22.000000
4.237458 3.442461 -0.743981 148.000000
11.004827 2.901437 -1.719165 1.000000
15.203271 -2.508707 -2.127193 6.000000
5.646313 -8.654821 -0.481905 23.000000
4.232176 3.465230 -0.742468 134.000000
11.023355 2.949575 -1.719663 1.000000
15.128566 -2.436746 -2.123593 6.000000
5.681602 -8.642836 -0.496814 19.000000
4.227591 3.487436 -0.739031 115.000000
11.046451 2.999184 -1.720883 4.000000
15.107675 -2.376606 -2.122144 6.000000
5.736266 -8.659983 -0.509851 31.000000
4.230618 3.516071 -0.735943 100.000000
11.016364 3.036481 -1.713921 1.000000
15.043297 -2.304635 -2.114492 6.000000
5.744163 -8.599996 -0.520280 33.000000
4.233198 3.544527 -0.735704 120.000000
11.028972 3.083495 -1.717629 3.000000
15.031294 -2.249124 -2.114392 6.000000
6.249394 -3.949177 -0.792654 1.000000
5.751235 -8.552291 -0.532912 53.000000
4.229063 3.566250 -0.730267 95.000000
11.379172 3.228563 -1.769865 3.000000
15.004769 -2.188959 -2.112216 6.000000
6.179348 -3.873292 -0.784539 1.000000
5.701036 -8.410907 -0.534292 8.000000
4.276166 3.634158 -0.736819 13.000000
11.486965 3.304686 -1.782104 1.000000
14.992355 -2.128389 -2.117386 6.000000
6.188580 -3.847557 -0.791635 1.000000
5.693331 -8.336731 -0.544975 215.000000
11.507422 3.358466 -1.787266 2.000000
14.930653 -2.063832 -2.112953 6.000000
6.175336 -3.810988 -0.794728 1.000000
5.801252 -8.431414 -0.565026 10.000000
11.528831 3.410618 -1.788230 3.000000
14.878865 -2.001125 -2.107244 7.000000
5.936973 -8.561301 -0.587952 249.000000
11.582569 3.474937 -1.794308 1.000000
14.841158 -1.938067 -2.108826 6.000000
5.966465 -8.540015 -0.598862 22.000000
11.585479 3.517729 -1.794396 1.000000
14.833060 -1.881742 -2.109343 6.000000
5.978577 -8.494042 -0.609831 148.000000
11.519865 3.548375 -1.782125 3.000000
14.771381 -1.816315 -2.099565 6.000000
5.892276 -8.309652 -0.610555 25.000000
11.530653 3.600231 -1.779457 9.000000
14.782492 -1.762705 -2.102861 7.000000
5.890337 -8.242723 -0.619643 21.000000
11.522690 3.644148 -1.775967 2.000000
6.032400 -8.379532 -0.642360 11.000000
11.543469 3.695094 -1.776826 1.000000
5.518849 -3.206891 -0.734015 1.000000
6.132931 -8.453660 -0.662571 150.000000
11.549557 3.743766 -1.773370 5.000000
5.491387 -3.164068 -0.733299 8.000000
6.088388 -8.330925 -0.665463 28.000000
11.515635 3.783921 -1.770479 1.000000
5.499063 -3.139154 -0.739356 9.000000
6.149411 -8.353060 -0.683486 70.000000
11.493093 3.825471 -1.758464 1.000000
5.740195 -0.552718 -0.821756 5.000000
5.504671 -3.118199 -0.743193 131.000000
6.164765 -8.309950 -0.690872 28.000000
4.373098 4.066579 -0.720539 1.000000
7.994969 2.693712 -1.224747 1.000000
5.741846 -0.530633 -0.824776 5.000000
5.511280 -3.095316 -0.747022 31.000000
6.476906 -8.667316 -0.735737 36.000000
4.331232 4.054513 -0.708499 1.000000
8.005336 2.726798 -1.223192 1.000000
5.748648 -0.512042 -0.824476 6.000000
5.535144 -3.082087 -0.753206 22.000000
6.458657 -8.580271 -0.741557 21.000000
4.304447 4.061983 -0.702589 8.000000
8.013159 2.766976 -1.221617 1.000000
5.745523 -0.487515 -0.825782 6.000000
5.559935 -3.066717 -0.760518 26.000000
6.634191 -8.746560 -0.771502 81.000000
4.298773 4.083663 -0.696524 68.000000
8.009014 2.795305 -1.219369 3.000000
5.732328 -0.465240 -0.824659 6.000000
5.587261 -3.057668 -0.765120 26.000000
6.403796 -8.381880 -0.752403 27.000000
7.989489 2.822951 -1.213509 1.000000
5.689364 -0.441768 -0.819268 5.000000
5.602086 -3.039153 -0.772391 28.000000
6.465823 -8.402107 -0.771121 146.000000
5.700963 -0.419653 -0.820689 3.000000
5.626880 -3.023432 -0.778655 25.000000
5.964413 -7.692046 -0.718203 164.000000
5.726648 -0.401451 -0.827248 4.000000
5.662549 -3.018441 -0.787885 20.000000
5.920094 -7.580102 -0.721491 28.000000
12.194623 11.833932 -1.957103 6.000000
5.683639 -0.377507 -0.820830 6.000000
5.690637 -3.006682 -0.794816 24.000000
5.925706 -7.530229 -0.730580 74.000000
12.201132 11.923227 -1.943699 4.000000
5.660146 -0.355114 -0.818254 6.000000
5.723999 -2.996252 -0.799008 18.000000
6.066129 -7.653550 -0.753167 56.000000
12.278935 12.087557 -1.947908 6.000000
5.656528 -0.333088 -0.817540 1.000000
5.769429 -2.993144 -0.810724 10.000000
6.190073 -7.751395 -0.775474 10.000000
12.358485 12.263942 -1.952936 6.000000
5.647509 -0.309813 -0.819073 5.000000
5.793358 -2.977382 -0.819402 9.000000
6.522157 -8.103235 -0.829614 10.000000
12.424421 12.411417 -1.954331 2.000000
5.648556 -0.290097 -0.819073 5.000000
5.843369 -2.977345 -0.826163 8.000000
12.471126 12.549731 -1.953271 6.000000
5.610039 -0.267507 -0.813340 9.000000
5.875736 -2.966761 -0.835033 8.000000
12.634894 12.803611 -1.963667 5.000000
12.621937 4.938860 -1.890391 7.000000
5.546617 -0.243140 -0.804994 9.000000
5.886047 -2.944944 -0.839628 6.000000
6.225280 -7.570694 -0.810997 37.000000
12.703872 12.968238 -1.965731 3.000000
12.546805 4.970165 -1.875037 9.000000
5.522750 -0.221817 -0.801406 36.000000
5.968400 -2.956250 -0.854401 6.000000
12.702502 13.062269 -1.956829 1.000000
12.521360 5.008187 -1.871307 3.000000
5.518337 -0.200419 -0.802616 29.000000
5.968866 -2.931872 -0.856611 6.000000
12.754716 13.207894 -1.955757 2.000000
12.566946 5.085032 -1.869099 1.000000
5.499393 -0.179551 -0.798779 31.000000
6.006804 -2.920635 -0.865107 7.000000
6.355038 -7.562910 -0.850357 18.000000
12.800538 13.352942 -1.950686 5.000000
5.504960 -0.159537 -0.799498 35.000000
6.038887 -2.910215 -0.871828 7.000000
6.362825 -7.516073 -0.858097 28.000000
12.855758 13.509315 -1.946890 3.000000
5.495638 -0.138150 -0.798061 28.000000
6.075946 -2.900681 -0.879223 9.000000
6.352890 -7.451437 -0.863577 32.000000
12.909214 13.660659 -1.938985 3.000000
5.486214 -0.117794 -0.796624 27.000000
6.130936 -2.899390 -0.889248 9.000000
6.444465 -7.502970 -0.882720 31.000000
13.064627 13.927021 -1.949774 6.000000
5.486626 -0.096727 -0.796624 29.000000
6.145447 -2.878738 -0.894636 9.000000
6.518875 -7.536220 -0.899823 24.000000
13.119974 14.089157 -1.945359 6.000000
5.481996 -0.076548 -0.795906 27.000000
6.192504 -2.870525 -0.903438 9.000000
6.512350 -7.467877 -0.906982 31.000000
13.166208 14.238137 -1.945896 6.000000
5.477023 -0.055445 -0.797100 32.000000
6.228292 -2.862060 -0.913357 10.000000
6.587692 -7.506536 -0.924734 21.000000
13.253254 14.438073 -1.945841 6.000000
9.798150 4.260357 -1.433183 1.000000
5.477467 -0.035372 -0.795188 26.000000
6.288567 -2.860565 -0.923033 12.000000
13.328971 14.627819 -1.943890 6.000000
9.805843 4.306506 -1.430900 1.000000
5.462580 -0.014301 -0.793986 26.000000
6.302791 -2.839200 -0.929728 18.000000
6.806884 -7.642565 -0.967433 23.000000
13.439458 14.852884 -1.946377 6.000000
9.400097 4.171439 -1.370365 1.000000
5.462459 0.003814 -0.794940 33.000000
6.352447 -2.836266 -0.939369 17.000000
6.982880 -7.790749 -1.001861 10.000000
13.519542 15.051912 -1.941003 9.000000
9.470292 4.248174 -1.373856 1.000000
5.457737 0.023814 -0.792314 33.000000
6.386294 -2.820686 -0.943933 16.000000
6.874166 -7.613131 -0.989481 27.000000
13.533416 15.168239 -1.935884 10.000000
9.440233 4.268380 -1.365807 1.000000
5.462554 0.044811 -0.793033 34.000000
6.431960 -2.814066 -0.952968 22.000000
6.988384 -7.682828 -1.012840 27.000000
13.485023 15.220621 -1.915064 15.000000
9.028325 4.122059 -1.303103 1.000000
5.457427 0.062868 -0.792314 34.000000
6.473286 -2.803924 -0.963832 11.000000
6.943740 -7.580418 -1.015208 29.000000
13.496219 15.346210 -1.903040 8.000000
5.456839 0.085723 -0.794219 30.000000
6.528582 -2.799503 -0.974320 29.000000
6.808798 -7.378624 -1.002136 24.000000
13.532866 15.502088 -1.894472 6.000000
5.456488 0.105723 -0.794219 36.000000
6.570245 -2.788903 -0.982814 19.000000
6.854113 -7.375904 -1.015661 33.000000
13.776763 15.893117 -1.914160 6.000000
5.460989 0.126788 -0.794940 32.000000
6.616477 -2.779952 -0.992028 17.000000
6.842978 -7.310007 -1.020627 26.000000
13.852889 16.099785 -1.910499 6.000000
5.455592 0.144765 -0.794219 20.000000
6.672354 -2.773335 -1.002658 26.000000
6.691546 -7.095932 -1.004476 21.000000
13.936013 16.299685 -1.910151 7.000000
5.450465 0.165575 -0.790644 23.000000
6.718627 -2.763732 -1.011960 11.000000
6.503343 -6.848305 -0.980960 27.000000
13.980596 16.473692 -1.901721 6.000000
5.459435 0.185878 -0.793986 30.000000
6.741979 -2.744490 -1.017841 19.000000
6.500186 -6.794930 -0.986675 30.000000
14.021399 16.650946 -1.889156 6.000000
5.453701 0.207604 -0.793267 28.000000
6.820390 -2.747312 -1.032077 10.000000
6.389769 -6.630681 -0.975970 15.000000
14.162121 16.931700 -1.896264 6.000000
5.452943 0.226639 -0.793267 35.000000
6.871782 -2.737393 -1.042205 14.000000
6.377538 -6.571921 -0.980290 9.000000
14.292562 17.221588 -1.895029 6.000000
5.452214 0.246630 -0.792314 29.000000
6.922713 -2.728325 -1.052380 20.000000
6.352331 -6.498121 -0.980770 10.000000
14.353894 17.412664 -1.887008 6.000000
5.451227 0.267563 -0.792314 32.000000
6.987499 -2.724312 -1.064709 22.000000
6.375381 -6.474059 -0.990286 10.000000
14.395435 17.600317 -1.877364 8.000000
5.455188 0.289713 -0.792079 36.000000
7.043399 -2.714997 -1.077007 29.000000
6.399335 -6.448668 -1.001386 9.000000
14.413638 17.742304 -1.863301 8.000000
5.459084 0.309033 -0.792797 32.000000
7.090127 -2.703203 -1.083981 9.000000
6.423701 -6.430431 -1.008279 10.000000
14.352836 17.794018 -1.839362 10.000000
5.453113 0.328750 -0.791126 32.000000
7.173552 -2.704938 -1.099309 7.000000
6.481720 -6.441122 -1.023362 10.000000
14.245106 17.793524 -1.809880 10.000000
5.456749 0.350003 -0.791842 27.000000
7.225082 -2.692727 -1.109734 8.000000
6.522332 -6.434138 -1.034140 10.000000
14.143951 17.794128 -1.776966 12.000000
5.455567 0.370010 -0.790888 31.000000
7.282434 -2.692409 -1.122989 7.000000
6.554490 -6.420872 -1.047033 10.000000
14.051992 17.812075 -1.749701 9.000000
5.459041 0.391309 -0.791604 30.000000
7.331370 -2.687254 -1.132157 9.000000
6.619923 -6.437594 -1.063506 9.000000
13.935517 17.791801 -1.719115 17.000000
5.457709 0.411325 -0.790649 29.000000
7.381170 -2.680692 -1.138614 9.000000
6.657231 -6.426568 -1.072255 12.000000
13.923378 17.924059 -1.698593 8.000000
5.480830 0.433276 -0.794223 31.000000
7.430152 -2.675020 -1.147828 13.000000
6.708611 -6.428833 -1.086590 13.000000
13.859117 17.957499 -1.669762 6.000000
5.469676 0.453534 -0.789920 23.000000
7.508515 -2.675139 -1.161398 10.000000
6.756623 -6.427503 -1.098793 10.000000
13.967108 18.235216 -1.666631 8.000000
5.453322 0.472309 -0.786827 37.000000
7.578746 -2.668898 -1.172172 12.000000
6.804706 -6.425898 -1.111057 10.000000
14.257104 18.762632 -1.685014 8.000000
5.456124 0.493666 -0.789451 38.000000
7.644037 -2.658944 -1.187897 13.000000
6.840727 -6.414889 -1.123236 10.000000
14.226365 18.844784 -1.659378 7.000000
5.464722 0.512719 -0.788004 39.000000
6.899807 -6.422926 -1.137409 11.000000
14.071502 18.782413 -1.624637 7.000000
5.467589 0.536102 -0.787755 38.000000
7.802847 -2.650229 -1.216872 18.000000
6.933360 -6.406888 -1.149092 10.000000
13.986021 18.804754 -1.597679 8.000000
5.475573 0.557154 -0.788214 47.000000
7.892689 -2.646986 -1.229289 13.000000
6.999940 -6.421010 -1.164632 17.000000
13.888205 18.823742 -1.566040 9.000000
5.483475 0.578272 -0.788669 40.000000
7.985823 -2.645698 -1.249778 15.000000
7.048204 -6.417871 -1.178874 11.000000
13.788335 18.818687 -1.537269 9.000000
5.505816 0.602012 -0.792209 37.000000
8.075416 -2.641013 -1.265234 11.000000
7.089319 -6.407939 -1.190282 9.000000
13.676543 18.803434 -1.507661 9.000000
5.557813 0.628320 -0.799021 10.000000
8.145583 -2.630952 -1.279290 20.000000
7.130445 -6.397782 -1.201733 10.000000
13.576477 18.810406 -1.475761 10.000000
5.619410 0.657146 -0.807225 7.000000
8.244685 -2.629629 -1.293332 19.000000
7.192530 -6.408310 -1.218667 10.000000
13.444780 18.765629 -1.444287 9.000000
5.607511 0.674612 -0.804827 3.000000
8.300112 -2.615422 -1.306799 19.000000
7.230032 -6.394342 -1.229600 10.000000
13.357067 18.781334 -1.413633 9.000000
5.590281 0.694325 -0.801728 2.000000
8.356417 -2.599534 -1.317279 24.000000
7.274972 -6.386722 -1.241840 12.000000
13.222940 18.737768 -1.378575 8.000000
5.528914 0.707290 -0.792301 1.000000
8.451196 -2.593470 -1.332217 4.000000
7.364971 -6.418085 -1.260112 10.000000
13.129773 18.744295 -1.347616 8.000000
5.619675 0.739844 -0.804681 1.000000
8.649464 -2.619665 -1.365176 1.000000
7.387275 -6.390036 -1.272046 12.000000
13.027885 18.737692 -1.323880 9.000000
5.700327 0.772741 -0.815624 1.000000
8.771767 -2.621647 -1.389491 1.000000
7.439891 -6.388029 -1.285770 10.000000
12.909006 18.712669 -1.290895 9.000000
5.584550 0.779888 -0.798496 1.000000
8.843616 -2.602818 -1.404072 1.000000
7.503897 -6.395356 -1.301525 9.000000
12.824745 18.730068 -1.261178 9.000000
5.670424 0.812070 -0.808116 5.000000
9.084776 -2.641091 -1.440961 1.000000
7.534160 -6.373624 -1.309723 14.000000
