VERSION .7
FIELDS x y z intensity
SIZE 4 4 4 4
TYPE F F F F
COUNT 1 1 1 1
WIDTH 1235
HEIGHT 1
VIEWPOINT 0 0 0 1 0 0 0
POINTS 1235
DATA ascii
5.853751 0.679373 -0.564321 1.000000
11.631581 -3.687521 -1.288953 1.000000
16.673697 -14.751640 -2.084835 6.000000
23.339600 32.456577 -1.354117 10.000000
5.836493 0.699059 -0.561866 8.000000
11.597136 -3.629877 -1.287943 2.000000
16.677929 -14.646764 -2.094271 7.000000
23.581186 33.035206 -1.332264 5.000000
5.838803 0.722088 -0.561314 7.000000
11.571930 -3.575472 -1.287955 1.000000
16.689123 -14.548594 -2.104562 7.000000
5.851027 0.745382 -0.561710 10.000000
11.556607 -3.522185 -1.289000 7.000000
16.755993 -14.499147 -2.125792 7.000000
24.455256 34.783405 -1.306530 10.000000
5.897706 0.773306 -0.565412 9.000000
11.578529 -3.482538 -1.294281 20.000000
7.711509 -6.625922 -0.987937 4.000000
24.351618 34.894249 -1.262892 11.000000
11.519295 -3.418732 -1.290493 4.000000
7.765372 -6.622884 -1.000713 9.000000
24.267223 35.046318 -1.205598 11.000000
11.555386 -3.383410 -1.295264 2.000000
7.777800 -6.584394 -1.004585 10.000000
24.125626 35.103001 -1.160005 11.000000
11.563079 -3.337512 -1.298930 2.000000
7.744068 -6.507263 -1.006055 10.000000
24.093750 35.320118 -1.119588 11.000000
8.452264 1.201430 -0.803999 20.000000
11.550893 -3.288179 -1.300440 6.000000
7.736625 -6.452779 -1.010888 9.000000
24.065638 35.558163 -1.079338 10.000000
8.413462 1.227391 -0.799233 31.000000
11.543286 -3.240324 -1.302472 4.000000
7.786502 -6.446135 -1.021439 17.000000
23.827709 35.472744 -1.029437 1.000000
8.399198 1.256767 -0.796815 8.000000
11.564228 -3.200525 -1.307741 2.000000
7.801698 -6.410667 -1.029246 9.000000
29.885420 44.845203 -1.232366 9.000000
8.379910 1.285300 -0.793934 1.000000
11.552012 -3.149440 -1.309212 4.000000
7.843715 -6.397178 -1.040615 10.000000
19.863081 3.124684 -1.879462 7.000000
11.553437 -3.104381 -1.312301 1.000000
7.912786 -6.405362 -1.055635 15.000000
19.852465 3.197621 -1.868934 8.000000
11.583956 -3.067103 -1.314482 1.000000
7.962915 -6.397773 -1.064594 15.000000
19.875641 3.276136 -1.865141 8.000000
11.556506 -3.012398 -1.316373 7.000000
7.997245 -6.377264 -1.075075 17.000000
19.917822 3.358121 -1.866687 7.000000
11.557843 -2.967550 -1.315278 1.000000
8.055065 -6.375215 -1.086951 18.000000
11.573012 -2.926273 -1.319993 7.000000
8.101087 -6.363487 -1.099098 17.000000
21.323931 33.510571 -0.637838 8.000000
11.573568 -2.881324 -1.323057 7.000000
8.163109 -6.363964 -1.109822 14.000000
21.107967 33.441170 -0.586715 9.000000
14.200950 2.557713 -1.323340 5.000000
11.593750 -2.839117 -1.328326 7.000000
8.236566 -6.372833 -1.127658 16.000000
21.023268 33.565994 -0.546129 9.000000
14.118701 2.596361 -1.308974 1.000000
11.580148 -2.790838 -1.323482 4.000000
8.294880 -6.369487 -1.137978 9.000000
21.015749 33.789497 -0.500066 10.000000
11.613063 -2.758055 -1.330409 1.000000
13.235603 2.529615 -1.216852 1.000000
11.647763 -2.719093 -1.333179 1.000000
13.040715 2.541945 -1.197445 1.000000
11.662518 -2.673216 -1.342086 1.000000
12.797065 2.543173 -1.173624 1.000000
11.686087 -2.637860 -1.341667 1.000000
12.578570 2.547710 -1.145403 1.000000
11.671416 -2.587491 -1.343058 1.000000
5.682595 -4.172755 -0.797025 1.000000
12.349411 2.550697 -1.123201 1.000000
11.714576 -2.552049 -1.349058 1.000000
21.853226 36.863625 -0.246826 8.000000
12.003699 2.525200 -1.092592 1.000000
11.713673 -2.506917 -1.352121 1.000000
5.401947 -3.906049 -0.765411 1.000000
11.882911 2.545306 -1.076027 1.000000
11.864456 -2.491584 -1.366269 1.000000
5.327116 -3.822284 -0.756297 1.000000
11.713280 2.553908 -1.057289 1.000000
11.858442 -2.444975 -1.368816 1.000000
5.373025 -3.825471 -0.765485 3.000000
11.558499 2.564574 -1.037912 1.000000
11.974457 -2.423175 -1.381173 1.000000
5.309512 -3.769091 -0.755686 5.000000
11.393893 2.571904 -1.019862 1.000000
12.041915 -2.388732 -1.390055 1.000000
5.290269 -3.726346 -0.756722 6.000000
4.635125 3.467516 -0.271972 1.000000
11.317110 2.598202 -1.005668 1.000000
12.187140 -2.371148 -1.405807 1.000000
5.303566 -3.706703 -0.760110 7.000000
46.732586 82.768013 0.149304 1.000000
4.526851 3.412466 -0.261393 1.000000
11.177042 2.609206 -0.988009 1.000000
12.332151 -2.352484 -1.423749 1.000000
5.346107 -3.705963 -0.766464 8.000000
46.397045 82.881813 0.265248 1.000000
4.773703 3.624751 -0.270086 1.000000
11.071128 2.627307 -0.971489 1.000000
12.522038 -2.338912 -1.442372 5.000000
5.293866 -3.641095 -0.760467 8.000000
4.629690 3.542227 -0.256554 3.000000
11.051929 2.667618 -0.962702 1.000000
12.833528 -2.348448 -1.477250 5.000000
5.282239 -3.604650 -0.760289 8.000000
23.348429 42.052418 0.235060 35.000000
4.596316 3.503990 -0.249312 7.000000
11.029149 2.660083 -0.948712 1.000000
5.297710 -3.627418 -0.756518 5.000000
4.601056 3.481014 -0.251902 5.000000
11.121564 2.639276 -0.951805 1.000000
12.569188 -2.347719 -1.418427 5.000000
5.260719 -3.630482 -0.744083 2.000000
46.661125 82.641441 0.298152 1.000000
4.593103 3.449853 -0.253819 7.000000
11.271878 2.631345 -0.963838 1.000000
12.379704 -2.361555 -1.395830 1.000000
46.793613 82.204536 0.198109 1.000000
4.589625 3.421001 -0.254935 1.000000
11.334868 2.602278 -0.968402 1.000000
12.157266 -2.365335 -1.362966 1.000000
47.181797 82.184380 0.099238 1.000000
11.563338 2.608032 -0.989141 1.000000
12.017120 -2.383813 -1.346061 1.000000
11.577346 2.566636 -0.993697 1.000000
11.945235 -2.417262 -1.332581 1.000000
11.737422 2.557026 -1.008736 1.000000
11.873465 -2.448072 -1.321284 1.000000
11.956567 2.558901 -1.022459 1.000000
11.840764 -2.486608 -1.312241 1.000000
21.900728 36.929062 -0.127391 8.000000
12.038654 2.530360 -1.033003 1.000000
11.807271 -2.526949 -1.305330 1.000000
12.452676 2.569760 -1.069948 1.000000
11.725736 -2.554480 -1.290986 1.000000
12.559935 2.541653 -1.080570 1.000000
11.707026 -2.595385 -1.285730 3.000000
12.823287 2.546057 -1.102417 1.000000
11.698091 -2.638424 -1.279452 7.000000
13.106204 2.552336 -1.128275 1.000000
11.654387 -2.675634 -1.271565 6.000000
5.538948 -4.182998 -0.736878 8.000000
20.999115 34.013741 -0.320936 5.000000
13.423781 2.563152 -1.154797 1.000000
11.654832 -2.720743 -1.266356 10.000000
8.431252 -6.376505 -1.118518 12.000000
20.959049 33.685226 -0.360074 9.000000
13.746305 2.572551 -1.184182 1.000000
11.601668 -2.753211 -1.257459 18.000000
8.345315 -6.359728 -1.100944 23.000000
20.982265 33.487534 -0.400051 9.000000
13.951454 2.558054 -1.203532 1.000000
11.605940 -2.801341 -1.254864 12.000000
8.291002 -6.366510 -1.089472 25.000000
21.174089 33.519997 -0.435966 9.000000
14.362861 2.576523 -1.243291 1.000000
11.610295 -2.847465 -1.254346 10.000000
8.229174 -6.367114 -1.073394 15.000000
21.348009 33.509659 -0.485443 10.000000
11.585729 -2.886499 -1.248613 20.000000
8.155519 -6.358048 -1.057700 14.000000
19.713610 3.387418 -1.704272 5.000000
11.585556 -2.931596 -1.241310 11.000000
8.121006 -6.379134 -1.048964 19.000000
19.700741 3.310914 -1.709123 5.000000
11.608352 -2.984838 -1.240742 14.000000
8.074880 -6.390897 -1.036946 12.000000
19.692785 3.235406 -1.710901 6.000000
11.597542 -3.027419 -1.238650 8.000000
8.024735 -6.399186 -1.026275 10.000000
19.688910 3.164227 -1.713100 7.000000
11.586785 -3.070016 -1.234466 7.000000
8.048747 -6.466734 -1.019631 16.000000
19.636101 3.081954 -1.711006 10.000000
11.580674 -3.113866 -1.230792 9.000000
8.002336 -6.477851 -1.009495 9.000000
19.795288 3.032641 -1.720375 5.000000
11.521473 -3.145435 -1.217350 224.000000
8.034354 -6.550325 -1.007280 7.000000
23.981976 35.675495 -0.832897 1.000000
8.440148 1.258377 -0.734575 4.000000
11.524656 -3.191738 -1.214697 223.000000
8.045582 -6.608715 -1.002547 2.000000
24.055399 35.516323 -0.876074 11.000000
8.424859 1.224549 -0.734345 10.000000
11.542024 -3.242143 -1.213544 220.000000
8.033345 -6.648124 -0.996705 1.000000
24.173063 35.423103 -0.920780 11.000000
11.525686 -3.283178 -1.208857 218.000000
16.868210 -14.064040 -2.076029 7.000000
24.307838 35.341686 -0.965914 4.000000
11.542075 -3.335814 -1.207674 216.000000
16.844612 -14.149343 -2.060126 7.000000
24.313740 35.087322 -1.006002 7.000000
6.090390 0.793166 -0.534099 6.000000
11.554047 -3.385208 -1.205972 216.000000
16.839338 -14.250507 -2.050320 8.000000
27.188971 38.931019 -1.177104 4.000000
6.019220 0.761472 -0.526543 6.000000
11.547135 -3.429188 -1.198061 223.000000
16.788616 -14.313514 -2.027218 8.000000
27.197420 38.654976 -1.221148 14.000000
5.982145 0.734515 -0.526240 7.000000
11.545230 -3.470325 -1.199051 8.000000
16.778395 -14.411328 -2.020670 8.000000
5.975120 0.710375 -0.524320 9.000000
11.598635 -3.537206 -1.197513 1.000000
16.711990 -14.461070 -1.995709 7.000000
23.599028 33.011436 -1.133479 3.000000
11.613491 -3.590534 -1.200462 1.000000
16.761539 -14.611723 -1.988446 7.000000
23.316797 32.401001 -1.142919 6.000000
11.634292 -3.643736 -1.195390 2.000000
16.716654 -14.680772 -1.969923 7.000000
23.505102 32.411438 -1.188281 10.000000
11.654459 -3.697012 -1.194538 1.000000
16.674051 -14.746767 -1.951380 7.000000
23.502369 32.170784 -1.224219 10.000000
11.670961 -3.744889 -1.193177 1.000000
16.647188 -14.832104 -1.934980 7.000000
23.646017 32.119598 -1.267369 12.000000
11.690220 -3.800638 -1.190132 1.000000
9.234935 -8.288943 -1.066034 21.000000
23.801836 32.095989 -1.311596 8.000000
11.703624 -3.857012 -1.188721 1.000000
9.153579 -8.276699 -1.047120 29.000000
20.523228 27.463930 -1.167308 8.000000
11.724215 -3.906946 -1.187768 1.000000
9.094253 -8.283842 -1.035150 35.000000
20.510164 27.247578 -1.190945 9.000000
11.714925 -3.951615 -1.183931 1.000000
9.071967 -8.324585 -1.023095 25.000000
20.566853 27.115475 -1.224142 8.000000
11.889369 -4.059052 -1.196418 1.000000
9.038258 -8.354879 -1.014089 1.000000
20.636322 27.010723 -1.258301 18.000000
11.821626 -4.088984 -1.186837 1.000000
20.716217 26.910271 -1.286828 8.000000
17.572111 -6.150223 -1.756576 7.000000
20.867355 26.911730 -1.326087 8.000000
17.398794 -6.164654 -1.735103 8.000000
16.387583 -15.480720 -1.797961 7.000000
21.072496 26.971565 -1.374715 6.000000
17.205412 -6.160429 -1.711411 8.000000
7.543060 -7.178140 -0.821323 11.000000
17.003531 -6.165264 -1.684225 6.000000
7.312300 -7.009794 -0.786537 35.000000
7.331121 -7.077109 -0.785847 21.000000
15.215075 19.052774 -1.047509 4.000000
7.280797 -7.080266 -0.770749 19.000000
15.359261 19.089418 -1.078318 6.000000
7.208879 -7.061921 -0.758785 26.000000
15.475140 19.110207 -1.103735 7.000000
5.923350 0.309393 -0.529366 1.000000
7.136277 -7.037325 -0.743041 72.000000
15.604564 19.112644 -1.137692 7.000000
5.934493 0.286092 -0.530254 1.000000
7.205163 -7.160033 -0.744158 86.000000
15.778225 19.195061 -1.167436 6.000000
7.167733 -7.170236 -0.733850 147.000000
15.866954 19.152613 -1.194655 7.000000
5.931404 0.241341 -0.530846 1.000000
7.185082 -7.245530 -0.727857 12.000000
16.006474 19.191126 -1.222221 7.000000
7.281385 -7.396668 -0.731251 36.000000
16.165680 19.245035 -1.255625 7.000000
7.301293 -7.468863 -0.726704 104.000000
16.296661 19.243584 -1.290676 6.000000
7.041474 -7.256094 -0.696394 35.000000
16.388769 19.215933 -1.319168 7.000000
6.998112 -7.264497 -0.682353 26.000000
16.500786 19.204266 -1.340236 7.000000
7.077566 -2.959159 -0.664405 1.000000
6.858065 -7.171541 -0.662558 29.000000
16.632133 19.220987 -1.372140 6.000000
6.952164 -2.936709 -0.650985 1.000000
6.909047 -7.275528 -0.659380 42.000000
16.757296 19.236341 -1.399524 7.000000
6.928436 -2.955228 -0.645752 1.000000
6.943400 -7.360432 -0.657890 26.000000
16.885820 19.241035 -1.435731 7.000000
6.935962 -2.988532 -0.646142 1.000000
6.920177 -7.389890 -0.649379 38.000000
17.021465 19.259577 -1.464042 6.000000
6.994039 -7.526482 -0.650015 15.000000
17.157297 19.270466 -1.496749 6.000000
6.909924 -3.037561 -0.637812 1.000000
7.044763 -7.637010 -0.644583 17.000000
17.280256 19.265924 -1.523967 6.000000
6.812526 -3.024588 -0.625910 1.000000
17.433306 19.300592 -1.558846 6.000000
17.546671 19.283541 -1.585487 7.000000
17.767630 19.396759 -1.631890 6.000000
6.943590 -7.738758 -0.608603 90.000000
17.749863 19.242079 -1.642426 7.000000
6.761553 -7.594337 -0.584515 57.000000
17.958553 19.325705 -1.678286 7.000000
6.726747 -7.605879 -0.574794 32.000000
18.089228 19.323809 -1.716339 6.000000
6.716308 -7.655786 -0.565824 28.000000
18.268475 19.379255 -1.750258 7.000000
6.952213 -7.980711 -0.578777 11.000000
18.386204 19.361477 -1.782810 8.000000
6.324309 -3.030101 -0.559304 19.000000
6.978825 -8.070796 -0.572246 8.000000
18.507687 19.346897 -1.811172 7.000000
6.308937 -3.051218 -0.555237 16.000000
6.919813 -8.056395 -0.560300 13.000000
18.196777 18.889444 -1.797278 7.000000
6.275402 -3.063430 -0.552044 14.000000
17.965832 18.513420 -1.794897 7.000000
6.237648 -3.073361 -0.544825 10.000000
6.491568 -7.668149 -0.512472 32.000000
17.750055 18.157431 -1.788947 7.000000
7.007507 2.757505 -0.666784 1.000000
6.222132 -3.094109 -0.540796 6.000000
6.465686 -7.697316 -0.500446 31.000000
17.724398 17.998737 -1.801855 8.000000
6.469198 -7.753559 -0.493871 30.000000
17.813871 17.963737 -1.831195 9.000000
7.022340 2.704064 -0.672910 1.000000
6.438293 -7.779794 -0.485059 35.000000
17.917223 17.935995 -1.857290 9.000000
6.900649 2.630962 -0.664307 1.000000
5.952097 -0.324438 -0.536194 1.000000
6.439464 -7.831168 -0.478130 38.000000
18.002672 17.889914 -1.886061 9.000000
6.000494 -0.352291 -0.539624 8.000000
6.405183 -7.853530 -0.465514 42.000000
18.170061 17.930628 -1.923911 12.000000
5.974310 -0.372731 -0.537389 9.000000
6.371697 -7.868391 -0.456220 40.000000
18.252258 17.880175 -1.948088 17.000000
6.047251 -0.399538 -0.546211 9.000000
6.318027 -7.860850 -0.445618 29.000000
18.323591 17.818916 -1.971153 10.000000
6.070828 -0.421320 -0.547393 8.000000
6.315409 -7.908345 -0.436565 35.000000
18.330151 17.695040 -1.987236 9.000000
6.351824 -8.014008 -0.430382 82.000000
18.112986 17.363661 -1.987954 7.000000
10.776869 3.886286 -1.058725 1.000000
18.038042 17.165392 -1.994677 7.000000
10.766720 3.838092 -1.066399 2.000000
8.505510 -0.651477 -0.768824 15.000000
6.390096 -8.181892 -0.418781 75.000000
17.903677 16.912916 -1.998910 7.000000
10.719324 3.776973 -1.064329 1.000000
8.488174 -0.681451 -0.767478 18.000000
6.149094 -7.933080 -0.396117 31.000000
17.648272 16.549662 -1.980612 7.000000
10.760774 3.747298 -1.073092 1.000000
8.481056 -0.712174 -0.762573 9.000000
6.121924 -7.960971 -0.384045 48.000000
17.674715 16.453125 -1.998014 7.000000
10.731719 3.693132 -1.072835 5.000000
8.463373 -0.741938 -0.762717 8.000000
6.107822 -7.997375 -0.376028 221.000000
10.702059 3.639110 -1.076492 15.000000
4.442970 4.044209 -0.515064 1.000000
10.682389 3.586721 -1.079074 8.000000
10.695463 3.547544 -1.079074 6.000000
23.302801 -2.305392 -2.093992 8.000000
10.726594 3.514282 -1.088861 4.000000
22.748529 -2.334782 -2.052987 5.000000
6.282264 -8.474515 -0.351794 38.000000
10.700978 3.462510 -1.090909 7.000000
6.279499 -8.539127 -0.342361 37.000000
10.760637 3.438297 -1.099680 6.000000
21.567795 -2.377297 -1.940349 2.000000
6.227743 -8.527854 -0.331855 67.000000
10.711696 3.377385 -1.097303 5.000000
6.165871 -8.505309 -0.319126 74.000000
10.723269 3.337873 -1.105143 4.000000
20.303074 -2.388655 -1.831692 7.000000
6.104149 -8.488568 -0.308484 31.000000
10.758842 3.305742 -1.111520 1.000000
19.865005 -2.410966 -1.782394 5.000000
18.136560 -10.820143 -1.395315 6.000000
5.983215 -8.385062 -0.291328 31.000000
10.722713 3.251677 -1.112474 3.000000
19.534088 -2.446949 -1.756996 5.000000
18.135675 -10.909941 -1.390894 8.000000
5.939674 -8.379597 -0.279724 47.000000
10.771944 3.223542 -1.124276 4.000000
19.352417 -2.496269 -1.738034 104.000000
18.040485 -10.934316 -1.371577 9.000000
5.946414 -8.454617 -0.274278 37.000000
4.506348 3.821661 -0.558533 1.000000
10.764224 3.178293 -1.126204 1.000000
19.294065 -2.560670 -1.730201 225.000000
18.064964 -11.039889 -1.361663 10.000000
5.899858 -8.450961 -0.262689 52.000000
10.756864 3.131266 -1.128117 1.000000
19.240753 -2.618552 -1.729605 217.000000
18.037729 -11.114251 -1.351532 10.000000
4.416227 3.687304 -0.555997 1.000000
10.758327 3.088965 -1.131023 4.000000
19.200794 -2.691661 -1.723560 207.000000
17.993567 -11.186941 -1.340439 10.000000
5.867704 -8.540756 -0.242388 30.000000
4.585183 3.802639 -0.579875 1.000000
10.773600 3.050652 -1.139343 1.000000
17.944777 -11.248010 -1.325022 10.000000
6.136514 -8.999166 -0.243376 17.000000
4.210670 3.466074 -0.535706 1.000000
10.793906 3.013713 -1.144267 2.000000
15.417246 -2.273871 -1.379872 1.000000
17.916401 -11.313152 -1.314552 10.000000
6.101150 -9.011360 -0.233656 28.000000
4.314766 3.526567 -0.553273 1.000000
10.781034 2.965543 -1.145631 23.000000
15.049086 -2.275960 -1.350336 1.000000
17.913090 -11.403109 -1.309926 10.000000
5.818857 -8.659372 -0.213072 50.000000
4.215240 3.419529 -0.543684 1.000000
10.815057 2.932306 -1.156002 8.000000
14.769380 -2.294340 -1.323425 1.000000
17.853331 -11.461635 -1.290181 9.000000
5.651305 -8.476979 -0.199178 38.000000
4.448157 3.581526 -0.578070 1.000000
10.815732 2.889975 -1.158884 6.000000
14.411823 -2.290344 -1.294661 1.000000
17.832176 -11.531737 -1.287689 10.000000
5.770769 -8.721989 -0.191679 32.000000
10.821247 2.848996 -1.160322 1.000000
14.211837 -2.311998 -1.274915 1.000000
17.820177 -11.616828 -1.267532 10.000000
5.691004 -8.667022 -0.179172 31.000000
10.845760 2.810964 -1.169691 3.000000
14.006967 -2.331398 -1.254797 1.000000
17.807318 -11.710573 -1.258752 9.000000
5.672926 -8.708895 -0.170534 24.000000
10.860015 2.772221 -1.178036 5.000000
20.278177 -3.451644 -1.817717 9.000000
17.760481 -11.773245 -1.251019 10.000000
5.770132 -8.926097 -0.165114 27.000000
10.884171 2.735934 -1.183521 1.000000
20.197006 -3.514046 -1.807978 77.000000
9.960890 -6.655654 -0.694950 9.000000
5.583655 -8.707461 -0.148049 21.000000
10.932336 2.705480 -1.191648 1.000000
20.168343 -3.588897 -1.810235 67.000000
9.882345 -6.648174 -0.682581 14.000000
5.735809 -9.013827 -0.143592 23.000000
10.985515 2.673918 -1.202303 1.000000
20.189669 -3.669085 -1.809735 37.000000
9.833319 -6.667674 -0.676718 11.000000
5.675024 -8.987415 -0.131722 30.000000
10.999667 2.634696 -1.206780 1.000000
12.805937 -2.375752 -1.148654 2.000000
9.821568 -6.712385 -0.669266 7.000000
5.647412 -9.016724 -0.122561 20.000000
11.144332 2.626195 -1.225629 1.000000
12.582012 -2.381945 -1.127092 3.000000
9.879412 -6.805176 -0.668602 3.000000
5.645009 -9.083214 -0.110129 14.000000
11.148414 2.584064 -1.231089 1.000000
12.367990 -2.388416 -1.106481 1.000000
17.638546 -12.245418 -1.181704 7.000000
5.773397 -9.362539 -0.103671 18.000000
11.259196 2.564227 -1.250382 1.000000
12.270765 -2.418551 -1.098606 1.000000
17.585701 -12.304495 -1.173662 7.000000
5.538219 -9.055281 -0.090780 5.000000
11.336001 2.538052 -1.261972 1.000000
12.163967 -2.443850 -1.092021 1.000000
17.572039 -12.386526 -1.156812 7.000000
12.374988 -20.393349 -0.179028 9.000000
11.456231 2.520912 -1.280535 1.000000
12.091496 -2.475430 -1.086322 1.000000
17.534992 -12.456864 -1.149842 6.000000
12.067346 2.606848 -1.356436 1.000000
11.970012 -2.496305 -1.078373 1.000000
17.510004 -12.535932 -1.139901 7.000000
12.223755 -20.473030 -0.137337 29.000000
12.183077 2.585148 -1.374971 1.000000
11.956278 -2.539204 -1.073668 1.000000
17.472361 -12.606100 -1.132909 7.000000
12.210900 -20.614645 -0.108727 39.000000
12.172303 2.536276 -1.379287 1.000000
11.824554 -2.558719 -1.064841 8.000000
17.438633 -12.679211 -1.122407 7.000000
12.127707 -20.646402 -0.087763 31.000000
12.273069 2.510371 -1.398507 1.000000
11.800141 -2.598748 -1.067744 1.000000
17.396385 -12.746222 -1.115139 8.000000
12.534742 2.513790 -1.438510 1.000000
11.770914 -2.637583 -1.068089 1.000000
17.393896 -12.842640 -1.114206 7.000000
12.643783 2.535658 -1.478381 1.000000
11.758714 -2.637005 -1.090345 1.000000
17.376238 -12.829602 -1.150876 7.000000
11.784554 -20.395004 -0.078111 33.000000
12.098616 2.474688 -1.415738 1.000000
11.762691 -2.592653 -1.098303 1.000000
17.379667 -12.738636 -1.170782 7.000000
11.850585 -20.345005 -0.106843 38.000000
12.181862 2.538267 -1.426558 1.000000
11.786407 -2.550465 -1.108085 1.000000
17.433649 -12.680240 -1.186374 8.000000
11.949189 2.535519 -1.398230 1.000000
11.819455 -2.512303 -1.116699 1.000000
17.487087 -12.621367 -1.209509 8.000000
11.657754 2.520496 -1.365250 1.000000
11.915540 -2.487115 -1.133479 1.000000
17.485361 -12.527524 -1.228955 7.000000
12.168689 -20.388887 -0.203067 36.000000
11.410713 2.510896 -1.337388 1.000000
12.017046 -2.462374 -1.144429 1.000000
17.497555 -12.439462 -1.249156 7.000000
12.239670 -20.346092 -0.227932 32.000000
11.313726 2.533064 -1.331200 1.000000
12.147013 -2.442649 -1.166853 1.000000
17.546030 -12.377363 -1.271932 7.000000
12.302640 -20.290089 -0.265061 24.000000
11.206385 2.558372 -1.317786 1.000000
12.194151 -2.405661 -1.179281 1.000000
17.600294 -12.323858 -1.295320 7.000000
5.588573 -9.141195 -0.132775 7.000000
11.149893 2.584407 -1.308096 1.000000
12.354178 -2.390222 -1.196118 1.000000
9.824308 -6.825530 -0.731667 1.000000
5.638717 -9.151281 -0.146341 26.000000
11.058147 2.605885 -1.298445 1.000000
12.426018 -2.356906 -1.206684 1.000000
9.795210 -6.752217 -0.740157 6.000000
5.644168 -9.088936 -0.156865 29.000000
11.019514 2.641483 -1.291083 1.000000
12.630515 -2.345488 -1.227921 1.000000
9.785343 -6.695149 -0.745951 5.000000
5.665129 -9.052032 -0.171482 23.000000
10.903788 2.656041 -1.276672 1.000000
9.805037 -6.655993 -0.758048 6.000000
5.722178 -9.069103 -0.183434 34.000000
10.840932 2.682859 -1.270455 1.000000
9.824786 -6.616928 -0.765998 15.000000
5.807323 -9.133251 -0.198367 29.000000
4.286391 3.393699 -0.599722 1.000000
10.796826 2.715982 -1.266499 2.000000
9.852448 -6.583196 -0.778730 9.000000
5.828246 -9.095876 -0.211199 21.000000
4.278135 3.412746 -0.596447 3.000000
10.782413 2.754416 -1.262049 5.000000
9.928965 -6.584306 -0.791310 1.000000
5.596789 -8.667895 -0.214325 157.000000
4.351162 3.497174 -0.604468 3.000000
10.767861 2.792780 -1.257603 1.000000
13.979378 -2.331822 -1.384633 1.000000
17.875025 -11.759568 -1.443651 9.000000
5.516591 -8.475362 -0.220658 25.000000
4.300008 3.482078 -0.595223 4.000000
10.782001 2.838664 -1.256519 1.000000
14.272857 -2.324482 -1.415356 1.000000
6.533391 -4.236351 -0.534936 2.000000
5.556956 -8.472542 -0.233473 33.000000
4.256799 3.472998 -0.586150 4.000000
10.766222 2.878759 -1.255960 1.000000
14.511263 -2.308744 -1.448505 3.000000
6.531777 -4.201381 -0.538988 4.000000
5.608383 -8.486209 -0.246822 31.000000
4.255879 3.498308 -0.583896 1.000000
10.736418 2.912996 -1.253720 168.000000
14.760301 -2.292930 -1.475148 4.000000
6.550858 -4.179789 -0.547472 1.000000
5.617108 -8.432060 -0.258230 21.000000
4.319936 3.577574 -0.590519 1.000000
10.706927 2.947169 -1.247604 17.000000
14.974971 -2.270098 -1.498430 5.000000
6.312256 -3.996613 -0.531604 1.000000
5.704824 -8.499284 -0.273412 111.000000
10.729451 2.997735 -1.247622 7.000000
15.283180 -2.259549 -1.531154 4.000000
6.482809 -4.071390 -0.550079 1.000000
5.804292 -8.582581 -0.287599 5.000000
10.761839 3.049351 -1.248726 3.000000
5.925618 -8.693149 -0.303056 28.000000
10.741456 3.086150 -1.243716 6.000000
19.245251 -2.697894 -1.939715 95.000000
6.017990 -8.762780 -0.317356 23.000000
10.749156 3.131058 -1.245928 1.000000
19.288506 -2.631909 -1.953384 26.000000
10.780572 3.185166 -1.245019 3.000000
19.366732 -2.570314 -1.963783 10.000000
6.348473 -3.858414 -0.558591 1.000000
5.985746 -8.583558 -0.338003 208.000000
10.706936 3.206125 -1.237864 1.000000
19.854723 -2.557539 -2.015784 4.000000
6.003940 -8.545913 -0.350117 10.000000
10.781129 3.271447 -1.243838 1.000000
19.829058 -2.480384 -2.015765 5.000000
6.193822 -8.747849 -0.370556 24.000000
10.716648 3.296871 -1.233889 1.000000
20.059189 -2.434533 -2.048927 5.000000
6.226994 -8.729922 -0.381958 29.000000
10.704698 3.336192 -1.231932 3.000000
20.418745 -2.402264 -2.084740 6.000000
6.178387 -8.598136 -0.391936 60.000000
10.693215 3.375662 -1.224104 7.000000
6.107130 -8.433570 -0.392732 37.000000
10.699709 3.420887 -1.226275 1.000000
22.254181 -2.456884 -2.278180 7.000000
6.009592 -8.238187 -0.398867 8.000000
10.697369 3.463405 -1.219510 1.000000
22.456377 -2.388003 -2.301861 39.000000
5.986315 -8.143421 -0.402405 228.000000
10.712535 3.513817 -1.220777 1.000000
22.142157 -2.280358 -2.272790 122.000000
6.041121 -8.158151 -0.418370 217.000000
10.695270 3.551624 -1.216305 4.000000
6.275390 -8.412951 -0.443567 36.000000
10.711056 3.600507 -1.213608 1.000000
8.491629 -0.810172 -0.875491 1.000000
6.146827 -8.177883 -0.443091 31.000000
10.716614 3.646146 -1.215744 1.000000
8.484483 -0.778121 -0.875957 1.000000
6.153899 -8.128063 -0.454033 255.000000
10.679831 3.679446 -1.205188 1.000000
8.502143 -0.748327 -0.877491 1.000000
6.137961 -8.045568 -0.459527 32.000000
15.978312 15.004635 -1.998649 6.000000
10.689945 3.726817 -1.205865 1.000000
8.534536 -0.718165 -0.882054 1.000000
6.168705 -8.027603 -0.472123 77.000000
15.946426 15.085058 -1.978387 8.000000
6.154974 -7.949258 -0.479391 72.000000
15.996828 15.244225 -1.972120 14.000000
15.970828 15.331534 -1.956357 16.000000
6.377681 -8.116240 -0.513870 36.000000
15.908589 15.384224 -1.936165 9.000000
5.811333 -0.378858 -0.604900 9.000000
6.303313 -7.964217 -0.518076 27.000000
16.007574 15.599336 -1.935835 6.000000
5.792951 -0.354312 -0.602833 9.000000
6.302366 -7.900493 -0.526112 27.000000
16.284376 15.974702 -1.951639 6.000000
5.769269 -0.333664 -0.600251 10.000000
6.343874 -7.898653 -0.536253 29.000000
16.425131 16.231342 -1.959386 6.000000
5.770193 -0.311492 -0.603276 9.000000
6.479207 -8.006867 -0.556025 28.000000
16.419704 16.345362 -1.945510 6.000000
7.204098 2.787055 -0.792792 1.000000
5.756396 -0.289592 -0.601719 10.000000
6.029807 -3.051160 -0.606686 25.000000
6.468897 -7.937307 -0.563514 34.000000
16.529764 16.575989 -1.945165 7.000000
6.962597 2.723006 -0.763353 1.000000
5.742411 -0.267792 -0.601165 9.000000
6.053924 -3.035545 -0.612756 20.000000
6.478496 -7.889857 -0.574338 24.000000
16.782032 16.946863 -1.952463 7.000000
7.082344 2.799809 -0.774915 1.000000
5.733627 -0.246325 -0.598121 9.000000
6.108255 -3.037481 -0.620833 10.000000
6.505675 -7.866805 -0.583247 157.000000
16.895441 17.186924 -1.956036 7.000000
6.901490 2.757605 -0.752296 1.000000
5.724383 -0.223911 -0.599084 8.000000
6.111171 -3.008394 -0.623493 6.000000
6.668199 -8.003421 -0.607953 22.000000
17.003845 17.424488 -1.958859 7.000000
7.066743 2.853715 -0.770101 1.000000
5.710047 -0.202393 -0.599519 8.000000
6.727765 -8.017838 -0.621827 145.000000
17.159769 17.713694 -1.958296 7.000000
6.997725 2.852870 -0.759609 1.000000
5.700642 -0.183134 -0.599471 8.000000
17.112833 17.789080 -1.938339 8.000000
5.691418 -0.158976 -0.598425 7.000000
17.031696 17.835112 -1.910558 13.000000
5.691962 -0.138115 -0.598425 8.000000
16.929224 17.845917 -1.879779 10.000000
5.677682 -0.118930 -0.594875 8.000000
16.810431 17.857521 -1.852663 15.000000
5.667963 -0.095966 -0.595812 7.000000
7.221069 -3.394899 -0.755671 1.000000
16.684687 17.854612 -1.824559 9.000000
5.648374 -0.075913 -0.593722 7.000000
7.101374 -3.284304 -0.750616 1.000000
16.545044 17.823294 -1.794402 9.000000
5.648614 -0.055210 -0.593722 7.000000
7.062209 -3.225880 -0.747597 1.000000
6.692877 -7.580903 -0.673451 25.000000
16.498022 17.910069 -1.771111 8.000000
5.643818 -0.032506 -0.593199 8.000000
7.233994 -3.304348 -0.768584 1.000000
6.789846 -7.634159 -0.689344 23.000000
16.537838 18.085871 -1.756692 7.000000
5.628876 -0.012772 -0.592614 6.000000
7.224034 -3.264813 -0.771713 1.000000
6.893857 -7.694129 -0.707905 11.000000
16.622995 18.300491 -1.750490 7.000000
5.624018 0.005889 -0.591108 7.000000
7.129552 -3.169809 -0.766412 1.000000
17.118196 18.991676 -1.783396 7.000000
5.638877 0.026573 -0.592676 7.000000
17.185549 19.180531 -1.782784 7.000000
5.613673 0.047030 -0.592023 6.000000
6.848342 -2.979165 -0.741484 1.000000
17.119995 19.262390 -1.747839 7.000000
5.643502 0.067967 -0.593199 7.000000
6.927401 -2.983410 -0.752844 1.000000
6.910854 -7.499720 -0.738181 32.000000
16.951321 19.207214 -1.714996 7.000000
5.628284 0.089399 -0.591631 7.000000
6.960808 -2.967600 -0.759289 1.000000
6.914107 -7.448283 -0.744523 30.000000
16.799791 19.176737 -1.679949 7.000000
5.608032 0.109638 -0.589541 6.000000
6.930607 -7.411392 -0.754054 21.000000
16.687933 19.176983 -1.652834 7.000000
5.602621 0.130076 -0.589018 6.000000
7.000245 -2.923960 -0.766582 1.000000
6.901289 -7.328594 -0.756910 29.000000
16.569815 19.176008 -1.621105 7.000000
5.646817 0.152798 -0.593722 6.000000
6.923452 -2.860712 -0.763569 1.000000
6.951481 -7.327893 -0.771875 28.000000
16.383562 19.101532 -1.583263 7.000000
5.621471 0.172734 -0.590127 6.000000
6.938247 -2.837098 -0.766692 1.000000
7.064022 -7.392077 -0.788538 144.000000
16.398567 19.254629 -1.569041 7.000000
5.615830 0.193165 -0.589605 6.000000
7.104988 -2.874930 -0.788003 1.000000
7.044272 -7.320082 -0.794179 33.000000
16.100140 19.058689 -1.517200 6.000000
5.620054 0.213936 -0.590127 5.000000
7.060162 -7.282978 -0.801862 3.000000
16.085678 19.176962 -1.500213 7.000000
5.634096 0.236139 -0.591692 6.000000
7.309178 -7.484765 -0.836210 96.000000
15.879220 19.058832 -1.460775 7.000000
5.628328 0.256565 -0.590187 5.000000
7.275238 -7.398169 -0.840304 16.000000
15.813246 19.121723 -1.439415 7.000000
5.617416 0.276703 -0.589145 6.000000
7.168311 -7.236191 -0.837411 28.000000
15.652314 19.062220 -1.404900 7.000000
5.616415 0.298276 -0.588164 6.000000
7.106375 -7.121275 -0.834193 25.000000
15.535955 19.062546 -1.374884 7.000000
5.635144 0.319987 -0.590244 7.000000
7.202559 -7.164945 -0.851322 9.000000
15.404266 19.036268 -1.343379 5.000000
5.614078 0.339438 -0.588164 6.000000
7.159650 -7.072709 -0.852172 29.000000
15.319633 19.074223 -1.316391 7.000000
5.632749 0.361292 -0.589259 7.000000
7.156322 -7.017782 -0.861044 29.000000
15.160419 19.011536 -1.282869 6.000000
5.636282 0.383255 -0.589778 6.000000
7.256409 -7.063946 -0.878868 1.000000
15.100758 19.079763 -1.258179 7.000000
5.629982 0.403562 -0.588274 6.000000
7.364190 -7.116486 -0.895961 10.000000
14.914411 18.980085 -1.227044 7.000000
5.628567 0.424202 -0.587288 7.000000
14.808672 18.988369 -1.198782 7.000000
5.646805 0.446397 -0.589358 7.000000
14.694142 18.977747 -1.169671 7.000000
5.664977 0.469728 -0.590436 7.000000
7.951189 -2.817225 -0.914902 1.000000
14.588708 18.984917 -1.141678 7.000000
5.673127 0.491346 -0.591469 6.000000
8.012764 -2.806030 -0.923796 1.000000
16.416313 -15.410554 -2.057062 6.000000
14.492890 18.997108 -1.110105 7.000000
5.701289 0.512839 -0.593569 7.000000
8.046175 -2.784665 -0.929473 1.000000
16.431564 -15.311962 -2.067739 6.000000
14.333294 18.931400 -1.082422 7.000000
5.679574 0.532878 -0.590511 8.000000
7.896443 -2.698938 -0.915394 8.000000
16.500862 -15.263926 -2.089189 7.000000
14.267797 18.982214 -1.057556 7.000000
5.682533 0.554173 -0.591026 8.000000
7.896562 -2.666696 -0.917213 6.000000
9.084734 -8.345067 -1.157390 24.000000
14.136061 18.951170 -1.028126 7.000000
5.700358 0.577011 -0.592085 8.000000
7.853969 -2.620282 -0.915532 3.000000
9.103476 -8.300968 -1.166741 24.000000
14.011205 18.921242 -0.990909 7.000000
5.718300 0.600008 -0.591130 8.000000
7.854079 -2.588367 -0.914433 7.000000
9.148640 -8.286755 -1.179870 27.000000
13.880583 18.882307 -0.961743 6.000000
5.725740 0.623026 -0.593158 9.000000
7.839724 -2.550307 -0.917441 1.000000
9.214224 -8.279069 -1.197124 1.000000
5.738349 0.645687 -0.593687 9.000000
11.557584 -3.712960 -1.357356 1.000000
16.611963 -14.816329 -2.170787 7.000000
5.740884 0.667289 -0.594199 10.000000
11.556454 -3.665923 -1.359921 1.000000
7.492237 -6.633235 -0.984689 7.000000
23.529003 32.744072 -1.527836 1.000000
5.738708 0.688363 -0.591172 10.000000
11.550845 -3.617601 -1.357692 3.000000
7.497163 -6.588737 -0.990951 9.000000
23.369055 32.762207 -1.482666 1.000000
5.760808 0.713463 -0.592703 10.000000
11.516726 -3.558415 -1.356326 5.000000
7.498113 -6.541020 -0.996671 10.000000
23.301455 32.897648 -1.450063 1.000000
4.652999 2.817956 -0.407110 1.000000
5.773059 0.736474 -0.593211 9.000000
11.528009 -3.520066 -1.360533 6.000000
7.504196 -6.502631 -1.001610 10.000000
5.795083 0.760879 -0.594726 9.000000
11.544906 -3.479017 -1.367408 15.000000
7.537495 -6.485558 -1.011793 13.000000
5.841655 0.788785 -0.598759 8.000000
11.514265 -3.423800 -1.366530 10.000000
7.549195 -6.447621 -1.018939 10.000000
24.289738 35.078835 -1.385607 11.000000
5.912594 0.821492 -0.605296 6.000000
11.503032 -3.372441 -1.367889 5.000000
7.574471 -6.416804 -1.025869 10.000000
24.085861 35.045143 -1.336371 11.000000
6.264226 0.893762 -0.640509 4.000000
11.495769 -3.324605 -1.369799 1.000000
7.606575 -6.400794 -1.034352 13.000000
23.977358 35.175861 -1.285775 11.000000
11.508561 -3.278300 -1.373976 6.000000
7.658095 -6.391815 -1.048420 10.000000
23.930208 35.384663 -1.245421 11.000000
8.437353 1.232381 -0.858612 9.000000
11.501933 -3.228716 -1.371694 8.000000
7.749826 -6.420332 -1.064854 21.000000
8.423086 1.261845 -0.856123 8.000000
11.494080 -3.181110 -1.373576 9.000000
7.757224 -6.378661 -1.071514 15.000000
29.747280 44.654800 -1.433142 219.000000
8.467727 1.300282 -0.859629 1.000000
11.466864 -3.128376 -1.373149 14.000000
7.829893 -6.390457 -1.087230 16.000000
20.051592 30.340652 -0.939623 14.000000
11.496974 -3.091361 -1.379600 10.000000
7.891147 -6.392406 -1.101441 17.000000
20.047302 30.542328 -0.899250 9.000000
20.184551 3.247496 -2.033388 10.000000
11.492826 -3.047268 -1.382023 13.000000
7.945063 -6.387994 -1.111092 13.000000
20.067913 3.311427 -2.026546 10.000000
11.475665 -2.993465 -1.382700 26.000000
7.990970 -6.376824 -1.123265 10.000000
20.141275 3.392180 -2.024279 10.000000
11.504767 -2.960344 -1.385016 24.000000
8.060266 -6.383908 -1.138791 11.000000
21.371298 33.327587 -0.836230 1.000000
11.486695 -2.908714 -1.385678 26.000000
8.102517 -6.369185 -1.148738 16.000000
21.279448 33.440666 -0.795673 10.000000
11.497045 -2.866535 -1.387746 24.000000
8.152435 -6.360220 -1.161639 15.000000
21.101206 33.430458 -0.745267 9.000000
11.521471 -2.827813 -1.393632 24.000000
8.253781 -6.390760 -1.178269 8.000000
21.027243 33.572342 -0.705292 9.000000
13.978159 2.567994 -1.391003 1.000000
11.527913 -2.778249 -1.397188 9.000000
20.902447 33.633503 -0.656646 9.000000
13.705006 2.569774 -1.359836 1.000000
11.546725 -2.742301 -1.398358 15.000000
13.285601 2.541574 -1.311987 1.000000
11.575803 -2.704424 -1.402773 9.000000
5.373755 -4.043536 -0.778125 7.000000
13.061052 2.550642 -1.288426 1.000000
11.590464 -2.660958 -1.407510 1.000000
5.349484 -3.991741 -0.779368 8.000000
19.361597 31.906925 -0.482055 6.000000
12.808432 2.550079 -1.255217 1.000000
11.634042 -2.626112 -1.411624 1.000000
5.322465 -3.944170 -0.777038 8.000000
12.135586 20.157143 -0.279253 1.000000
12.589048 2.554407 -1.236889 1.000000
11.662498 -2.587649 -1.418145 1.000000
5.312445 -3.906663 -0.778147 9.000000
11.985817 20.066561 -0.252937 1.000000
12.194969 2.521018 -1.194683 1.000000
11.696360 -2.548080 -1.423181 1.000000
5.299452 -3.864427 -0.779769 8.000000
21.860132 36.904640 -0.404270 7.000000
11.942728 2.514550 -1.164419 1.000000
11.691056 -2.502077 -1.421410 1.000000
5.297160 -3.833096 -0.780831 9.000000
11.806846 2.533324 -1.147857 1.000000
11.845668 -2.489797 -1.441232 1.000000
5.293272 -3.803602 -0.783011 9.000000
11.686213 2.552280 -1.130711 1.000000
11.864372 -2.446198 -1.446643 1.000000
5.263039 -3.751318 -0.779835 9.000000
11.492506 2.554141 -1.108721 1.000000
11.873507 -2.402746 -1.444528 1.000000
5.252515 -3.731389 -0.779688 17.000000
11.386705 2.574459 -1.091195 1.000000
12.013216 -2.385218 -1.464788 1.000000
5.237424 -3.691859 -0.778839 9.000000
11.338564 2.607294 -1.085442 1.000000
12.183357 -2.370412 -1.482216 1.000000
5.230027 -3.658025 -0.781392 10.000000
46.693825 82.766830 -0.199030 1.000000
11.193925 2.617268 -1.064412 1.000000
12.328512 -2.351789 -1.498817 1.000000
5.227499 -3.626445 -0.781182 10.000000
46.451107 83.012375 -0.083012 1.000000
11.117160 2.642330 -1.049981 1.000000
12.478721 -2.330821 -1.518226 1.000000
5.219755 -3.592806 -0.783666 10.000000
46.139217 83.134666 0.066378 16.000000
11.015973 2.660974 -1.035355 1.000000
5.228677 -3.570775 -0.784157 10.000000
46.209560 83.261414 0.116339 18.000000
11.007687 2.658973 -1.018634 1.000000
5.248299 -3.596277 -0.781182 10.000000
46.304623 82.750595 0.049650 1.000000
11.085187 2.634731 -1.024905 1.000000
12.506483 -2.336006 -1.492332 8.000000
5.252313 -3.627388 -0.774708 10.000000
11.177835 2.611448 -1.030517 1.000000
12.336699 -2.353351 -1.470917 1.000000
5.276203 -3.672522 -0.774520 9.000000
11.337790 2.605032 -1.044377 1.000000
12.138869 -2.361756 -1.439601 1.000000
5.283580 -3.706478 -0.771879 9.000000
11.390621 2.573255 -1.052477 1.000000
12.043176 -2.388982 -1.422766 1.000000
5.303052 -3.749215 -0.769828 8.000000
11.550861 2.564995 -1.064325 1.000000
11.922189 -2.412598 -1.407405 1.000000
5.305996 -3.780540 -0.766497 8.000000
11.661991 2.544858 -1.077899 1.000000
11.869965 -2.447351 -1.398003 1.000000
5.319911 -3.839665 -0.762595 7.000000
11.783298 2.523969 -1.092448 1.000000
11.847045 -2.487927 -1.389946 1.000000
5.322299 -3.871136 -0.760310 5.000000
21.854292 36.880096 -0.291805 8.000000
12.026562 2.530010 -1.111971 1.000000
11.746055 -2.513848 -1.370723 1.000000
5.424905 -3.976249 -0.769908 5.000000
12.130722 20.301109 -0.181617 2.000000
12.518549 2.585632 -1.156576 1.000000
11.717579 -2.552703 -1.366363 1.000000
5.327018 -3.934597 -0.751032 1.000000
12.688793 2.572340 -1.173704 1.000000
11.684359 -2.590360 -1.359355 1.000000
19.404144 31.964462 -0.372013 6.000000
12.839362 2.553908 -1.191365 2.000000
11.641092 -2.627704 -1.349157 1.000000
12.985716 2.531224 -1.206363 1.000000
11.651213 -2.674905 -1.347231 1.000000
5.479256 -4.140923 -0.760661 3.000000
20.844692 33.789993 -0.471217 1.000000
13.630929 2.605170 -1.262965 1.000000
11.636948 -2.716568 -1.342499 4.000000
5.492141 -4.182376 -0.759695 8.000000
20.972754 33.733498 -0.519984 10.000000
13.830824 2.590867 -1.285550 1.000000
11.641163 -2.764729 -1.342086 4.000000
21.026964 33.545864 -0.552832 10.000000
14.040797 2.576969 -1.306693 6.000000
11.602876 -2.800601 -1.330409 8.000000
8.288557 -6.369232 -1.139262 24.000000
21.122255 33.437943 -0.593692 10.000000
11.549546 -2.832566 -1.321273 8.000000
8.253993 -6.390924 -1.130349 21.000000
21.345886 33.532154 -0.638320 9.000000
14.976068 2.632600 -1.399884 6.000000
11.563420 -2.880941 -1.321954 2.000000
8.160887 -6.366813 -1.109822 12.000000
14.995671 2.579422 -1.398145 2.000000
11.596526 -2.936526 -1.318565 1.000000
8.106984 -6.372697 -1.096559 18.000000
19.860718 3.341364 -1.854135 7.000000
11.552436 -2.970460 -1.310566 4.000000
8.053136 -6.378261 -1.083365 13.000000
19.852539 3.265211 -1.859325 7.000000
11.565959 -3.019174 -1.309124 5.000000
8.006972 -6.389595 -1.073067 10.000000
19.996731 30.442116 -0.743862 6.000000
19.873884 3.193954 -1.863758 7.000000
11.573940 -3.068774 -1.307122 5.000000
7.937716 -6.382088 -1.057929 20.000000
20.074917 30.329891 -0.774581 9.000000
19.743042 3.095208 -1.853878 5.000000
11.538836 -3.104776 -1.302323 5.000000
7.920113 -6.413580 -1.047773 15.000000
20.182711 30.251259 -0.812558 1.000000
8.390747 1.283965 -0.788941 10.000000
11.556587 -3.155022 -1.301392 5.000000
7.839445 -6.395974 -1.031274 12.000000
23.820864 35.435825 -1.006238 1.000000
8.405380 1.254693 -0.788383 19.000000
11.574126 -3.205439 -1.300440 6.000000
7.820485 -6.428392 -1.022947 10.000000
24.064342 35.529526 -1.056241 12.000000
8.409787 1.223857 -0.789866 12.000000
11.562605 -3.250102 -1.292055 8.000000
7.808913 -6.466985 -1.017377 9.000000
24.111082 35.345528 -1.090503 11.000000
11.546267 -3.291219 -1.287330 8.000000
7.778196 -6.489754 -1.007539 9.000000
24.194868 35.177437 -1.140373 11.000000
6.079104 0.813286 -0.573285 1.000000
11.548885 -3.337782 -1.284733 17.000000
7.804679 -6.560518 -1.003296 7.000000
24.234262 34.972630 -1.181058 11.000000
5.983212 0.778145 -0.565031 6.000000
11.541776 -3.381613 -1.281066 24.000000
7.800234 -6.605723 -0.996824 5.000000
24.458979 35.022030 -1.223054 11.000000
5.936731 0.749984 -0.559325 7.000000
11.524368 -3.424616 -1.276340 25.000000
7.784202 -6.641291 -0.988866 1.000000
24.537191 34.874062 -1.265562 11.000000
4.664162 2.794761 -0.370683 1.000000
5.880049 0.720937 -0.554775 9.000000
11.574484 -3.485728 -1.274763 1.000000
16.766518 -14.411301 -2.117158 7.000000
5.867847 0.696582 -0.554408 9.000000
11.590593 -3.536965 -1.273679 1.000000
16.778946 -14.529254 -2.105893 6.000000
23.561562 32.983360 -1.288013 2.000000
4.818280 2.837051 -0.389033 1.000000
5.875210 0.675629 -0.555907 8.000000
11.635199 -3.597245 -1.273575 1.000000
16.711956 -14.578767 -2.084651 7.000000
23.360325 32.449539 -1.312416 10.000000
11.626471 -3.643515 -1.269842 1.000000
16.704643 -14.680553 -2.070860 7.000000
23.363949 32.216801 -1.354969 10.000000
11.636737 -3.693626 -1.272433 1.000000
16.695385 -14.776026 -2.060395 7.000000
23.487629 32.162388 -1.390745 9.000000
11.642904 -3.742611 -1.265969 1.000000
16.601570 -14.801859 -2.035925 7.000000
23.646105 32.143215 -1.442290 10.000000
11.672093 -3.799251 -1.266318 1.000000
9.239314 -8.298699 -1.125853 24.000000
11.682754 -3.850134 -1.258149 1.000000
9.165536 -8.293327 -1.105336 29.000000
20.492731 27.443096 -1.303787 10.000000
11.672603 -3.896539 -1.258658 1.000000
9.095298 -8.290605 -1.089697 30.000000
20.452421 27.190615 -1.330858 9.000000
11.771759 -3.977652 -1.266531 1.000000
9.076276 -8.334376 -1.084569 9.000000
20.496769 27.042679 -1.362876 8.000000
11.842448 -4.049959 -1.269104 1.000000
16.546238 -15.305901 -1.960097 7.000000
20.644878 27.041487 -1.396177 8.000000
11.828361 -4.093625 -1.260366 1.000000
16.443172 -15.317419 -1.930501 6.000000
20.724785 26.921400 -1.435841 7.000000
14.756552 19.044615 -1.039267 6.000000
7.632275 -7.214961 -0.885631 9.000000
14.887055 19.068277 -1.068910 6.000000
7.863090 -2.820040 -0.833789 1.000000
7.552321 -7.191978 -0.868408 1.000000
14.965175 19.031012 -1.095147 7.000000
7.843757 -2.845595 -0.828427 1.000000
7.271242 -6.975307 -0.828398 32.000000
15.108548 19.069078 -1.126047 7.000000
7.250950 -7.004607 -0.820010 17.000000
15.217889 19.069944 -1.154833 7.000000
7.207880 -7.014254 -0.809207 25.000000
15.390603 19.128372 -1.187873 7.000000
7.171947 -7.030649 -0.799240 26.000000
15.453105 19.082996 -1.209543 7.000000
7.164356 -7.074887 -0.792437 35.000000
15.629468 19.156794 -1.243798 7.000000
7.179083 -7.139100 -0.786150 62.000000
15.736618 19.151257 -1.273022 6.000000
7.181528 -7.194073 -0.780376 255.000000
15.828280 19.119511 -1.296478 7.000000
7.359131 -7.426226 -0.793451 42.000000
15.890976 19.052649 -1.321938 5.000000
7.202973 -7.322126 -0.770488 52.000000
16.039976 19.095387 -1.354971 7.000000
7.191868 -7.362065 -0.761207 100.000000
16.231482 19.180187 -1.391592 7.000000
6.984774 -7.202695 -0.733274 32.000000
16.320208 19.149076 -1.415485 7.000000
5.836051 0.150784 -0.562135 1.000000
7.036890 -2.914775 -0.713282 1.000000
6.993356 -7.264634 -0.728119 36.000000
16.473694 19.186277 -1.453683 7.000000
5.866221 0.130050 -0.567059 1.000000
6.865766 -2.873420 -0.693068 1.000000
6.946359 -7.268950 -0.718939 27.000000
16.575472 19.169025 -1.483378 7.000000
6.915135 -2.923912 -0.695164 1.000000
6.911157 -7.282841 -0.707356 31.000000
16.749847 19.227791 -1.510531 7.000000
6.919209 -7.345054 -0.698542 18.000000
16.874943 19.228640 -1.546814 7.000000
6.884926 -2.970817 -0.687698 1.000000
6.895980 -7.374362 -0.691839 27.000000
17.076380 19.321711 -1.586190 7.000000
6.018237 2.733794 -0.574817 1.000000
6.897144 -3.006123 -0.686042 1.000000
6.969129 -7.504928 -0.691027 9.000000
17.089928 19.194799 -1.598914 6.000000
6.872735 -3.025508 -0.680748 1.000000
6.958969 -7.549290 -0.681958 9.000000
17.245615 19.240808 -1.634666 7.000000
17.408472 19.286629 -1.671030 6.000000
17.561972 19.313894 -1.701834 6.000000
7.105904 -3.214413 -0.694681 1.000000
17.698828 19.321650 -1.735779 7.000000
7.033827 -3.217368 -0.684865 1.000000
6.886398 -7.685804 -0.649254 92.000000
17.842720 19.342743 -1.770939 6.000000
6.770411 -7.609632 -0.630111 38.000000
17.939602 19.305311 -1.796624 7.000000
6.653637 -7.533806 -0.613005 34.000000
17.804285 19.026073 -1.808396 7.000000
17.315353 18.368181 -1.769593 7.000000
7.281978 -8.365155 -0.655022 8.000000
17.182295 18.093706 -1.771089 7.000000
17.179094 17.970615 -1.786413 8.000000
17.249903 17.906527 -1.817149 10.000000
17.384447 17.926832 -1.846960 13.000000
6.184320 -3.049769 -0.582661 26.000000
17.510674 17.912556 -1.879094 20.000000
6.933383 2.731132 -0.703100 1.000000
6.146610 -3.059230 -0.576540 24.000000
6.529003 -7.778205 -0.548209 105.000000
17.593300 17.878088 -1.903601 10.000000
7.045282 2.744008 -0.720031 1.000000
6.117903 -3.072972 -0.570087 10.000000
6.596575 -7.917455 -0.549100 26.000000
17.689514 17.850794 -1.929317 10.000000
7.045768 2.714498 -0.721719 1.000000
6.102420 -3.093256 -0.566090 9.000000
6.476960 -7.829299 -0.530745 32.000000
17.801384 17.820034 -1.969081 10.000000
7.013458 2.672570 -0.721367 1.000000
5.883644 -0.323797 -0.569464 4.000000
6.432725 -7.834115 -0.518826 27.000000
17.781641 17.682606 -1.978015 7.000000
6.948339 2.618632 -0.717601 1.000000
5.872580 -0.344781 -0.567475 9.000000
6.381746 -7.824793 -0.507970 25.000000
17.596291 17.364420 -1.971675 7.000000
6.920349 2.579155 -0.716332 1.000000
5.876244 -0.366613 -0.567955 9.000000
6.408530 -7.919527 -0.501824 25.000000
17.324871 16.983547 -1.960511 7.000000
6.933836 2.555278 -0.723263 1.000000
5.914589 -0.390773 -0.571796 10.000000
6.342258 -7.896641 -0.488266 31.000000
17.332197 16.866600 -1.975575 7.000000
5.967758 -0.417306 -0.576033 9.000000
6.395931 -8.020655 -0.483783 36.000000
17.204674 16.608559 -1.978636 7.000000
6.493785 -8.204879 -0.486135 36.000000
17.064453 16.364223 -1.972878 7.000000
10.775757 3.883761 -1.131176 9.000000
6.465416 -8.227892 -0.475177 35.000000
16.903236 16.096735 -1.976449 6.000000
10.728244 3.822266 -1.132739 1.000000
16.664000 15.752852 -1.961868 6.000000
10.760766 3.789464 -1.136710 1.000000
6.107264 -7.887640 -0.432057 28.000000
10.722145 3.731748 -1.139183 1.000000
8.475171 -0.716149 -0.821971 1.000000
6.127196 -7.973586 -0.428499 17.000000
10.734085 3.696042 -1.143146 1.000000
8.517512 -0.748182 -0.824807 1.000000
6.117587 -8.013060 -0.417247 31.000000
10.729426 3.646327 -1.147076 1.000000
8.464880 -0.777813 -0.820006 1.000000
6.453499 -8.523774 -0.433142 69.000000
10.766167 3.612759 -1.157522 1.000000
8.447108 -0.805925 -0.820047 4.000000
6.366939 -8.470726 -0.418200 71.000000
10.697449 3.550275 -1.152837 1.000000
10.843390 3.550452 -1.173056 1.000000
22.803389 -2.344434 -2.211329 5.000000
6.134210 -8.283860 -0.385176 255.000000
10.756562 3.478422 -1.166264 1.000000
22.714994 -2.427533 -2.199660 4.000000
6.035990 -8.213999 -0.370208 19.000000
10.719890 3.427339 -1.168990 1.000000
6.449293 -8.834468 -0.389611 27.000000
10.732581 3.386029 -1.172919 7.000000
21.065937 -2.403885 -2.034113 2.000000
6.250009 -8.627707 -0.368310 35.000000
10.731255 3.338305 -1.177249 1.000000
20.433828 -2.407655 -1.977541 7.000000
6.284163 -8.745338 -0.359127 253.000000
10.709749 3.288611 -1.177513 1.000000
19.920918 -2.421280 -1.928748 4.000000
6.060763 -8.500013 -0.339018 52.000000
10.715443 3.251515 -1.180899 1.000000
19.403572 -2.430600 -1.876064 5.000000
6.008201 -8.482547 -0.328486 60.000000
10.751271 3.217356 -1.187439 1.000000
19.320377 -2.495564 -1.865502 34.000000
5.950037 -8.462907 -0.314268 57.000000
10.709742 3.162207 -1.189448 9.000000
19.237413 -2.556567 -1.854965 173.000000
6.497204 -4.003362 -0.530973 1.000000
5.939150 -8.513573 -0.306272 32.000000
10.759047 3.133939 -1.197596 1.000000
19.208509 -2.624408 -1.849678 192.000000
6.431878 -3.995708 -0.522844 1.000000
6.216862 -8.978289 -0.310762 16.000000
10.755724 3.090250 -1.199909 5.000000
19.183655 -2.692672 -1.851635 173.000000
6.527415 -4.088292 -0.526422 1.000000
10.752884 3.042759 -1.206111 5.000000
6.155288 -9.033471 -0.288153 7.000000
10.763033 3.005093 -1.210012 9.000000
15.297828 -2.264443 -1.478168 4.000000
6.633999 -4.210064 -0.530135 1.000000
6.103030 -9.020919 -0.277594 86.000000
4.262719 3.484028 -0.571839 1.000000
10.730434 2.953639 -1.209053 213.000000
14.974733 -2.272736 -1.445076 4.000000
