VERSION .7
FIELDS x y z intensity
SIZE 4 4 4 4
TYPE F F F F
COUNT 1 1 1 1
WIDTH 1223
HEIGHT 1
VIEWPOINT 0 0 0 1 0 0 0
POINTS 1223
DATA ascii
13.418677 -3.490302 -1.176477 21.000000
14.417425 -11.459924 -1.582146 16.000000
1.719829 2.674799 -0.006105 5.000000
81.768944 53.937160 -3.677484 21.000000
20.433508 3.434063 -1.365329 34.000000
13.425154 -3.444496 -1.178474 28.000000
14.505304 -11.451490 -1.600612 3.000000
1.639661 2.571771 -0.001597 1.000000
82.069000 54.567818 -3.596601 31.000000
20.460358 3.515733 -1.364336 32.000000
13.419550 -3.385701 -1.176779 28.000000
16.931129 -13.256624 -1.873751 9.000000
20.389065 3.580467 -1.349562 10.000000
13.410965 -3.336272 -1.179909 33.000000
16.906860 -13.147419 -1.885063 20.000000
82.490738 55.724537 -3.493713 21.000000
20.376036 3.655214 -1.345949 18.000000
13.432954 -3.287023 -1.185587 33.000000
17.048513 -13.157586 -1.910619 15.000000
82.434540 56.106621 -3.412483 21.000000
20.367870 3.730855 -1.339045 10.000000
13.426665 -3.228415 -1.183879 33.000000
17.116215 -13.100541 -1.923673 23.000000
20.383051 3.814584 -1.337362 12.000000
13.427402 -3.181528 -1.185433 34.000000
12.855160 20.838676 0.098289 90.000000
20.345112 3.884718 -1.324908 19.000000
13.453123 -3.135591 -1.191539 28.000000
16.727795 -12.619036 -1.903252 10.000000
12.807850 20.908703 0.124106 37.000000
20.350782 3.963164 -1.318948 10.000000
13.464323 -3.086215 -1.193950 21.000000
8.908592 -6.669330 -1.018646 9.000000
55.923103 39.230553 -2.146768 1.000000
20.362226 4.035522 -1.316912 9.000000
13.499963 -3.039872 -1.200933 16.000000
8.924411 -6.630269 -1.025496 10.000000
55.575233 39.320339 -2.068096 9.000000
20.351427 4.118355 -1.306357 9.000000
13.530470 -2.994678 -1.202662 10.000000
8.925323 -6.577911 -1.028546 14.000000
36.435505 60.975857 0.607492 8.000000
55.215240 39.355579 -2.000575 10.000000
20.326868 4.190996 -1.298484 8.000000
13.537308 -2.939238 -1.204647 8.000000
8.981937 -6.566565 -1.041951 18.000000
36.191895 61.026863 0.693492 9.000000
54.958092 39.476852 -1.949207 14.000000
20.331125 4.269618 -1.296107 8.000000
13.575796 -2.900487 -1.212092 5.000000
9.004212 -6.534743 -1.049719 16.000000
54.658150 39.536831 -1.884292 7.000000
20.376303 4.349705 -1.285298 8.000000
13.664540 -2.867119 -1.216614 5.000000
9.043962 -6.513118 -1.055488 11.000000
54.305321 39.600121 -1.818660 9.000000
20.363773 4.432575 -1.281968 92.000000
13.704307 -2.820569 -1.224102 5.000000
9.123715 -6.519903 -1.071874 11.000000
17.349918 29.978397 0.453424 5.000000
53.912846 39.588436 -1.763173 10.000000
20.446856 4.521728 -1.280798 9.000000
13.719224 -2.771265 -1.226981 7.000000
9.163177 -6.497500 -1.081619 10.000000
17.145271 29.864767 0.498888 19.000000
53.644276 39.694675 -1.689207 22.000000
20.513571 4.615409 -1.274978 6.000000
13.998012 -2.774220 -1.250997 5.000000
9.251589 -6.509366 -1.095210 10.000000
17.050547 29.941339 0.535260 21.000000
53.358269 39.772026 -1.626450 19.000000
20.560629 4.705236 -1.264188 4.000000
14.057195 -2.732442 -1.252864 5.000000
9.324038 -6.509378 -1.104962 10.000000
35.868008 63.499886 1.222064 9.000000
53.109337 39.890114 -1.565311 21.000000
12.833586 2.986469 -0.787444 1.000000
14.331589 -2.728712 -1.278942 5.000000
9.371741 -6.491722 -1.115822 10.000000
35.578091 63.529255 1.309096 10.000000
52.756794 39.928608 -1.489900 21.000000
12.852228 3.040507 -0.780013 1.000000
14.517763 -2.709059 -1.294662 5.000000
9.456501 -6.499273 -1.129136 15.000000
35.073612 63.144455 1.399526 7.000000
52.491093 40.016457 -1.417179 22.000000
14.763007 -2.698867 -1.313001 4.000000
9.550791 -6.510223 -1.143512 12.000000
52.524048 40.041584 -1.348875 22.000000
12.682011 3.049364 -0.749797 1.000000
14.740072 -2.694674 -1.292516 4.000000
9.547663 -6.508091 -1.130921 13.000000
35.436878 63.251202 1.392102 1.000000
52.849464 39.984238 -1.376602 21.000000
12.893184 3.047820 -0.754626 1.000000
14.633035 -2.730569 -1.273531 5.000000
9.496002 -6.523982 -1.115447 11.000000
35.862106 63.489437 1.336437 8.000000
53.067429 39.844154 -1.390053 20.000000
14.422872 -2.748701 -1.243244 5.000000
9.423719 -6.525293 -1.099663 19.000000
17.057480 29.953516 0.595656 16.000000
53.337662 39.756668 -1.439952 19.000000
14.163486 -2.753103 -1.219210 5.000000
9.347615 -6.523412 -1.081519 12.000000
17.157442 29.873892 0.565247 21.000000
53.691376 39.715027 -1.480546 21.000000
20.630611 4.637960 -1.208135 1.000000
14.007303 -2.776061 -1.199103 5.000000
9.308275 -6.546821 -1.067713 16.000000
17.294424 29.870483 0.536192 7.000000
53.920357 39.579472 -1.529570 9.000000
20.793701 4.594625 -1.216691 1.000000
13.899764 -2.807734 -1.185786 5.000000
9.244209 -6.552534 -1.055133 16.000000
54.201557 39.480999 -1.580271 6.000000
13.762691 -2.832585 -1.172501 5.000000
9.208573 -6.578116 -1.045841 13.000000
54.747704 39.587059 -1.615752 6.000000
20.450699 4.361855 -1.198379 1.000000
13.708423 -2.876326 -1.161425 5.000000
9.213573 -6.632823 -1.037174 9.000000
36.183636 60.988670 0.878807 1.000000
54.895321 39.388210 -1.674833 3.000000
20.529860 4.300131 -1.205759 2.000000
13.556866 -2.896442 -1.144604 6.000000
9.238152 -6.702061 -1.034665 7.000000
36.399250 60.866920 0.816979 1.000000
55.279076 39.357441 -1.705831 8.000000
20.334827 4.181538 -1.200667 3.000000
13.551611 -2.947297 -1.137754 8.000000
9.258472 -6.768736 -1.029623 3.000000
55.605675 39.283653 -1.759016 8.000000
20.526371 4.142571 -1.207405 4.000000
13.541105 -2.997032 -1.132913 9.000000
55.936970 39.254848 -1.789456 5.000000
20.399620 4.039234 -1.195429 5.000000
13.481987 -3.035825 -1.121606 10.000000
16.828411 -12.493324 -1.844731 7.000000
12.837838 20.965872 0.210251 6.000000
20.385164 3.955090 -1.200956 4.000000
13.480329 -3.089884 -1.117588 23.000000
16.759859 -12.537976 -1.823836 27.000000
12.865810 20.831524 0.183756 67.000000
82.657372 57.064095 -2.770506 1.000000
20.610176 3.920418 -1.217031 1.000000
13.469102 -3.139315 -1.115174 23.000000
16.722761 -12.606082 -1.810084 66.000000
82.640060 56.627209 -2.833276 21.000000
20.329777 3.789926 -1.203267 1.000000
13.428784 -3.181855 -1.107945 25.000000
16.578272 -12.592716 -1.784787 51.000000
82.603424 56.200478 -2.860518 28.000000
20.322178 3.718820 -1.209317 1.000000
13.441824 -3.237023 -1.102707 13.000000
16.402920 -12.554595 -1.749063 15.000000
82.388794 55.613800 -2.915462 27.000000
20.360029 3.648675 -1.214388 1.000000
13.430242 -3.286359 -1.097881 11.000000
82.320442 55.129543 -2.975102 21.000000
20.561132 3.599587 -1.229167 1.000000
13.417895 -3.337996 -1.093054 10.000000
82.193314 54.567760 -3.048742 33.000000
20.485844 3.509070 -1.220249 1.000000
13.425455 -3.392176 -1.087380 10.000000
81.818573 53.908440 -3.079196 22.000000
20.867350 3.495741 -1.249613 2.000000
13.422956 -3.443932 -1.083326 8.000000
14.581989 -11.503769 -1.513958 12.000000
81.679596 53.388573 -3.117725 18.000000
20.568737 3.375633 -1.227403 4.000000
13.420256 -3.495715 -1.079264 8.000000
14.435622 -11.474387 -1.483680 8.000000
81.544594 52.915218 -3.156809 8.000000
20.659613 3.312832 -1.235758 8.000000
13.417356 -3.547523 -1.075196 8.000000
20.019711 -16.033077 -2.045613 9.000000
81.577003 52.472095 -3.251568 11.000000
20.691830 3.232854 -1.247903 7.000000
13.452592 -3.609645 -1.076627 7.000000
19.744959 -15.932174 -2.001212 9.000000
1.828919 2.722745 -0.010877 1.000000
13.443804 -3.662681 -1.072148 6.000000
14.844925 -12.068445 -1.495613 2.000000
1.771146 2.616955 -0.013788 1.000000
21.741833 3.233823 -1.309763 2.000000
13.445065 -3.716014 -1.068430 5.000000
19.174971 -15.705712 -1.915887 9.000000
1.791988 2.626956 -0.016650 1.000000
72.463165 45.544224 -3.003731 1.000000
23.101198 3.353631 -1.395028 4.000000
13.499278 -3.784309 -1.063989 5.000000
18.902975 -15.599041 -1.877199 7.000000
1.798659 2.610227 -0.021024 2.000000
72.390350 45.129177 -3.053465 6.000000
23.295938 3.294765 -1.410170 5.000000
13.533632 -3.847497 -1.062861 5.000000
18.823925 -15.650135 -1.853546 8.000000
1.867154 2.690488 -0.025150 4.000000
23.451002 3.229068 -1.422977 1.000000
13.677893 -3.942749 -1.070321 5.000000
1.817262 2.597248 -0.027663 2.000000
72.101364 44.201088 -3.145439 9.000000
23.314030 3.123181 -1.418082 6.000000
13.802498 -4.033518 -1.076174 5.000000
18.608250 -15.702935 -1.800860 7.000000
1.841161 2.610979 -0.030669 4.000000
72.018593 43.787991 -3.164268 22.000000
13.878819 -4.111094 -1.078211 5.000000
17.900946 -15.213362 -1.716926 9.000000
1.803476 2.539614 -0.032620 2.000000
72.046478 43.478363 -3.203264 24.000000
13.926651 -4.178195 -1.080502 3.000000
17.709822 -15.163074 -1.683460 17.000000
1.868491 2.609880 -0.036976 1.000000
71.857323 42.971661 -3.274967 26.000000
17.477518 -15.075546 -1.650422 23.000000
1.862943 2.583034 -0.040023 5.000000
71.759804 42.557049 -3.292559 147.000000
17.280165 -15.016124 -1.616894 20.000000
1.886167 2.597039 -0.043138 4.000000
71.998077 42.376263 -3.340838 25.000000
8.901070 -2.780898 -0.678267 1.000000
17.090961 -14.962005 -1.584390 18.000000
1.907911 2.605875 -0.046789 6.000000
72.317879 42.191460 -3.406683 24.000000
8.791198 -2.781979 -0.667431 1.000000
16.870975 -14.889473 -1.549794 26.000000
1.901678 2.579373 -0.049783 5.000000
72.784424 42.140755 -3.466169 26.000000
8.748677 -2.800473 -0.664905 1.000000
16.665686 -14.806894 -1.519802 24.000000
1.922566 2.588738 -0.052907 5.000000
73.227081 42.039440 -3.524174 26.000000
8.661689 -2.811011 -0.655950 1.000000
16.415272 -14.692421 -1.482553 20.000000
1.923022 2.569621 -0.056022 6.000000
79.404388 45.199673 -3.877369 30.000000
8.509617 -2.796174 -0.638920 1.000000
16.339090 -14.727281 -1.457169 8.000000
1.956017 2.594780 -0.060123 6.000000
79.415489 44.821404 -3.917697 17.000000
8.466395 -2.816395 -0.633316 1.000000
12.913503 -11.725687 -1.140202 7.000000
1.980607 2.607463 -0.062872 5.000000
79.524513 44.499409 -3.978742 1.000000
8.394386 -2.828286 -0.624076 1.000000
16.026194 -14.659592 -1.404546 8.000000
1.980543 2.588570 -0.065997 5.000000
8.352118 -2.844919 -0.618536 1.000000
12.729429 -11.729936 -1.104208 3.000000
1.989982 2.581247 -0.068841 6.000000
8.345549 -2.880121 -0.615804 1.000000
12.570020 -11.668524 -1.079055 1.000000
2.011650 2.589668 -0.072697 6.000000
78.824371 42.994293 -4.077225 31.000000
18.741360 1.534234 -1.163283 6.000000
8.165610 -2.851559 -0.600260 1.000000
12.440372 -11.633351 -1.056657 4.000000
2.014469 2.574695 -0.075899 5.000000
78.631813 42.516064 -4.121714 28.000000
18.751829 1.465922 -1.163591 5.000000
8.113070 -2.866616 -0.592639 1.000000
12.393087 -11.670490 -1.041183 7.000000
2.033134 2.579018 -0.079113 5.000000
78.507858 42.077904 -4.153844 26.000000
18.766829 1.397910 -1.167493 1.000000
8.093309 -2.893044 -0.588952 1.000000
14.925343 -14.158670 -1.240258 9.000000
2.048287 2.579668 -0.082804 6.000000
8.050006 -2.910884 -0.583571 1.000000
14.733395 -14.079536 -1.210739 26.000000
2.085785 2.607213 -0.086848 6.000000
16.406456 1.104097 -1.017255 6.000000
8.087452 -2.954786 -0.582464 1.000000
14.549396 -14.006088 -1.182145 29.000000
2.082271 2.584276 -0.089804 6.000000
16.131847 1.020583 -0.999966 8.000000
8.000854 -2.959606 -0.574086 1.000000
14.075707 -13.649839 -1.133980 10.000000
2.110559 2.599822 -0.094706 7.000000
16.000454 0.953405 -1.000023 8.000000
7.990233 -2.989016 -0.569620 1.000000
13.892962 -13.567044 -1.106064 21.000000
2.084779 2.549825 -0.095451 6.000000
15.979276 0.893380 -0.992880 7.000000
8.007593 -3.029012 -0.565642 1.000000
13.765532 -13.541526 -1.082958 9.000000
2.116300 2.569104 -0.099370 7.000000
15.882599 0.829592 -0.989464 6.000000
7.940700 -3.037023 -0.558719 1.000000
13.574628 -13.451983 -1.055082 14.000000
29.235558 14.723138 -1.646757 5.000000
15.855355 0.775456 -0.987601 7.000000
7.986709 -3.085018 -0.558170 1.000000
13.448397 -13.424946 -1.025803 29.000000
2.176168 2.603592 -0.107824 7.000000
29.748240 14.844893 -1.701647 1.000000
15.792939 0.714391 -0.989083 9.000000
8.034761 -3.140703 -0.560893 1.000000
13.377184 -13.447411 -1.013985 32.000000
2.163090 2.568753 -0.110229 7.000000
29.676847 14.673656 -1.700269 1.000000
15.765709 0.655266 -0.984456 8.000000
7.986985 -3.154211 -0.552303 1.000000
13.349716 -13.518538 -0.992376 22.000000
2.188141 2.580168 -0.114002 8.000000
29.800831 14.599277 -1.733332 1.000000
15.752805 0.594148 -0.989025 8.000000
7.978981 -3.188135 -0.551124 1.000000
13.258615 -13.525078 -0.976024 15.000000
2.191026 2.564456 -0.116608 7.000000
30.109358 14.613826 -1.765722 1.000000
15.759863 0.536577 -0.989338 8.000000
8.010191 -3.231450 -0.550990 2.000000
13.101581 -13.463246 -0.951653 10.000000
2.219888 2.579037 -0.121208 8.000000
30.431870 14.632788 -1.799208 1.000000
15.756737 0.478659 -0.989025 9.000000
8.044768 -3.279734 -0.549624 1.000000
12.961383 -13.412531 -0.928547 24.000000
2.211552 2.553085 -0.123266 8.000000
30.552340 14.553087 -1.815012 1.000000
15.728626 0.420110 -0.984400 8.000000
8.042274 -3.313144 -0.544183 1.000000
12.815889 -13.359617 -0.905430 10.000000
2.244702 2.570432 -0.128116 8.000000
30.442060 14.363903 -1.822997 1.000000
15.769972 0.363378 -0.986898 8.000000
8.062589 -3.356132 -0.541796 1.000000
12.688163 -13.323884 -0.883757 19.000000
2.270069 2.581238 -0.132654 8.000000
28.553019 13.344840 -1.729002 1.000000
15.760874 0.305376 -0.991776 9.000000
8.067535 -3.396251 -0.541507 1.000000
12.532290 -13.252524 -0.860164 12.000000
2.292673 2.587753 -0.137046 7.000000
28.587322 13.233424 -1.744674 7.000000
15.751908 0.247451 -0.991148 8.000000
8.056403 -3.423059 -0.538451 1.000000
12.371332 -13.178739 -0.836618 23.000000
2.301178 2.580064 -0.139459 8.000000
28.539503 13.084484 -1.755307 30.000000
15.792627 0.190196 -0.993660 8.000000
8.089922 -3.472360 -0.536912 1.000000
12.262146 -13.158748 -0.816761 14.000000
2.320987 2.582246 -0.143700 8.000000
28.627337 12.997987 -1.774281 9.000000
15.793219 0.132312 -0.993660 6.000000
8.155241 -3.535849 -0.537432 1.000000
12.136395 -13.119886 -0.792828 25.000000
2.332804 2.578145 -0.146941 8.000000
29.202063 13.130054 -1.823726 5.000000
15.833530 0.071851 -0.996172 6.000000
8.119624 -3.555818 -0.531282 1.000000
11.989610 -13.052312 -0.770715 16.000000
2.362342 2.591633 -0.151268 7.000000
29.800829 13.280650 -1.875498 5.000000
15.893569 0.013870 -0.999939 6.000000
8.201380 -3.630927 -0.532868 1.000000
11.844527 -12.989614 -0.749075 24.000000
30.049335 13.259601 -1.905321 6.000000
15.993161 -0.036287 -1.009009 8.000000
8.163393 -3.643116 -0.527968 1.000000
11.696700 -12.922307 -0.727479 23.000000
30.316626 13.257612 -1.931060 7.000000
16.072952 -0.092575 -1.011241 8.000000
52.537395 -23.677401 -3.373173 8.000000
11.600828 -12.888549 -0.708593 10.000000
30.505472 13.194575 -1.968805 6.000000
16.141954 -0.157774 -1.021272 6.000000
52.261044 -23.783689 -3.330838 10.000000
11.462813 -12.838486 -0.691270 23.000000
31.255234 13.396010 -2.020272 3.000000
52.252205 -24.011234 -3.305651 6.000000
11.359896 -12.817470 -0.666935 21.000000
31.238192 13.240527 -2.045432 4.000000
11.232943 -12.763710 -0.647234 25.000000
18.838680 -0.391325 -1.185485 1.000000
11.097698 -12.703615 -0.627378 24.000000
18.756887 -0.458408 -1.187011 1.000000
27.118038 -12.824429 -1.687628 71.000000
10.992423 -12.676583 -0.612319 10.000000
44.962753 -1.248070 -2.845670 7.000000
27.103182 -12.939170 -1.673869 30.000000
10.844186 -12.594184 -0.589081 21.000000
44.843159 -1.409253 -2.838409 231.000000
10.749585 -12.577253 -0.571986 19.000000
52.928822 21.298716 -3.569505 16.000000
43.939720 -1.565123 -2.773910 245.000000
24.286432 -11.819060 -1.476974 91.000000
10.631629 -12.527518 -0.550807 10.000000
19.175003 7.634538 -1.302110 5.000000
43.749195 -1.718911 -2.762262 233.000000
24.252279 -11.902071 -1.463102 40.000000
10.521556 -12.490324 -0.533205 22.000000
18.993298 7.481658 -1.298632 8.000000
43.757557 -1.879890 -2.763206 30.000000
24.244968 -12.008946 -1.451099 102.000000
10.411887 -12.452477 -0.515777 16.000000
18.987623 7.399148 -1.303523 30.000000
24.205933 -12.100298 -1.437197 78.000000
10.298464 -12.404559 -0.495400 11.000000
18.850597 7.266282 -1.309983 6.000000
24.108595 -12.162288 -1.419877 92.000000
10.195938 -12.373061 -0.481443 9.000000
18.769449 7.156097 -1.309553 6.000000
24.216026 -12.328036 -1.409834 42.000000
10.099248 -12.343265 -0.459408 12.000000
20.610909 7.771774 -1.447619 93.000000
23.971460 -12.314368 -1.384065 38.000000
10.000625 -12.314547 -0.443116 9.000000
13.428666 13.141142 -1.083355 1.000000
20.620083 7.689030 -1.453989 99.000000
24.042072 -12.462227 -1.376554 20.000000
9.867882 -12.242511 -0.422741 8.000000
13.432960 13.049304 -1.099513 1.000000
20.633364 7.607959 -1.464515 79.000000
11.805738 -6.174515 -0.674910 33.000000
9.806531 -12.253695 -0.410978 11.000000
20.698126 7.545778 -1.474863 33.000000
11.717194 -6.183003 -0.661866 27.000000
9.674768 -12.180294 -0.391024 10.000000
18.153072 6.542667 -1.301945 15.000000
11.699164 -6.228416 -0.655176 28.000000
9.567398 -12.131832 -0.374903 9.000000
14.105291 13.404150 -1.193537 1.000000
18.120110 6.455844 -1.304620 32.000000
11.667759 -6.266689 -0.647748 29.000000
9.489216 -12.123820 -0.357446 18.000000
14.082273 13.289037 -1.204619 1.000000
11.628643 -6.298079 -0.637539 33.000000
9.385682 -12.078169 -0.341777 9.000000
14.330251 13.424092 -1.242258 1.000000
18.224674 6.350070 -1.329229 9.000000
11.579475 -6.326450 -0.629185 35.000000
9.286579 -12.041469 -0.326496 9.000000
14.173934 13.180454 -1.241470 1.000000
18.268227 6.283123 -1.340719 4.000000
11.543374 -6.361774 -0.621570 34.000000
9.205152 -12.022433 -0.311887 8.000000
11.853764 4.028426 -0.873259 1.000000
11.528900 -6.408999 -0.617436 34.000000
9.085606 -11.956838 -0.293588 10.000000
12.052565 4.046771 -0.891265 1.000000
11.527394 -6.463582 -0.611686 31.000000
8.999732 -11.934379 -0.279175 9.000000
51.878403 -5.095864 -3.261353 11.000000
11.543125 -6.528127 -0.604508 30.000000
8.913248 -11.905917 -0.262200 18.000000
11.536569 -6.580342 -0.603101 13.000000
8.805221 -11.843279 -0.249870 11.000000
11.655615 -6.704983 -0.601198 31.000000
8.742026 -11.853065 -0.233939 13.000000
20.363581 -2.226578 -1.281625 4.000000
11.674438 -6.772881 -0.596365 6.000000
8.636658 -11.800496 -0.216958 9.000000
20.177786 -2.274000 -1.266841 5.000000
20.611464 -12.054021 -1.038336 122.000000
8.552609 -11.763021 -0.203080 20.000000
19.931171 -2.320217 -1.255399 7.000000
20.743679 -12.223839 -1.042823 137.000000
8.462735 -11.729557 -0.189341 10.000000
19.773279 -2.382326 -1.242557 8.000000
20.712238 -12.317594 -1.026865 110.000000
8.385738 -11.717396 -0.173532 10.000000
19.680225 -2.444326 -1.237264 9.000000
20.654711 -12.386084 -1.009413 148.000000
8.296520 -11.682972 -0.157563 10.000000
19.656071 -2.514514 -1.239789 10.000000
20.921846 -12.650765 -1.007629 79.000000
8.201018 -11.634304 -0.146582 12.000000
19.592962 -2.575984 -1.232905 18.000000
20.990957 -12.797854 -1.000315 29.000000
8.137523 -11.630225 -0.128828 10.000000
19.622238 -2.660006 -1.231940 10.000000
20.755199 -12.753709 -0.974161 27.000000
8.046441 -11.590256 -0.113281 10.000000
19.554207 -2.716849 -1.224769 25.000000
20.576944 -12.748304 -0.959519 93.000000
7.969107 -11.564829 -0.100503 9.000000
19.598251 -2.796224 -1.231629 9.000000
20.966965 -13.096526 -0.966973 8.000000
7.895680 -11.548636 -0.085460 18.000000
19.597958 -2.869513 -1.228794 10.000000
27.360180 -17.216290 -1.241846 7.000000
7.817265 -11.511397 -0.072858 12.000000
19.567780 -2.938392 -1.224102 9.000000
20.580193 -13.065626 -0.927961 6.000000
7.737517 -11.492962 -0.060454 10.000000
24.354441 19.841772 -2.521986 57.000000
19.575344 -3.019929 -1.228794 10.000000
20.442406 -13.078492 -0.906835 6.000000
7.669605 -11.478374 -0.045779 9.000000
24.363279 19.700848 -2.542928 85.000000
19.584074 -3.094805 -1.226571 8.000000
26.978647 -17.399883 -1.188385 7.000000
7.552912 -11.393914 -0.033402 9.000000
24.387882 19.587345 -2.566181 55.000000
11.842610 3.122320 -0.961732 1.000000
19.583345 -3.161288 -1.230651 8.000000
18.080433 -11.755034 -0.783243 10.000000
7.480133 -11.370108 -0.019003 10.000000
23.887726 19.028397 -2.532327 111.000000
11.637602 3.018358 -0.948315 1.000000
19.600248 -3.244800 -1.229041 8.000000
17.991709 -11.791392 -0.766230 10.000000
7.415803 -11.358478 -0.007103 12.000000
23.972046 18.965971 -2.566818 152.000000
11.685534 2.989468 -0.959881 1.000000
19.627954 -3.319820 -1.234985 9.000000
18.056992 -11.929015 -0.763303 9.000000
7.346942 -11.343616 0.004718 10.000000
24.153620 18.966103 -2.600391 63.000000
11.638090 2.931925 -0.959311 1.000000
19.611372 -3.390997 -1.224255 9.000000
26.451563 -17.607670 -1.098538 7.000000
7.258634 -11.293471 0.018745 10.000000
24.378714 18.998819 -2.638844 8.000000
11.634083 2.885610 -0.960208 1.000000
19.702017 -3.481089 -1.230702 6.000000
26.296190 -17.643671 -1.072630 7.000000
7.187610 -11.273602 0.032669 15.000000
24.126816 18.660778 -2.636334 8.000000
11.876826 2.897454 -0.987907 1.000000
16.030428 -2.892995 -0.999155 3.000000
26.188007 -17.697304 -1.065082 7.000000
7.114697 -11.236961 0.041783 10.000000
22.675955 17.406160 -2.495945 7.000000
11.828880 2.839863 -0.987321 1.000000
18.643766 -12.698852 -0.744375 6.000000
7.042223 -11.217566 0.057792 12.000000
22.666189 17.267010 -2.517957 7.000000
11.906603 2.812407 -0.999389 1.000000
15.297617 -2.876691 -0.954769 1.000000
25.883505 -17.782589 -1.019812 7.000000
6.974603 -11.200810 0.069089 10.000000
22.664356 17.134699 -2.530751 7.000000
15.267365 -2.928979 -0.953544 1.000000
25.717117 -17.787462 -0.993601 15.000000
6.889385 -11.141811 0.080023 9.000000
22.127373 16.601625 -2.493180 7.000000
14.893935 -2.913976 -0.933541 1.000000
25.611034 -17.853218 -0.981115 14.000000
6.822323 -11.124301 0.091105 13.000000
21.854475 16.272030 -2.484463 8.000000
14.687544 -2.929530 -0.918647 5.000000
25.523228 -17.944679 -0.964151 12.000000
6.763920 -11.124695 0.104530 10.000000
21.428024 15.832766 -2.448126 15.000000
14.475678 -2.945110 -0.906097 5.000000
25.117290 -17.784031 -0.934909 11.000000
6.693996 -11.096765 0.117620 13.000000
21.419592 15.705496 -2.468621 131.000000
13.775295 2.985875 -1.186083 1.000000
14.493954 -3.004192 -0.910517 3.000000
24.702463 -17.626602 -0.905964 17.000000
6.623729 -11.063062 0.126032 10.000000
21.519894 15.658084 -2.492291 108.000000
13.600367 2.895809 -1.177432 1.000000
14.624763 -3.087253 -0.914202 1.000000
24.348854 -17.502872 -0.884754 10.000000
6.564586 -11.051628 0.136858 9.000000
21.498331 15.522204 -2.511203 87.000000
14.393631 -3.093611 -0.903036 1.000000
23.932657 -17.337090 -0.861609 18.000000
6.476994 -11.004536 0.147097 10.000000
13.522695 2.773351 -1.185861 1.000000
14.373233 -3.139128 -0.907559 1.000000
23.586742 -17.218674 -0.836118 14.000000
6.417099 -10.981548 0.157620 10.000000
13.453615 2.707838 -1.190990 1.000000
14.366347 -3.192835 -0.910435 1.000000
6.349178 -10.957314 0.165780 11.000000
19.743999 14.041704 -2.384113 40.000000
6.349274 -10.957479 0.150308 12.000000
19.652632 14.085472 -2.370777 20.000000
63.009857 12.922606 -5.717896 32.000000
14.369055 -3.146099 -0.948639 1.000000
23.601938 -17.236082 -0.918451 10.000000
6.410279 -10.974275 0.133096 10.000000
19.730635 14.251133 -2.377894 8.000000
13.684227 2.858784 -1.245192 1.000000
14.443250 -3.106913 -0.963136 1.000000
23.951466 -17.357088 -0.960577 12.000000
6.475912 -10.993917 0.118031 12.000000
19.824455 14.429759 -2.378279 7.000000
13.054926 2.779674 -1.184195 1.000000
14.351534 -3.032192 -0.963986 1.000000
24.261858 -17.446758 -0.991340 10.000000
6.557703 -11.044430 0.105367 10.000000
20.009209 14.676729 -2.393766 7.000000
14.293666 -2.965280 -0.967039 6.000000
24.712053 -17.639956 -1.044349 9.000000
6.621961 -11.064489 0.087773 12.000000
20.958200 15.496933 -2.500623 13.000000
12.449998 2.746423 -1.137847 1.000000
14.264663 -2.904771 -0.974559 6.000000
25.093691 -17.773901 -1.089959 9.000000
6.689008 -11.088496 0.070066 10.000000
20.846430 15.532790 -2.480326 61.000000
12.352765 2.772491 -1.125427 1.000000
14.411687 -2.879739 -0.991605 4.000000
25.473783 -17.909918 -1.125513 8.000000
6.755622 -11.106680 0.056723 11.000000
20.730686 15.565040 -2.459630 108.000000
12.176950 2.782184 -1.110374 1.000000
14.725318 -2.886324 -1.017712 1.000000
25.612038 -17.867205 -1.161467 7.000000
6.825741 -11.134233 0.041029 9.000000
20.702650 15.662972 -2.444813 79.000000
12.098943 2.811060 -1.102008 1.000000
14.656894 -2.817167 -1.020114 1.000000
25.767061 -17.835306 -1.187434 8.000000
6.882981 -11.140145 0.027426 10.000000
20.626326 15.724429 -2.428889 93.000000
11.691100 2.761504 -1.065775 1.000000
15.097964 -2.844603 -1.058161 1.000000
25.873417 -17.775660 -1.222389 7.000000
6.968719 -11.187011 0.011502 13.000000
20.558050 15.791856 -2.409393 114.000000
11.879823 2.852093 -1.079627 1.000000
18.659613 -12.719183 -0.895155 6.000000
7.058240 -11.243079 -0.004634 10.000000
11.482195 2.801181 -1.044417 1.000000
15.977336 -2.886293 -1.126786 4.000000
26.170891 -17.699047 -1.285510 7.000000
7.094761 -11.214134 -0.020844 10.000000
11.481201 2.847690 -1.043233 1.000000
26.255766 -17.616547 -1.303082 8.000000
7.192263 -11.276558 -0.035016 9.000000
21.358093 16.783030 -2.467263 17.000000
11.485527 2.893491 -1.040416 1.000000
26.399496 -17.579660 -1.329343 9.000000
7.258592 -11.293406 -0.049205 9.000000
21.661219 17.150011 -2.485217 43.000000
11.417290 2.920844 -1.031052 1.000000
19.626562 -3.323108 -1.398939 29.000000
18.068241 -11.936447 -0.930332 8.000000
7.333265 -11.322498 -0.065924 10.000000
21.540833 17.183512 -2.464070 124.000000
11.348655 2.947644 -1.025823 1.000000
19.598518 -3.244514 -1.406536 37.000000
18.082077 -11.850617 -0.943924 10.000000
7.415674 -11.358280 -0.080496 19.000000
21.491022 17.273050 -2.441346 38.000000
11.419128 3.012800 -1.033231 1.000000
19.560560 -3.164616 -1.409922 148.000000
18.116175 -11.778272 -0.966116 21.000000
7.488193 -11.382359 -0.097498 9.000000
21.618227 17.506094 -2.448390 8.000000
11.369864 3.044419 -1.025637 1.000000
19.571297 -3.092786 -1.420297 171.000000
26.936918 -17.379627 -1.455698 9.000000
7.557432 -11.396414 -0.112175 9.000000
21.597691 17.620924 -2.433753 17.000000
11.354167 3.084859 -1.021096 1.000000
19.547754 -3.015673 -1.421246 172.000000
27.088135 -17.336910 -1.477301 7.000000
7.655430 -11.457161 -0.127467 11.000000
11.323918 3.121253 -1.015266 1.000000
19.583088 -2.947681 -1.426495 177.000000
20.627218 -13.095481 -1.147959 6.000000
7.717636 -11.463431 -0.142308 16.000000
11.298009 3.158713 -1.013974 1.000000
19.558479 -2.870707 -1.434331 147.000000
27.338596 -17.216032 -1.551852 8.000000
7.793152 -11.484514 -0.164727 13.000000
11.301464 3.202253 -1.013216 1.000000
19.574045 -2.796257 -1.438143 35.000000
20.875227 -13.054424 -1.195553 8.000000
7.874234 -11.525902 -0.177858 9.000000
15.637682 13.135531 -1.722106 1.000000
11.274324 3.243511 -1.009879 1.000000
19.593792 -2.725835 -1.442322 35.000000
20.727243 -12.846427 -1.201179 10.000000
7.943847 -11.532477 -0.193096 10.000000
15.700418 13.286682 -1.723521 6.000000
11.296175 3.294674 -1.008774 1.000000
19.593018 -2.652562 -1.451947 33.000000
20.833031 -12.806542 -1.221696 31.000000
8.028708 -11.564714 -0.208873 15.000000
15.504871 13.219028 -1.689458 6.000000
11.270029 3.331917 -1.003390 1.000000
19.582582 -2.578096 -1.453930 58.000000
20.589165 -12.552888 -1.221566 107.000000
8.131936 -11.626560 -0.225363 14.000000
15.358316 13.200911 -1.661456 5.000000
11.339208 3.397611 -1.006489 1.000000
19.636162 -2.511967 -1.460688 33.000000
20.681118 -12.505204 -1.245440 37.000000
8.188732 -11.616875 -0.243125 9.000000
15.251481 13.197276 -1.636906 5.000000
11.331445 3.440596 -1.006913 1.000000
19.674419 -2.443605 -1.469817 14.000000
20.745302 -12.445332 -1.263616 101.000000
8.272498 -11.649145 -0.259370 10.000000
15.081564 13.151852 -1.606501 1.000000
11.304535 3.479889 -0.997385 1.000000
19.693399 -2.372701 -1.467094 9.000000
20.897484 -12.432697 -1.282869 112.000000
8.370255 -11.695759 -0.276155 14.000000
11.291704 3.521298 -0.997385 1.000000
19.825012 -2.314873 -1.486765 9.000000
20.761524 -12.249005 -1.288634 35.000000
8.451784 -11.723001 -0.292633 15.000000
11.416667 3.606234 -1.007479 1.000000
19.858269 -2.241501 -1.492110 8.000000
20.861324 -12.205029 -1.313196 136.000000
8.518875 -11.729530 -0.311256 9.000000
11.318286 3.620834 -0.995784 1.000000
20.043764 -2.195149 -1.509032 6.000000
20.853294 -12.097960 -1.326772 26.000000
8.632466 -11.794769 -0.329138 10.000000
11.349213 3.672259 -0.995378 1.000000
20.250010 -2.142656 -1.523958 6.000000
11.608015 -6.682995 -0.744170 8.000000
8.713777 -11.827723 -0.343647 11.000000
11.354947 3.720145 -0.992870 1.000000
20.579336 -2.101260 -1.559044 2.000000
11.617584 -6.634617 -0.757348 26.000000
8.798527 -11.851546 -0.363317 14.000000
11.374177 3.774868 -0.989494 1.000000
11.550257 -6.540144 -0.758364 38.000000
8.894607 -11.885341 -0.383546 9.000000
11.415937 3.839669 -0.990227 1.000000
11.536771 -6.471487 -0.765032 34.000000
8.989064 -11.920232 -0.398770 10.000000
11.398749 3.876012 -0.985615 1.000000
11.505712 -6.403997 -0.763866 28.000000
9.084823 -11.960141 -0.414280 12.000000
20.322723 18.918118 -2.038951 6.000000
11.397069 3.926551 -0.988942 1.000000
43.116013 -3.756997 -3.299776 18.000000
11.517268 -6.350008 -0.781361 13.000000
9.170765 -11.981854 -0.437278 9.000000
20.461887 19.188126 -2.035346 6.000000
11.397044 3.973332 -0.985956 1.000000
43.036346 -3.576044 -3.292553 21.000000
11.496310 -6.283618 -0.785256 32.000000
9.267175 -12.020647 -0.455780 10.000000
20.642853 19.500511 -2.035532 2.000000
11.492398 4.049367 -0.988939 1.000000
43.047394 -3.433265 -3.300090 33.000000
11.477235 -6.223851 -0.789400 35.000000
9.356910 -12.045482 -0.471342 13.000000
11.430861 4.074843 -0.980658 1.000000
42.995064 -3.270550 -3.295137 9.000000
11.666522 -6.271273 -0.810114 26.000000
9.478657 -12.114685 -0.491466 9.000000
18.071627 6.524006 -1.542481 10.000000
42.976288 -3.095658 -3.315413 11.000000
11.734188 -6.249691 -0.820128 10.000000
9.553610 -12.118696 -0.509223 10.000000
13.777082 13.299728 -1.325607 1.000000
18.053930 6.588941 -1.536173 9.000000
43.026100 -2.955859 -3.318481 10.000000
11.727737 -6.196420 -0.829856 11.000000
9.642070 -12.143480 -0.530641 18.000000
13.732807 13.354572 -1.305894 1.000000
18.051464 6.670277 -1.528088 7.000000
42.961937 -2.785753 -3.320242 10.000000
11.774107 -6.160589 -0.840694 20.000000
9.764259 -12.205240 -0.548556 9.000000
43.046494 -2.632836 -3.326009 9.000000
11.820652 -6.135098 -0.849562 8.000000
9.862870 -12.240664 -0.568175 10.000000
43.060253 -2.475298 -3.333921 12.000000
11.887033 -6.114352 -0.859744 1.000000
9.954525 -12.262153 -0.587424 18.000000
18.725786 7.146938 -1.573922 6.000000
43.197296 -2.324359 -3.359040 10.000000
10.082193 -12.331202 -0.611902 25.000000
18.839750 7.269655 -1.575091 6.000000
43.266441 -2.169072 -3.348564 12.000000
24.369139 -12.309737 -1.784665 9.000000
10.181050 -12.359390 -0.626344 10.000000
18.971392 7.400452 -1.581203 10.000000
43.327114 -2.012940 -3.375513 32.000000
7.798588 -3.903540 -0.576190 1.000000
10.262057 -12.369491 -0.642715 20.000000
18.928389 7.471360 -1.569387 33.000000
43.434135 -1.850806 -3.383272 25.000000
7.818212 -3.874193 -0.584134 1.000000
10.406207 -12.450100 -0.665901 18.000000
19.145088 7.630370 -1.578588 6.000000
43.644852 -1.699553 -3.399178 12.000000
7.714332 -3.790906 -0.579951 1.000000
10.509157 -12.480026 -0.689525 14.000000
19.265486 7.760303 -1.583558 6.000000
43.849518 -1.561910 -3.414696 7.000000
7.732386 -3.764656 -0.584791 1.000000
10.596364 -12.503648 -0.706994 27.000000
44.422829 -1.403805 -3.466679 2.000000
7.723390 -3.725321 -0.587585 1.000000
10.730349 -12.559184 -0.729896 22.000000
7.652476 -3.653323 -0.585530 1.000000
10.842118 -12.600676 -0.749038 15.000000
16.315626 -0.395896 -1.272982 6.000000
7.632712 -3.612857 -0.587541 1.000000
10.956410 -12.639508 -0.771281 20.000000
16.057865 -0.327953 -1.252763 6.000000
7.654466 -3.588872 -0.595613 1.000000
11.084348 -12.692803 -0.791745 11.000000
16.033604 -0.268671 -1.256417 6.000000
7.581340 -3.520749 -0.593313 1.000000
11.187305 -12.720802 -0.816666 20.000000
16.014545 -0.209642 -1.254855 3.000000
7.575785 -3.484472 -0.596263 1.000000
11.316073 -12.772516 -0.840555 10.000000
30.781912 13.333282 -2.451657 8.000000
15.990281 -0.150709 -1.252902 7.000000
7.570067 -3.448283 -0.599192 1.000000
11.446537 -12.829268 -0.861955 15.000000
30.501001 13.344583 -2.415639 8.000000
15.945832 -0.097409 -1.249387 7.000000
7.559639 -3.410131 -0.601739 1.000000
11.571928 -12.883547 -0.883327 26.000000
30.042501 13.275382 -2.365876 6.000000
15.910978 -0.036101 -1.249430 8.000000
7.571797 -3.382272 -0.606081 1.000000
11.701138 -12.940823 -0.905174 10.000000
29.634977 13.225341 -2.320505 6.000000
15.841437 0.019354 -1.241185 38.000000
7.532526 -3.334811 -0.606385 1.000000
11.840896 -12.994738 -0.930580 20.000000
29.264622 13.176607 -2.278025 6.000000
15.791401 0.079928 -1.237280 64.000000
7.567240 -3.317061 -0.612547 1.000000
11.968922 -13.038923 -0.952369 23.000000
29.031057 13.199632 -2.246813 6.000000
15.766127 0.132085 -1.235327 35.000000
7.574575 -3.287233 -0.615059 1.000000
12.094024 -13.078661 -0.974093 18.000000
28.616385 13.137870 -2.201863 7.000000
15.745599 0.189630 -1.233765 34.000000
7.490074 -3.217990 -0.611528 1.000000
12.268183 -13.174442 -1.003320 26.000000
28.342808 13.138260 -2.168067 7.000000
15.744799 0.247339 -1.233765 61.000000
7.542815 -3.207952 -0.619186 1.000000
12.367013 -13.183357 -1.023268 14.000000
28.155436 13.176987 -2.141059 6.000000
15.738803 0.304948 -1.233374 38.000000
7.586388 -3.193699 -0.626133 1.000000
12.507202 -13.235246 -1.046790 9.000000
27.972651 13.216640 -2.114554 4.000000
15.712662 0.362058 -1.231421 42.000000
7.547118 -3.144653 -0.626242 1.000000
12.657039 -13.305143 -1.071711 7.000000
27.533291 13.132706 -2.068919 7.000000
15.736071 0.423057 -1.233374 40.000000
7.489257 -3.088378 -0.623342 1.000000
12.795978 -13.357515 -1.095719 7.000000
27.387060 13.186389 -2.045561 7.000000
15.714699 0.480127 -1.229068 57.000000
7.500021 -3.060702 -0.630411 1.000000
12.937484 -13.406520 -1.126464 7.000000
27.290148 13.263158 -2.025981 7.000000
15.707851 0.537551 -1.228678 35.000000
7.547857 -3.048000 -0.637777 1.000000
11.149516 -11.461296 -0.983579 1.000000
27.273655 13.378938 -2.012407 37.000000
15.735663 0.596252 -1.231017 32.000000
7.508061 -2.999970 -0.633481 1.000000
13.277444 -13.553746 -1.177091 6.000000
2.079893 2.513265 -0.133308 1.000000
27.203333 13.468363 -1.989563 7.000000
15.733373 0.653922 -1.231017 34.000000
7.547029 -2.981987 -0.640073 1.000000
13.360131 -13.547989 -1.197101 7.000000
27.154713 13.568441 -1.973669 7.000000
15.721001 0.713886 -1.227490 59.000000
7.543669 -2.948740 -0.643135 1.000000
13.401924 -13.491105 -1.213069 7.000000
2.020976 2.477961 -0.123957 2.000000
27.110174 13.670588 -1.958096 7.000000
15.738193 0.772479 -1.229046 52.000000
7.498430 -2.899419 -0.641192 1.000000
13.433883 -13.415139 -1.231041 8.000000
2.106711 2.601572 -0.126846 7.000000
27.211998 13.847263 -1.953050 7.000000
15.755169 0.831208 -1.230601 10.000000
7.489862 -2.864594 -0.646600 1.000000
13.523574 -13.415433 -1.251871 9.000000
2.065942 2.570432 -0.121500 7.000000
27.046856 13.888264 -1.923526 7.000000
15.826885 0.893173 -1.233667 9.000000
7.597988 -2.874071 -0.657875 1.000000
13.744698 -13.530475 -1.287807 14.000000
2.047698 2.566025 -0.116937 7.000000
27.045401 14.013016 -1.911050 7.000000
15.873264 0.954167 -1.237546 7.000000
7.664375 -2.867117 -0.664146 1.000000
13.870878 -13.564410 -1.309013 14.000000
2.041432 2.577493 -0.114819 8.000000
27.180485 14.209614 -1.908141 6.000000
15.899726 1.014257 -1.237093 6.000000
7.683743 -2.842303 -0.670675 1.000000
14.042211 -13.622113 -1.344024 12.000000
2.022791 2.573281 -0.110297 8.000000
27.118647 14.298041 -1.885807 4.000000
15.885766 1.074627 -1.236319 6.000000
7.675279 -2.807234 -0.670469 1.000000
14.515503 -13.978343 -1.395012 9.000000
2.010792 2.576476 -0.106706 7.000000
15.951946 1.132256 -1.238947 5.000000
7.807136 -2.823062 -0.683997 1.000000
14.699000 -14.066317 -1.426234 7.000000
2.007501 2.591789 -0.104744 8.000000
15.972130 1.198147 -1.240878 6.000000
8.009470 -2.863075 -0.705283 1.000000
14.891892 -14.136818 -1.457440 7.000000
1.986321 2.583019 -0.100693 8.000000
16.097057 1.266866 -1.248101 6.000000
7.949464 -2.807248 -0.704972 1.000000
15.040671 -14.173612 -1.485034 7.000000
1.956563 2.561858 -0.096799 7.000000
8.047864 -2.812016 -0.715864 1.000000
12.468889 -11.672263 -1.245261 7.000000
1.952819 2.577411 -0.093148 8.000000
8.195321 -2.826676 -0.732536 1.000000
15.647211 -14.535196 -1.579579 8.000000
1.946411 2.588610 -0.090466 7.000000
15.727490 -14.512910 -1.597838 8.000000
1.928458 2.583459 -0.086109 7.000000
8.390278 -2.825271 -0.751204 1.000000
15.739308 -14.417366 -1.608645 8.000000
1.924979 2.598614 -0.082989 7.000000
8.348204 -2.777078 -0.751160 1.000000
12.925350 -11.744679 -1.331542 1.000000
1.907063 2.593305 -0.079233 7.000000
8.320214 -2.733938 -0.750815 1.000000
1.880805 2.575449 -0.075712 7.000000
73.985947 42.492275 -4.710384 1.000000
8.438431 -2.740184 -0.763735 1.000000
16.398829 -14.693174 -1.713555 9.000000
1.879760 2.594880 -0.071594 6.000000
73.899673 42.838142 -4.655989 1.000000
8.567709 -2.744194 -0.777596 1.000000
16.602085 -14.755573 -1.744192 12.000000
1.867815 2.597426 -0.068133 6.000000
9.023760 -2.853840 -0.823024 1.000000
16.808832 -14.834628 -1.788023 9.000000
1.840901 2.579896 -0.064175 6.000000
74.386635 43.817074 -4.600046 1.000000
8.785815 -2.746573 -0.802106 1.000000
17.048122 -14.945539 -1.824124 18.000000
1.837689 2.594501 -0.062158 6.000000
74.311600 44.175640 -4.545812 3.000000
8.910606 -2.746368 -0.817405 1.000000
17.255713 -15.016031 -1.860528 9.000000
1.817614 2.584285 -0.057907 6.000000
74.429375 44.580357 -4.486118 1.000000
9.100727 -2.771954 -0.833998 1.000000
17.509769 -15.124698 -1.894126 27.000000
1.805754 2.586563 -0.054512 6.000000
17.688660 -15.166371 -1.927923 13.000000
1.801986 2.601429 -0.051371 5.000000
17.856674 -15.197221 -1.960755 10.000000
1.786352 2.600130 -0.047905 6.000000
18.639570 -15.734938 -2.061206 4.000000
1.791375 2.627043 -0.044955 6.000000
45.994003 28.484161 -2.655390 4.000000
23.447056 3.236865 -1.763096 5.000000
13.457315 -3.876622 -1.247410 8.000000
18.734196 -15.697580 -2.082480 8.000000
1.767761 2.612936 -0.040196 6.000000
13.484048 -3.835944 -1.253634 9.000000
18.807716 -15.653322 -2.106381 8.000000
1.742294 2.587925 -0.038117 6.000000
21.695736 3.161198 -1.625448 2.000000
13.479074 -3.778646 -1.256739 10.000000
18.940632 -15.646794 -2.132110 7.000000
1.738826 2.602337 -0.034962 5.000000
20.954945 3.131738 -1.559643 1.000000
13.444834 -3.715950 -1.252268 205.000000
19.178020 -15.724995 -2.165414 9.000000
1.751856 2.641754 -0.032089 5.000000
20.622677 3.159397 -1.539426 2.000000
13.443525 -3.662605 -1.255791 186.000000
14.803153 -12.047365 -1.683229 5.000000
1.692717 2.572999 -0.027953 4.000000
20.577003 3.229632 -1.529580 8.000000
13.443267 -3.604628 -1.259303 201.000000
19.694401 -15.897056 -2.254387 8.000000
1.681012 2.574736 -0.023614 4.000000
20.477190 3.290913 -1.512129 12.000000
13.454720 -3.559916 -1.264161 182.000000
19.955591 -15.998884 -2.296198 9.000000
1.666589 2.572215 -0.020328 3.000000
20.420967 3.358702 -1.505245 20.000000
13.439165 -3.500640 -1.263871 186.000000
14.413221 -11.468902 -1.669820 17.000000
1.678788 2.611972 -0.017342 3.000000
20.374352 3.427778 -1.499100 34.000000
13.451905 -3.451360 -1.263871 182.000000
14.509182 -11.458661 -1.685821 7.000000
1.650848 2.588321 -0.013931 4.000000
20.337946 3.494698 -1.493689 38.000000
13.449553 -3.398265 -1.267354 30.000000
8.578044 -6.723629 -1.001485 8.000000
1.638684 2.590140 -0.010699 1.000000
20.310411 3.570309 -1.481809 47.000000
13.471152 -3.351244 -1.273110 13.000000
8.570500 -6.667150 -1.007301 7.000000
20.272518 3.643949 -1.472827 123.000000
13.479226 -3.295852 -1.277497 22.000000
8.584671 -6.623029 -1.015378 10.000000
20.337763 3.732678 -1.474924 29.000000
13.466230 -3.242901 -1.277623 16.000000
8.586265 -6.578954 -1.020599 15.000000
1.671472 2.705287 0.000000 5.000000
20.330427 3.801064 -1.471670 32.000000
13.443680 -3.185385 -1.279231 35.000000
8.617676 -6.553033 -1.029097 10.000000
1.669858 2.723892 0.003346 5.000000
20.283068 3.869202 -1.454771 73.000000
13.450417 -3.134960 -1.278770 25.000000
8.653124 -6.530073 -1.036192 17.000000
20.317961 3.953092 -1.454672 26.000000
13.514977 -3.097826 -1.286260 21.000000
8.704158 -6.518653 -1.049013 16.000000
55.743328 39.133480 -2.521226 6.000000
20.308474 4.028553 -1.451409 15.000000
13.506907 -3.041436 -1.289246 27.000000
8.747373 -6.501111 -1.059022 10.000000
55.597218 39.335896 -2.461609 8.000000
20.318514 4.108004 -1.445921 20.000000
13.503601 -2.988731 -1.285441 10.000000
8.818753 -6.504122 -1.070563 15.000000
55.245640 39.377247 -2.392834 19.000000
20.328487 4.187631 -1.436794 14.000000
13.538348 -2.944412 -1.292591 7.000000
8.866019 -6.488945 -1.081151 18.000000
1.700214 2.886391 0.022803 1.000000
54.895294 39.431747 -2.336660 12.000000
20.308609 4.261189 -1.429205 17.000000
13.563433 -2.897845 -1.296405 8.000000
8.937285 -6.490935 -1.096666 16.000000
1.684567 2.883946 0.026232 6.000000
54.529083 39.472473 -2.280163 9.000000
20.312611 4.339816 -1.426954 16.000000
13.632483 -2.857908 -1.306851 8.000000
9.029009 -6.507137 -1.112834 15.000000
1.689515 2.915740 0.029997 6.000000
54.255581 39.563850 -2.204091 11.000000
20.365295 4.429183 -1.424477 10.000000
13.608512 -2.800853 -1.306007 8.000000
9.072396 -6.488016 -1.123108 12.000000
17.350409 29.991316 0.326564 1.000000
53.853699 39.573952 -2.146937 16.000000
20.432455 4.522284 -1.419316 5.000000
13.706518 -2.768698 -1.314430 5.000000
9.144318 -6.488925 -1.134991 13.000000
17.153360 29.890940 0.360910 7.000000
53.645809 39.724796 -2.074466 22.000000
13.809124 -2.736785 -1.325778 5.000000
9.248733 -6.512183 -1.152959 14.000000
17.056105 29.963263 0.403190 10.000000
53.323692 39.775219 -2.020880 10.000000
13.961245 -2.711262 -1.339373 5.000000
9.305797 -6.499060 -1.162958 11.000000
35.932629 63.640221 0.956719 14.000000
53.011417 39.845520 -1.945058 19.000000
14.191377 -2.702016 -1.357948 5.000000
9.382365 -6.501505 -1.173568 19.000000
35.566666 63.534866 1.042142 16.000000
52.734131 39.925934 -1.870663 17.000000
12.380300 2.931142 -0.836110 1.000000
14.396929 -2.686511 -1.376665 5.000000
9.463001 -6.506173 -1.186740 16.000000
35.356163 63.679321 1.131487 1.000000
52.477707 40.035229 -1.797586 21.000000
12.321528 2.964961 -0.823984 1.000000
14.646866 -2.677634 -1.396995 5.000000
9.543787 -6.510330 -1.199985 15.000000
35.481960 63.905895 1.186556 1.000000
52.463516 40.024403 -1.716423 21.000000
12.268995 2.952320 -0.807201 1.000000
14.609118 -2.670734 -1.377707 5.000000
9.532322 -6.502509 -1.188366 17.000000
35.682144 63.715054 1.134438 5.000000
52.784721 39.964237 -1.745254 21.000000
12.411111 2.938437 -0.811367 1.000000
14.424204 -2.691600 -1.348276 5.000000
9.456327 -6.501585 -1.167687 13.000000
35.932014 63.587284 1.058110 11.000000
52.950081 39.784954 -1.780592 17.000000
12.621191 2.939365 -0.822120 1.000000
14.253518 -2.713848 -1.325582 4.000000
9.384200 -6.502776 -1.151651 16.000000
17.058207 29.966951 0.463431 8.000000
53.331200 39.766331 -1.823353 18.000000
13.021001 2.982208 -0.847445 1.000000
14.063292 -2.731080 -1.301249 5.000000
9.320498 -6.509327 -1.134728 18.000000
17.153183 29.878550 0.432963 19.000000
53.686100 39.740128 -1.854066 22.000000
20.508755 4.618087 -1.341028 6.000000
13.847771 -2.744444 -1.279789 5.000000
9.244328 -6.506669 -1.120381 10.000000
17.347750 29.974649 0.398958 7.000000
53.882698 39.580776 -1.902546 10.000000
20.398649 4.514802 -1.336398 17.000000
13.716459 -2.770706 -1.258734 8.000000
9.148313 -6.489359 -1.099759 11.000000
54.284523 39.570442 -1.970271 8.000000
20.367073 4.425848 -1.333207 122.000000
13.643017 -2.807954 -1.250480 8.000000
9.092702 -6.500139 -1.088053 12.000000
54.618385 39.508068 -2.024222 6.000000
20.343891 4.342786 -1.334284 9.000000
13.701298 -2.872335 -1.251853 5.000000
9.041165 -6.513500 -1.076883 14.000000
36.192299 61.027546 0.606808 9.000000
54.942123 39.450851 -2.054736 11.000000
20.354788 4.267169 -1.333964 9.000000
13.564176 -2.898004 -1.233011 5.000000
8.977861 -6.518011 -1.060456 13.000000
36.387405 60.871231 0.544621 11.000000
55.215714 39.341385 -2.095093 19.000000
20.350513 4.188466 -1.336310 10.000000
13.543941 -2.945629 -1.229707 9.000000
8.962541 -6.557187 -1.053655 16.000000
55.586849 39.299450 -2.151268 11.000000
20.336382 4.107922 -1.334385 11.000000
13.529026 -2.994359 -1.219592 9.000000
8.923303 -6.578826 -1.040156 18.000000
55.721085 39.088833 -2.198471 9.000000
20.355970 4.034283 -1.338328 10.000000
13.508447 -3.041783 -1.216298 11.000000
8.863745 -6.585198 -1.028244 8.000000
20.350798 3.955794 -1.340659 10.000000
13.463507 -3.086028 -1.203593 16.000000
8.884250 -6.651106 -1.021722 9.000000
20.340652 3.876508 -1.339045 20.000000
13.462013 -3.137663 -1.202048 28.000000
8.872305 -6.693048 -1.015339 4.000000
20.359398 3.802803 -1.342983 21.000000
13.416899 -3.179039 -1.194203 35.000000
1.838810 2.913210 0.003006 1.000000
82.560059 56.149895 -3.469208 32.000000
20.382786 3.729910 -1.347246 23.000000
13.425337 -3.233053 -1.186289 33.000000
1.785053 2.805211 -0.000580 1.000000
82.422195 55.636345 -3.524743 30.000000
20.367023 3.646260 -1.352523 23.000000
13.418437 -3.283471 -1.184306 32.000000
1.730057 2.697946 -0.003916 1.000000
82.557587 55.288357 -3.573935 24.000000
20.419800 3.578517 -1.351514 12.000000
13.401296 -3.333866 -1.179058 24.000000
82.087517 54.538818 -3.613802 27.000000
20.427162 3.502688 -1.362040 37.000000
13.403877 -3.386724 -1.175508 27.000000
1.741124 2.672917 -0.010022 3.000000
81.809685 53.923065 -3.644219 23.000000
20.445017 3.428659 -1.358750 33.000000
13.410874 -3.440832 -1.174786 17.000000
14.552443 -11.488704 -1.602553 17.000000
1.728487 2.633373 -0.013195 2.000000
20.496365 3.360082 -1.368616 10.000000
13.398570 -3.490066 -1.169953 10.000000
14.413856 -11.465299 -1.575717 7.000000
1.732601 2.618668 -0.016441 1.000000
72.863716 47.282101 -3.352020 9.000000
20.567423 3.294367 -1.376197 15.000000
13.415377 -3.547000 -1.162792 13.000000
19.986338 -16.017803 -2.173291 10.000000
1.733401 2.600108 -0.019635 1.000000
72.787682 46.854534 -3.370861 8.000000
20.588329 3.227728 -1.373219 16.000000
13.402049 -3.598590 -1.157948 10.000000
19.707193 -15.907382 -2.122252 9.000000
1.731302 2.577421 -0.022761 1.000000
72.645309 46.387188 -3.416638 23.000000
20.837618 3.181160 -1.392678 2.000000
13.408389 -3.653033 -1.154760 16.000000
14.929967 -12.141911 -1.595668 6.000000
1.782769 2.633139 -0.026640 1.000000
72.627113 46.001709 -3.467944 20.000000
21.056150 3.135592 -1.410238 1.000000
13.423922 -3.710170 -1.154814 9.000000
19.176323 -15.712413 -2.038220 10.000000
1.723433 2.528354 -0.028305 1.000000
72.417183 45.515327 -3.510125 23.000000
13.429812 -3.764836 -1.151598 8.000000
18.954712 -15.647297 -1.999155 7.000000
1.766943 2.565159 -0.033163 1.000000
72.284676 45.063297 -3.555242 22.000000
13.445068 -3.822319 -1.149187 9.000000
18.814266 -15.647660 -1.968884 8.000000
1.756357 2.529892 -0.035478 1.000000
49.908131 6.863188 -3.363755 7.000000
13.479238 -3.885485 -1.148388 9.000000
18.654690 -15.630962 -1.941066 7.000000
1.839658 2.630234 -0.040337 5.000000
72.059982 44.193020 -3.631623 1.000000
13.508035 -3.950026 -1.142234 9.000000
1.829097 2.594833 -0.043222 5.000000
72.403893 44.039566 -3.670433 1.000000
13.512960 -4.005287 -1.138933 4.000000
17.881678 -15.207740 -1.826835 9.000000
1.860364 2.621660 -0.046572 5.000000
58.163891 7.368436 -3.924953 5.000000
17.702091 -15.167169 -1.793691 12.000000
1.885386 2.634450 -0.050892 5.000000
71.760643 42.947865 -3.753774 11.000000
58.760387 7.204458 -3.994359 24.000000
9.006812 -2.741631 -0.754192 1.000000
17.492592 -15.099200 -1.761832 26.000000
1.871154 2.595374 -0.053056 5.000000
71.723160 42.569168 -3.772799 24.000000
8.806442 -2.715947 -0.735005 1.000000
17.268982 -15.016990 -1.724756 27.000000
1.909546 2.629230 -0.057287 6.000000
71.906548 42.322388 -3.832632 12.000000
8.953671 -2.797332 -0.744849 1.000000
17.048784 -14.930340 -1.688071 28.000000
1.886656 2.577789 -0.059663 5.000000
72.488976 42.342167 -3.900219 158.000000
8.967366 -2.837728 -0.743545 1.000000
