VERSION .7
FIELDS x y z intensity
SIZE 4 4 4 4
TYPE F F F F
COUNT 1 1 1 1
WIDTH 1257
HEIGHT 1
VIEWPOINT 0 0 0 1 0 0 0
POINTS 1257
DATA ascii
5.461976 2.451273 -0.970724 4.000000
12.129759 0.042341 -2.156284 1.000000
5.434502 -2.448064 -0.977127 7.000000
5.707838 -6.319207 -1.009369 11.000000
8.398998 9.383876 -1.477187 1.000000
5.501871 2.444990 -0.980530 6.000000
12.094996 -0.004222 -2.152269 1.000000
5.422326 -2.464242 -0.973200 7.000000
5.676501 -6.328785 -0.998701 10.000000
8.475475 9.393168 -1.497426 1.000000
5.564525 2.448449 -0.993357 5.000000
12.055893 -0.048396 -2.143157 1.000000
5.409234 -2.482253 -0.969278 7.000000
5.630841 -6.324361 -0.985751 11.000000
8.523730 9.387187 -1.516445 1.000000
5.558990 2.422889 -0.994114 2.000000
12.134414 -0.091069 -2.157159 1.000000
5.338299 -2.472296 -0.954945 6.000000
5.596161 -6.323085 -0.975492 11.000000
8.577106 9.376683 -1.533316 1.000000
5.708643 2.460893 -1.022444 1.000000
12.074928 -0.134884 -2.146658 1.000000
5.311052 -2.485618 -0.947647 6.000000
5.562789 -6.334219 -0.963472 10.000000
8.522874 9.249098 -1.530915 1.000000
12.123544 -0.181986 -2.155409 1.000000
5.244184 -2.477795 -0.935253 6.000000
5.529349 -6.338412 -0.952393 9.000000
8.682288 9.356346 -1.567240 5.000000
5.762151 2.432842 -1.036578 2.000000
12.142364 -0.233145 -2.158910 1.000000
5.173417 -2.467593 -0.919108 7.000000
5.505728 -6.360472 -0.942116 10.000000
8.684753 9.283978 -1.574460 5.000000
5.906711 2.468408 -1.066690 1.000000
12.106977 -0.276860 -2.152784 1.000000
5.124160 -2.468295 -0.909998 6.000000
5.486045 -6.384875 -0.936796 9.000000
8.823201 9.369504 -1.607604 3.000000
5.928361 2.454396 -1.070275 3.000000
12.115778 -0.319379 -2.154534 1.000000
5.107492 -2.481167 -0.905445 6.000000
5.460244 -6.395384 -0.925417 9.000000
8.888630 9.373212 -1.629584 5.000000
6.014452 2.463028 -1.089932 1.000000
12.103933 -0.363465 -2.157011 1.000000
5.080325 -2.493225 -0.898345 6.000000
5.462996 -6.446303 -0.922419 8.000000
8.914887 9.332158 -1.641848 3.000000
6.051183 2.449752 -1.098312 4.000000
12.117439 -0.414681 -2.157525 1.000000
5.058000 -2.506413 -0.892053 5.000000
5.480515 -6.517551 -0.919070 4.000000
9.082153 9.437755 -1.677888 1.000000
6.113652 2.451477 -1.111716 3.000000
12.165865 -0.458860 -2.162035 1.000000
5.018274 -2.509679 -0.883652 7.000000
5.502011 -6.592013 -0.914593 1.000000
9.117059 9.408075 -1.694531 1.000000
6.256242 2.478285 -1.139371 1.000000
12.143673 -0.502601 -2.162781 1.000000
4.969903 -2.508301 -0.872765 7.000000
10.235542 -12.350685 -1.694443 3.000000
10.888850 11.154324 -2.032829 5.000000
6.328793 2.480227 -1.155803 3.000000
12.166243 -0.550338 -2.167161 1.000000
4.948011 -2.520050 -0.866565 6.000000
10.175532 -12.370279 -1.675044 5.000000
10.807814 10.994272 -2.029682 5.000000
6.446941 2.500603 -1.180746 3.000000
12.178411 -0.597754 -2.171917 1.000000
4.912071 -2.525545 -0.860975 7.000000
10.185906 -12.466928 -1.666507 3.000000
10.686353 10.791313 -2.012915 5.000000
6.469675 2.482180 -1.184480 1.000000
12.142483 -0.640611 -2.161535 2.000000
4.847438 -2.512673 -0.845247 7.000000
10.118353 -12.472855 -1.645570 5.000000
10.675338 10.701454 -2.019548 5.000000
6.597548 2.503538 -1.212542 5.000000
12.174715 -0.689199 -2.165532 1.000000
4.829078 -2.527801 -0.839912 7.000000
10.132174 -12.579387 -1.635011 5.000000
10.579260 10.527686 -2.012622 5.000000
6.648038 2.493538 -1.223881 3.000000
12.132042 -0.731401 -2.162781 1.000000
4.807687 -2.536951 -0.836679 7.000000
10.136592 -12.679724 -1.628902 4.000000
10.596820 10.471795 -2.024884 5.000000
6.717452 2.488860 -1.238673 3.000000
12.168822 -0.780524 -2.167660 1.000000
4.763211 -2.537979 -0.825884 7.000000
10.042680 -12.661627 -1.601671 5.000000
10.523986 10.323854 -2.019448 5.000000
6.864254 2.516037 -1.268059 1.000000
12.170648 -0.827577 -2.168536 1.000000
4.745104 -2.551771 -0.821551 7.000000
10.072495 -12.786077 -1.595968 5.000000
10.460623 10.186730 -2.018288 5.000000
6.836203 2.474671 -1.267568 2.000000
12.153179 -0.871151 -2.163784 1.000000
4.736223 -2.569419 -0.817789 7.000000
10.012260 -12.810499 -1.574154 5.000000
10.436341 10.088824 -2.016783 5.000000
6.919009 2.476002 -1.283874 1.000000
12.149744 -0.917809 -2.163784 4.000000
4.709926 -2.577541 -0.811040 7.000000
10.018106 -12.915264 -1.565229 4.000000
10.383980 9.968321 -2.017857 5.000000
7.090346 2.506646 -1.317929 1.000000
12.155737 -0.963082 -2.167660 1.000000
4.666067 -2.575807 -0.803205 8.000000
9.992343 -12.975322 -1.548082 4.000000
10.329309 9.843346 -2.015446 4.000000
7.097968 2.482892 -1.321867 1.000000
12.127796 -1.007742 -2.161161 1.000000
4.653007 -2.590894 -0.796883 8.000000
9.963252 -13.031392 -1.530395 1.000000
10.270282 9.715518 -2.012070 5.000000
7.246639 2.503709 -1.350513 1.000000
12.178541 -1.059059 -2.166511 5.000000
4.605155 -2.586407 -0.786537 8.000000
9.959927 -13.116965 -1.522061 5.000000
10.272065 9.646111 -2.018027 4.000000
7.327253 2.510108 -1.367095 1.000000
12.110459 -1.097876 -2.157290 1.000000
4.608338 -2.611521 -0.786897 8.000000
9.910757 -13.156796 -1.499063 6.000000
10.269877 9.580167 -2.026356 4.000000
7.361300 2.498825 -1.377737 1.000000
12.200060 -1.148949 -2.171746 3.000000
4.561471 -2.604984 -0.776618 8.000000
9.915424 -13.254222 -1.494758 4.000000
10.152518 9.398045 -2.010856 5.000000
7.463379 2.518957 -1.397435 1.000000
12.180651 -1.196470 -2.169128 1.000000
4.530018 -2.611192 -0.769311 8.000000
9.836166 -13.254072 -1.464337 6.000000
7.621304 2.541181 -1.429590 1.000000
12.097975 -1.235268 -2.153045 6.000000
4.500407 -2.614045 -0.762039 7.000000
9.837240 -13.347786 -1.456495 4.000000
7.733151 2.545522 -1.453125 1.000000
12.122592 -1.280554 -2.160403 1.000000
4.469908 -2.618286 -0.754800 1.000000
9.788541 -13.379244 -1.438698 4.000000
7.798116 2.535266 -1.466530 1.000000
12.152452 -1.328763 -2.164377 16.000000
4.401087 -2.599686 -0.741139 1.000000
9.775008 -13.459085 -1.423132 6.000000
7.952331 2.551683 -1.498191 1.000000
12.044896 -1.363825 -2.143956 32.000000
4.430350 -2.638923 -0.743097 1.000000
9.764491 -13.548767 -1.408270 6.000000
4.656279 4.122426 -0.942748 1.000000
8.054451 2.551928 -1.521747 1.000000
11.893476 -1.390849 -2.115742 40.000000
4.475555 -2.689185 -0.750545 1.000000
9.744082 -13.620433 -1.394515 5.000000
4.651925 4.088254 -0.946568 1.000000
8.157352 2.550106 -1.543948 1.000000
11.898191 -1.437732 -2.115390 68.000000
4.414492 -2.676672 -0.737503 4.000000
9.730042 -13.711762 -1.382303 2.000000
4.635049 4.046261 -0.945894 4.000000
8.297765 2.560654 -1.571867 1.000000
11.877558 -1.481533 -2.114872 41.000000
4.389024 -2.681175 -0.731982 5.000000
9.728406 -13.806236 -1.370762 4.000000
4.624017 4.012517 -0.946679 3.000000
8.467664 2.574287 -1.606781 1.000000
11.862115 -1.527990 -2.111045 14.000000
4.360399 -2.681486 -0.724886 6.000000
9.664989 -13.828702 -1.345589 3.000000
4.602864 3.967481 -0.946166 4.000000
8.687072 2.609552 -1.653306 1.000000
11.914917 -1.577092 -2.123572 1.000000
4.351697 -2.696064 -0.723099 7.000000
9.636374 -13.880427 -1.332831 5.000000
4.601858 3.937308 -0.947318 5.000000
8.677609 2.570425 -1.652879 1.000000
12.027258 -1.636838 -2.138095 4.000000
4.355025 -2.720265 -0.719820 7.000000
9.626074 -13.974650 -1.314643 4.000000
4.592785 3.900480 -0.950044 4.000000
8.714185 2.546555 -1.664607 1.000000
12.069280 -1.689783 -2.148896 2.000000
4.336963 -2.731131 -0.715748 8.000000
9.564678 -14.000288 -1.295729 5.000000
4.606159 3.882869 -0.957405 4.000000
10.995971 3.167588 -2.104335 1.000000
12.063073 -1.736166 -2.146769 1.000000
4.318773 -2.741834 -0.712580 8.000000
9.569797 -14.113297 -1.282136 5.000000
4.551557 3.808393 -0.948458 6.000000
10.978420 3.119001 -2.102893 1.000000
12.017288 -1.774559 -2.141950 1.000000
4.309216 -2.757979 -0.708115 8.000000
9.504391 -14.122717 -1.265032 1.000000
4.580037 3.803770 -0.956811 5.000000
10.974695 3.072450 -2.108132 4.000000
12.030230 -1.823697 -2.143300 3.000000
4.303656 -2.776707 -0.705225 9.000000
9.516416 -14.242322 -1.254876 3.000000
4.577808 3.773654 -0.960886 5.000000
10.922857 3.014810 -2.104220 1.000000
12.042557 -1.870744 -2.148896 7.000000
4.272511 -2.779905 -0.699146 9.000000
9.481144 -14.297321 -1.238739 6.000000
4.571861 3.740692 -0.962044 4.000000
10.881464 2.958468 -2.098114 1.000000
12.065204 -1.921735 -2.149841 1.000000
4.258558 -2.793096 -0.694912 9.000000
9.486841 -14.414907 -1.224859 5.000000
4.568656 3.711523 -0.966022 6.000000
10.886425 2.917009 -2.103101 1.000000
12.043525 -1.965728 -2.145112 1.000000
4.240530 -2.803554 -0.689124 10.000000
9.437483 -14.455002 -1.204123 1.000000
4.593093 3.703512 -0.973600 6.000000
10.849313 2.862461 -2.097846 4.000000
12.065013 -2.014662 -2.152441 5.000000
4.218156 -2.811033 -0.684455 15.000000
9.428447 -14.551874 -1.188158 4.000000
4.560394 3.648340 -0.968928 7.000000
10.868316 2.822883 -2.107524 1.000000
12.135596 -2.074375 -2.162008 2.000000
4.199993 -2.821214 -0.679584 40.000000
9.351172 -14.543604 -1.169652 4.000000
4.568309 3.628593 -0.975238 7.000000
10.873116 2.781630 -2.110519 1.000000
12.084620 -2.111278 -2.152083 4.000000
4.194218 -2.839699 -0.675830 21.000000
9.368546 -14.694349 -1.154432 5.000000
4.557674 3.592980 -0.975357 7.000000
10.820345 2.723907 -2.106297 1.000000
12.100294 -2.161928 -2.158548 1.000000
4.192261 -2.860839 -0.674495 11.000000
9.365767 -14.798018 -1.141712 5.000000
4.562998 3.568853 -0.978755 7.000000
10.734169 2.660415 -2.091608 1.000000
12.078111 -2.205855 -2.151668 1.000000
4.182135 -2.876452 -0.670952 10.000000
9.330713 -14.857144 -1.122230 6.000000
4.551120 3.534029 -0.980798 1.000000
10.729277 2.615516 -2.092675 1.000000
12.035685 -2.243721 -2.147763 1.000000
4.184074 -2.900433 -0.670252 9.000000
9.289970 -14.907556 -1.105113 1.000000
4.578704 3.528624 -0.991217 1.000000
10.723039 2.572394 -2.097582 1.000000
12.090614 -2.302034 -2.154699 1.000000
4.182022 -2.921761 -0.667106 9.000000
9.280572 -15.008944 -1.088578 5.000000
4.575262 3.499318 -0.992864 3.000000
10.650856 2.511868 -2.085518 1.000000
12.067959 -2.343588 -2.149966 1.000000
4.183827 -2.945901 -0.665478 9.000000
9.254864 -15.096649 -1.070639 4.000000
4.638239 3.520615 -1.010004 4.000000
10.597161 2.456290 -2.079045 1.000000
12.015390 -2.381291 -2.142214 1.000000
4.177329 -2.964286 -0.663441 8.000000
9.192172 -15.118466 -1.054294 4.000000
4.611668 3.472618 -1.006497 1.000000
10.575949 2.410563 -2.080987 1.000000
11.977615 -2.419462 -2.137046 1.000000
4.166812 -2.979846 -0.659865 9.000000
9.163348 -15.178275 -1.034715 2.000000
4.556274 3.422191 -0.997594 1.000000
10.541294 2.360122 -2.076279 4.000000
12.051477 -2.478197 -2.149542 1.000000
4.159232 -2.982111 -0.658333 8.000000
9.157124 -15.288326 -1.018187 1.000000
4.575843 3.410728 -1.005295 1.000000
10.538866 2.319048 -2.081926 1.000000
11.979205 -2.511316 -2.138355 1.000000
4.160612 -3.006251 -0.657559 8.000000
9.104242 -15.321105 -0.999524 5.000000
4.604628 3.403516 -1.013762 1.000000
10.499351 2.268122 -2.074329 1.000000
12.027558 -2.571899 -2.144388 1.000000
4.146019 -3.018897 -0.652449 9.000000
9.079119 -15.400990 -0.983883 3.000000
4.531416 3.326221 -1.003306 1.000000
10.457836 2.217159 -2.076044 2.000000
11.978907 -2.605254 -2.143937 6.000000
4.143107 -3.040076 -0.651917 8.000000
9.053364 -15.486770 -0.968395 3.000000
4.574691 3.332255 -1.015274 7.000000
10.378694 2.160661 -2.062587 5.000000
11.950771 -2.645046 -2.136219 1.000000
4.136291 -3.058460 -0.648955 8.000000
8.992321 -15.506330 -0.945687 5.000000
4.562082 3.297546 -1.015872 8.000000
10.389954 2.121415 -2.072797 4.000000
11.910970 -2.684253 -2.135323 1.000000
4.129394 -3.076834 -0.645986 8.000000
9.055572 -15.741762 -0.942221 1.000000
4.564986 3.274239 -1.021941 8.000000
10.353302 2.072552 -2.071536 6.000000
11.881011 -2.725480 -2.134005 1.000000
4.121606 -3.095714 -0.645708 8.000000
8.978777 -15.735090 -0.920918 1.000000
4.541711 3.270768 -1.025200 8.000000
10.185515 2.040813 -2.058755 3.000000
11.790617 -2.704744 -2.141714 8.000000
4.145225 -3.103281 -0.659662 8.000000
8.997731 -15.774703 -0.945390 4.000000
4.554301 3.305252 -1.025695 9.000000
10.158382 2.075980 -2.054867 1.000000
11.645321 -2.626522 -2.122155 1.000000
4.128241 -3.067020 -0.659728 8.000000
9.024696 -15.694427 -0.967810 3.000000
4.562587 3.336864 -1.026232 7.000000
10.141452 2.111272 -2.051115 1.000000
11.659402 -2.582692 -2.127198 3.000000
4.134279 -3.049168 -0.665368 8.000000
9.036175 -15.588219 -0.988431 5.000000
4.573935 3.372195 -1.028616 1.000000
10.161355 2.156156 -2.060568 8.000000
11.662525 -2.538578 -2.134655 1.000000
4.136861 -3.027725 -0.669452 8.000000
9.054291 -15.500772 -1.013070 2.000000
10.124940 2.189090 -2.051115 4.000000
11.588842 -2.478086 -2.125896 5.000000
4.151276 -3.014972 -0.676368 8.000000
9.112774 -15.476595 -1.035577 3.000000
4.617669 3.455715 -1.036710 1.000000
10.136010 2.230401 -2.055000 1.000000
11.539024 -2.421139 -2.123533 1.000000
4.153061 -2.994180 -0.681317 8.000000
9.076833 -15.293207 -1.050335 5.000000
4.526956 3.413784 -1.015061 1.000000
10.136943 2.271449 -2.056942 1.000000
11.488538 -2.366618 -2.121087 1.000000
4.159394 -2.975638 -0.686013 9.000000
9.172859 -15.332803 -1.083414 5.000000
4.710588 3.597610 -1.052604 1.000000
10.132928 2.311446 -2.057913 5.000000
11.428130 -2.312619 -2.114736 3.000000
4.179110 -2.954596 -0.694719 8.000000
9.173996 -15.213909 -1.102168 1.000000
4.510657 3.471166 -1.006667 1.000000
10.139011 2.353826 -2.057193 1.000000
11.451075 -2.269451 -2.121488 1.000000
4.185356 -2.936064 -0.698508 10.000000
9.213381 -15.159309 -1.122294 2.000000
4.545295 3.524421 -1.012098 1.000000
10.135789 2.392263 -2.054528 2.000000
11.400617 -2.218121 -2.112787 1.000000
4.179326 -2.909036 -0.700244 9.000000
9.213391 -15.040780 -1.137530 1.000000
4.548565 3.553729 -1.010527 7.000000
10.169458 2.441471 -2.063237 1.000000
11.407978 -2.172061 -2.120895 1.000000
4.197505 -2.898910 -0.706949 9.000000
9.249269 -14.981690 -1.160184 4.000000
4.528322 3.564718 -1.004779 7.000000
10.165473 2.481835 -2.060553 1.000000
11.372353 -2.120062 -2.114829 3.000000
4.194630 -2.875350 -0.711104 15.000000
9.279450 -14.913862 -1.185147 4.000000
4.550650 3.609387 -1.007440 8.000000
10.166531 2.521612 -2.058829 1.000000
11.359606 -2.076681 -2.115264 1.000000
4.196540 -2.854108 -0.713262 15.000000
9.314776 -14.854784 -1.204549 4.000000
4.564244 3.648808 -1.009342 6.000000
10.156773 2.560630 -2.058829 1.000000
11.307961 -2.024437 -2.110469 1.000000
4.206248 -2.838218 -0.719462 15.000000
9.320369 -14.749063 -1.223086 5.000000
4.547686 3.662972 -1.003396 6.000000
10.161819 2.603441 -2.058060 4.000000
11.256800 -1.970700 -2.103616 3.000000
4.216204 -2.822502 -0.723004 11.000000
9.394992 -14.747182 -1.247247 3.000000
4.565660 3.705122 -1.004013 8.000000
10.181396 2.648260 -2.060163 1.000000
11.239351 -1.925216 -2.101081 5.000000
4.238361 -2.814894 -0.729561 9.000000
9.364758 -14.587109 -1.257753 6.000000
4.579168 3.744003 -1.006807 7.000000
10.233174 2.703721 -2.070808 1.000000
11.183187 -1.867411 -2.095239 1.000000
4.256275 -2.804365 -0.736318 8.000000
9.447159 -14.603084 -1.286381 4.000000
4.562421 3.758295 -0.999779 7.000000
10.261333 2.753355 -2.074780 1.000000
11.193446 -1.830991 -2.100107 1.000000
4.265985 -2.788393 -0.740766 8.000000
9.445476 -14.489329 -1.300506 3.000000
4.549285 3.775548 -0.994620 6.000000
10.223459 2.783401 -2.065331 3.000000
11.156340 -1.780965 -2.093886 4.000000
4.271590 -2.769765 -0.743601 7.000000
9.484166 -14.438265 -1.320112 1.000000
4.554863 3.808457 -0.994623 5.000000
10.259998 2.835710 -2.074897 1.000000
11.201476 -1.740086 -2.107111 7.000000
4.285217 -2.756344 -0.749660 8.000000
9.516973 -14.378579 -1.341903 3.000000
4.591922 3.865388 -1.000125 4.000000
10.254456 2.876605 -2.072136 1.000000
11.192241 -1.700661 -2.106346 5.000000
4.294737 -2.740266 -0.754106 9.000000
9.502581 -14.248519 -1.353906 5.000000
4.580925 3.887657 -0.994655 5.000000
10.281959 2.925013 -2.077910 1.000000
11.124302 -1.646662 -2.100478 5.000000
4.279009 -2.708215 -0.755017 9.000000
9.517838 -14.164038 -1.373005 4.000000
4.587421 3.919413 -0.993473 4.000000
11.003423 -1.587578 -2.078549 22.000000
4.246691 -2.666010 -0.750269 23.000000
9.610797 -14.189752 -1.396968 1.000000
4.591000 3.954462 -0.992247 4.000000
8.932380 2.615396 -1.800748 1.000000
10.970143 -1.539801 -2.073132 36.000000
4.280947 -2.665691 -0.759990 46.000000
9.600179 -14.068060 -1.412220 1.000000
4.614400 4.004172 -0.994996 5.000000
8.669191 2.572870 -1.746304 1.000000
10.961008 -1.495625 -2.072303 69.000000
4.332297 -2.675681 -0.770996 4.000000
9.628484 -14.004292 -1.430092 4.000000
4.611623 4.031487 -0.990994 4.000000
8.626922 2.596409 -1.736523 1.000000
10.950725 -1.453358 -2.075326 39.000000
4.392197 -2.690487 -0.783574 1.000000
9.667650 -13.956655 -1.452541 2.000000
4.632228 4.076680 -0.992796 2.000000
8.472622 2.583874 -1.702549 1.000000
10.970487 -1.413137 -2.080026 38.000000
4.333626 -2.632814 -0.777738 9.000000
9.655420 -13.835575 -1.464204 3.000000
4.641829 4.127007 -0.992646 4.000000
8.326598 2.574328 -1.675180 1.000000
11.058119 -1.383242 -2.097680 9.000000
4.359021 -2.618129 -0.784450 9.000000
9.670646 -13.749732 -1.479555 4.000000
4.636248 4.149654 -0.987709 4.000000
8.134736 2.549272 -1.633910 1.000000
11.102008 -1.345457 -2.107031 1.000000
4.392673 -2.618558 -0.792594 10.000000
9.700405 -13.690239 -1.494496 3.000000
4.711862 4.251522 -1.001768 2.000000
8.144605 2.585186 -1.634692 1.000000
11.101114 -1.302117 -2.111958 3.000000
4.401523 -2.602017 -0.797949 11.000000
9.741126 -13.646476 -1.517021 2.000000
7.976464 2.565570 -1.598363 1.000000
11.046867 -1.254726 -2.102758 5.000000
4.414811 -2.588083 -0.802293 17.000000
9.755635 -13.566408 -1.532481 3.000000
7.883210 2.567496 -1.580051 1.000000
11.100075 -1.217616 -2.113999 1.000000
4.474899 -2.601318 -0.816103 7.000000
9.792503 -13.512911 -1.551044 4.000000
8.173868 7.474238 -1.728504 21.000000
7.780526 2.567138 -1.558471 1.000000
11.089644 -1.173397 -2.113155 4.000000
4.475352 -2.579681 -0.818152 7.000000
9.809135 -13.436898 -1.566743 5.000000
8.245645 7.595550 -1.739538 1.000000
7.654906 2.558325 -1.530886 1.000000
10.995035 -1.122652 -2.100324 1.000000
4.514038 -2.579985 -0.829073 7.000000
9.854673 -13.400801 -1.589970 3.000000
8.212058 7.620438 -1.724319 1.000000
7.464736 2.525222 -1.490422 1.000000
11.043993 -1.084819 -2.104852 3.000000
4.540140 -2.572874 -0.835865 7.000000
9.867808 -13.320985 -1.602098 4.000000
8.264379 7.725556 -1.733155 1.000000
7.382860 2.537799 -1.475121 1.000000
11.027417 -1.040456 -2.106925 2.000000
4.549030 -2.555929 -0.839508 7.000000
9.930272 -13.303089 -1.624785 4.000000
7.162642 2.516745 -1.427650 1.000000
11.021007 -0.999111 -2.106988 1.000000
4.600976 -2.562974 -0.851128 7.000000
9.963313 -13.250610 -1.645987 6.000000
7.098971 2.523642 -1.409987 1.000000
11.029288 -0.957179 -2.109855 1.000000
4.605940 -2.542616 -0.854003 7.000000
9.945556 -13.131317 -1.649989 5.000000
6.909102 2.486068 -1.372835 1.000000
11.027988 -0.914417 -2.108919 1.000000
4.636349 -2.537276 -0.861699 7.000000
9.974279 -13.069437 -1.667086 3.000000
6.937569 2.525069 -1.376321 1.000000
11.016211 -0.872799 -2.108040 1.000000
4.684122 -2.541154 -0.872661 7.000000
9.997191 -13.005078 -1.686460 5.000000
9.641606 9.346631 -1.990108 5.000000
6.780887 2.497568 -1.343215 1.000000
10.974014 -0.830919 -2.105370 1.000000
4.701287 -2.528208 -0.879867 7.000000
10.010813 -12.929143 -1.701325 5.000000
9.660213 9.430300 -1.983878 5.000000
6.772345 2.522650 -1.339431 1.000000
10.953637 -0.783245 -2.096840 4.000000
4.744939 -2.529306 -0.889188 7.000000
10.023386 -12.847827 -1.712699 5.000000
9.722307 9.560758 -1.989228 5.000000
6.694252 2.522873 -1.322018 1.000000
10.970770 -0.744065 -2.101572 1.000000
4.754204 -2.510851 -0.892003 7.000000
10.076087 -12.822833 -1.734192 5.000000
9.730861 9.639579 -1.983547 5.000000
6.566138 2.502113 -1.294715 3.000000
10.983348 -0.702562 -2.103450 1.000000
4.762683 -2.493047 -0.896695 7.000000
5.209067 -6.579281 -0.901263 5.000000
9.829805 9.809239 -1.998660 4.000000
6.543347 2.522244 -1.288325 4.000000
10.989766 -0.660612 -2.110153 1.000000
4.815005 -2.497994 -0.908709 6.000000
5.203320 -6.525091 -0.908111 7.000000
9.798749 9.850190 -1.984824 5.000000
6.442624 2.510579 -1.269050 4.000000
10.972284 -0.623051 -2.106388 3.000000
4.836433 -2.486656 -0.916882 7.000000
5.181796 -6.451769 -0.910650 9.000000
9.856461 9.977621 -1.986075 5.000000
6.392779 2.519472 -1.254930 4.000000
10.935202 -0.575003 -2.100770 1.000000
4.849623 -2.471006 -0.919614 6.000000
5.179898 -6.401208 -0.913460 10.000000
9.862634 10.057335 -1.982196 5.000000
6.319733 2.517483 -1.241167 1.000000
10.946951 -0.537310 -2.102654 1.000000
4.880360 -2.463109 -0.928549 7.000000
5.191982 -6.370538 -0.923282 9.000000
9.913503 10.183604 -1.984732 5.000000
6.160866 2.480400 -1.205756 1.000000
10.939036 -0.496739 -2.100770 1.000000
4.946081 -2.473575 -0.943295 6.000000
5.220986 -6.358395 -0.933015 10.000000
10.003256 10.347826 -1.994557 5.000000
6.060358 2.467019 -1.186751 1.000000
10.866177 -0.451628 -2.092334 1.000000
4.928028 -2.442008 -0.942091 6.000000
5.255082 -6.354561 -0.945344 10.000000
9.938787 10.356833 -1.979046 5.000000
6.047299 2.487579 -1.182435 4.000000
10.892506 -0.407025 -2.097057 1.000000
4.985159 -2.447601 -0.954284 7.000000
5.257417 -6.312387 -0.951964 9.000000
10.049111 10.548920 -1.993155 5.000000
5.929416 2.465750 -1.156599 1.000000
10.908517 -0.371403 -2.099891 1.000000
5.006912 -2.434467 -0.962655 6.000000
5.308495 -6.326417 -0.967234 14.000000
10.015214 10.590792 -1.978569 1.000000
5.861915 2.462918 -1.141748 1.000000
10.889865 -0.328911 -2.098014 1.000000
5.064168 -2.439397 -0.974970 7.000000
5.355528 -6.337412 -0.980577 10.000000
8.704571 9.269426 -1.707947 1.000000
5.911856 2.510652 -1.149873 1.000000
10.866508 -0.286447 -2.093287 1.000000
5.161685 -2.463104 -0.994056 5.000000
5.368285 -6.305484 -0.988934 11.000000
8.695207 9.327731 -1.701478 5.000000
5.930123 2.544105 -1.152908 1.000000
10.862576 -0.246506 -2.092341 1.000000
5.160986 -2.439587 -0.997326 6.000000
5.412204 -6.312296 -1.001793 10.000000
8.668600 9.361237 -1.691007 4.000000
5.899175 2.555246 -1.145145 5.000000
10.852894 -0.204596 -2.094239 1.000000
5.200057 -2.435885 -1.007358 6.000000
5.473316 -6.336425 -1.020661 10.000000
8.546772 9.301059 -1.658494 1.000000
5.925861 2.595106 -1.146514 5.000000
10.854330 -0.162934 -2.090450 1.000000
5.262927 -2.439620 -1.020763 5.000000
5.501328 -6.324095 -1.029186 10.000000
8.513790 9.333599 -1.645266 1.000000
5.939189 2.626927 -1.148610 6.000000
10.835217 -0.122927 -2.086668 4.000000
5.311882 -2.437579 -1.032642 6.000000
5.533568 -6.314270 -1.039807 10.000000
8.500836 9.388279 -1.633668 1.000000
10.811061 -0.081138 -2.081941 1.000000
5.400966 -2.454535 -1.051408 5.000000
5.580873 -6.323580 -1.056501 10.000000
8.502314 9.456043 -1.626749 1.000000
5.539746 2.497800 -1.068228 1.000000
10.854383 -0.039784 -2.096134 1.000000
5.439654 -2.450385 -1.062722 5.000000
5.611081 -6.315471 -1.065738 10.000000
8.306884 9.307076 -1.582597 1.000000
5.392278 2.455130 -1.037256 1.000000
10.874461 0.000000 -2.098028 3.000000
5.452838 -2.431182 -1.067768 6.000000
5.653166 -6.316063 -1.079850 10.000000
8.305055 9.370666 -1.575149 1.000000
5.338555 2.455461 -1.025557 5.000000
10.791660 0.037670 -2.078159 1.000000
5.538085 -2.444896 -1.083789 5.000000
5.697660 -6.321234 -1.093185 9.000000
8.228744 9.340249 -1.557099 1.000000
5.339806 2.477523 -1.024194 6.000000
10.854558 0.075780 -2.094239 1.000000
5.558818 -2.432055 -1.091727 6.000000
5.711284 -6.294251 -1.099328 9.000000
8.228524 9.415935 -1.546467 1.000000
5.308160 2.488784 -1.015816 5.000000
10.854166 0.119353 -2.094239 1.000000
5.613416 -2.427979 -1.104852 6.000000
5.757919 -6.296892 -1.114243 9.000000
8.063478 9.292335 -1.506276 1.000000
5.268033 2.494689 -1.005772 6.000000
10.750542 0.159499 -2.074348 1.000000
5.680540 -2.432336 -1.119642 6.000000
5.810394 -6.307699 -1.129051 10.000000
8.020672 9.311734 -1.491584 1.000000
5.210425 2.490829 -0.993396 7.000000
10.834024 0.202349 -2.086668 1.000000
5.738700 -2.432388 -1.132712 5.000000
5.849388 -6.303511 -1.142822 9.000000
7.927831 9.262638 -1.466769 1.000000
5.198321 2.506254 -0.988520 6.000000
10.822748 0.238043 -2.088556 1.000000
5.769286 -2.421630 -1.140458 5.000000
5.881871 -6.298713 -1.154482 9.000000
7.840172 9.228476 -1.443936 1.000000
5.184693 2.524265 -0.984656 7.000000
10.777584 0.278456 -2.080031 1.000000
5.832076 -2.422883 -1.154524 5.000000
5.947033 -6.317462 -1.171535 9.000000
7.834656 9.287492 -1.433829 1.000000
5.127358 2.519639 -0.971411 7.000000
10.825873 0.321304 -2.087613 2.000000
5.936112 -2.439420 -1.177887 5.000000
5.959073 -6.283944 -1.178597 9.000000
7.737877 9.247836 -1.407965 1.000000
5.104561 2.533926 -0.964918 7.000000
10.815410 0.364453 -2.081943 1.000000
5.986287 -2.431996 -1.189394 5.000000
6.007485 -6.290869 -1.193101 10.000000
7.687443 9.252996 -1.391889 1.000000
5.056167 2.533044 -0.953458 7.000000
10.852451 0.407425 -2.093291 1.000000
5.990440 -2.406927 -1.191869 5.000000
6.053668 -6.292890 -1.207002 9.000000
7.632432 9.255589 -1.373210 1.000000
5.029248 2.543762 -0.947182 7.000000
10.836456 0.448498 -2.088559 3.000000
6.053464 -2.406519 -1.206173 4.000000
6.103380 -6.298200 -1.221664 9.000000
7.582032 9.253544 -1.358791 1.000000
4.986519 2.542951 -0.934691 6.000000
10.855258 0.485341 -2.088548 1.000000
6.084112 -2.394143 -1.214149 3.000000
6.124430 -6.275937 -1.230847 9.000000
7.502081 9.224729 -1.335801 1.000000
4.959913 2.552333 -0.929450 7.000000
10.799367 0.524399 -2.078167 3.000000
6.180125 -2.403319 -1.234966 3.000000
6.177720 -6.284299 -1.246331 9.000000
7.483198 9.267408 -1.325561 1.000000
4.937072 2.565698 -0.923101 8.000000
10.850846 0.568669 -2.090445 1.000000
6.275446 -2.413946 -1.255880 6.000000
6.210240 -6.271236 -1.257675 9.000000
7.420865 9.256130 -1.303467 1.000000
4.911320 2.574128 -0.914989 8.000000
10.834710 0.607651 -2.083823 3.000000
6.325396 -2.405319 -1.267686 5.000000
6.253222 -6.268519 -1.271180 9.000000
7.332026 9.214317 -1.281307 1.000000
4.884969 2.583184 -0.907875 8.000000
10.793447 0.646920 -2.074393 1.000000
6.337314 -2.385828 -1.272152 5.000000
6.305681 -6.277132 -1.286893 9.000000
7.266746 9.197995 -1.263083 1.000000
4.862965 2.594401 -0.901595 8.000000
10.804859 0.689251 -2.080998 1.000000
6.391854 -2.378379 -1.284956 5.000000
6.355838 -6.280850 -1.301977 9.000000
7.243134 9.237513 -1.250350 1.000000
4.818938 2.593646 -0.893228 8.000000
10.880881 0.736061 -2.094195 2.000000
6.464448 -2.378454 -1.301523 5.000000
6.398864 -6.277179 -1.317255 9.000000
7.178047 9.220608 -1.232288 1.000000
4.813828 2.614783 -0.890209 8.000000
10.892804 0.776984 -2.097023 1.000000
6.551596 -2.381996 -1.319738 5.000000
6.426830 -6.260741 -1.328105 5.000000
7.107156 9.202223 -1.209762 1.000000
4.786795 2.625039 -0.881285 8.000000
10.881041 0.818150 -2.089425 1.000000
6.620337 -2.376944 -1.336740 5.000000
7.050251 9.191388 -1.190954 1.000000
4.609208 2.549670 -0.846531 3.000000
10.839017 0.856856 -2.080004 1.000000
6.712300 -2.380906 -1.356029 3.000000
4.278389 -4.074255 -0.892443 1.000000
7.033820 9.236553 -1.183380 1.000000
4.747596 2.646821 -0.871609 5.000000
10.894120 0.897574 -2.095094 1.000000
6.701362 -2.350723 -1.356006 3.000000
4.222967 -3.994858 -0.884341 1.000000
6.954522 9.198862 -1.159167 1.000000
4.751567 2.671910 -0.868276 32.000000
10.866892 0.941175 -2.084677 3.000000
6.788138 -2.353258 -1.375710 4.000000
4.205054 -3.947428 -0.884620 1.000000
6.909540 9.209336 -1.145111 1.000000
4.702807 2.669396 -0.856479 10.000000
10.892181 0.985516 -2.092217 7.000000
6.876237 -2.351581 -1.395501 5.000000
4.208082 -3.921355 -0.887366 4.000000
6.875091 9.230365 -1.132564 1.000000
4.732902 2.707268 -0.860663 32.000000
10.898638 1.026386 -2.092186 1.000000
6.944819 -2.346639 -1.410318 5.000000
4.203608 -3.888497 -0.889551 4.000000
6.802339 9.199549 -1.109735 1.000000
4.714564 2.720858 -0.854354 8.000000
10.939334 1.072611 -2.096797 1.000000
7.017458 -2.343924 -1.427417 4.000000
4.195311 -3.852384 -0.890911 5.000000
6.769373 9.225505 -1.095756 1.000000
4.705074 2.738418 -0.850554 9.000000
10.906569 1.107849 -2.089262 1.000000
7.095458 -2.341104 -1.444233 6.000000
4.183159 -3.813061 -0.891430 5.000000
6.714354 9.217813 -1.080001 1.000000
4.682734 2.748442 -0.844448 7.000000
10.965166 1.158291 -2.103355 1.000000
7.173684 -2.336410 -1.462417 5.000000
4.178219 -3.780612 -0.892459 4.000000
6.697600 9.262578 -1.066399 1.000000
4.660378 2.758336 -0.838362 8.000000
10.966614 1.201040 -2.098516 1.000000
7.261147 -2.335494 -1.481255 3.000000
4.195023 -3.767946 -0.899146 5.000000
6.603300 9.203014 -1.044785 1.000000
4.650739 2.775698 -0.834581 8.000000
11.001983 1.241848 -2.104058 1.000000
7.292709 -2.314785 -1.490027 3.000000
4.155334 -3.707475 -0.892983 4.000000
6.580536 9.239208 -1.032305 1.000000
4.649626 2.798197 -0.831369 8.000000
11.011687 1.289679 -2.104924 1.000000
7.328344 -2.297969 -1.498443 1.000000
4.165902 -3.686976 -0.897047 4.000000
6.520221 9.222483 -1.013975 1.000000
4.622931 2.805263 -0.824565 9.000000
10.963589 1.322857 -2.094603 4.000000
7.379897 -2.295756 -1.510715 1.000000
4.140850 -3.639106 -0.895823 5.000000
6.472779 9.226939 -0.997971 1.000000
4.634192 2.835388 -0.824541 8.000000
11.046299 1.377847 -2.109432 1.000000
7.491464 -2.316130 -1.534145 3.000000
4.116384 -3.590950 -0.892570 8.000000
6.418454 9.217770 -0.980721 1.000000
4.616206 2.847689 -0.816415 8.000000
10.997932 1.410819 -2.099118 1.000000
7.536532 -2.301273 -1.544576 2.000000
4.091746 -3.543132 -0.888286 140.000000
6.381346 9.233039 -0.964181 1.000000
4.623016 2.875336 -0.815591 8.000000
11.012497 1.459601 -2.097022 1.000000
7.671902 -2.310441 -1.571942 1.000000
4.085292 -3.511425 -0.889879 93.000000
6.338466 9.239788 -0.948780 1.000000
4.621307 2.897817 -0.813265 8.000000
10.992106 1.497914 -2.096176 1.000000
7.783256 -2.312896 -1.595954 1.000000
4.082532 -3.483117 -0.891303 112.000000
6.337669 9.308114 -0.939664 1.000000
4.598711 2.907185 -0.806305 8.000000
10.997628 1.537787 -2.092219 5.000000
7.899825 -2.314561 -1.621007 1.000000
4.079504 -3.454777 -0.893625 130.000000
6.278954 9.294928 -0.924176 1.000000
4.605184 2.934956 -0.805425 8.000000
10.977412 1.577958 -2.087506 1.000000
8.029963 -2.320766 -1.650500 7.000000
4.076442 -3.426608 -0.894975 112.000000
6.205641 9.255890 -0.900514 1.000000
4.578454 2.941573 -0.796809 7.000000
10.992441 1.621262 -2.083449 6.000000
8.081273 -2.302011 -1.659218 6.000000
4.066720 -3.399100 -0.893607 106.000000
6.184943 9.295002 -0.888485 1.000000
4.583670 2.961906 -0.795172 7.000000
11.014929 1.667818 -2.090922 6.000000
8.098379 -2.273302 -1.667028 1.000000
4.065989 -3.375649 -0.895725 109.000000
6.197003 9.383987 -0.881093 1.000000
4.577394 2.981690 -0.792079 8.000000
11.014679 1.709100 -2.086008 1.000000
4.059877 -3.343136 -0.896137 115.000000
6.107328 9.318769 -0.861224 1.000000
4.583558 3.009690 -0.790164 8.000000
11.013247 1.752210 -2.084982 6.000000
4.059927 -3.318281 -0.899109 112.000000
6.137851 9.437032 -0.856334 1.000000
4.572956 3.026773 -0.786336 8.000000
11.036263 1.799347 -2.086592 7.000000
10.049090 -2.698286 -2.075356 5.000000
4.056145 -3.290466 -0.900287 130.000000
6.207158 9.613189 -0.856387 1.000000
4.570862 3.049539 -0.781043 7.000000
11.025105 1.839036 -2.083724 6.000000
10.049433 -2.658928 -2.073400 5.000000
4.051076 -3.264139 -0.901430 128.000000
4.597079 3.091439 -0.783508 7.000000
11.018321 1.881417 -2.081773 61.000000
10.035144 -2.613959 -2.072130 5.000000
4.059806 -3.244382 -0.904205 119.000000
4.582184 3.105872 -0.777978 8.000000
10.929742 1.907545 -2.062337 74.000000
10.034907 -2.572793 -2.073787 5.000000
4.132538 -3.277759 -0.924363 7.000000
4.583595 3.131408 -0.775221 7.000000
10.937918 1.952279 -2.059262 64.000000
10.034060 -2.533418 -2.075437 1.000000
4.124670 -3.246961 -0.923712 7.000000
4.593148 3.162688 -0.772839 8.000000
10.955580 1.996893 -2.059930 37.000000
10.038957 -2.493690 -2.074454 1.000000
4.128146 -3.225261 -0.926551 7.000000
4.591329 3.183932 -0.769337 8.000000
10.996522 2.048012 -2.067073 1.000000
10.042993 -2.453789 -2.077080 6.000000
4.111510 -3.189214 -0.924997 8.000000
4.587178 3.208399 -0.765816 8.000000
11.105216 2.112408 -2.084933 5.000000
10.017852 -2.408772 -2.073782 4.000000
4.104132 -3.157185 -0.925140 8.000000
4.600229 3.242701 -0.764971 8.000000
11.180537 2.169226 -2.094387 1.000000
9.997701 -2.363357 -2.071449 7.000000
4.119073 -3.144715 -0.929638 8.000000
4.589316 3.259047 -0.761042 8.000000
11.134248 2.204640 -2.083191 4.000000
9.958260 -2.313695 -2.065135 2.000000
4.113017 -3.118557 -0.931512 8.000000
4.582123 3.279269 -0.754828 8.000000
11.194298 2.259200 -2.091841 5.000000
10.000517 -2.283077 -2.072065 4.000000
4.108174 -3.091237 -0.931550 8.000000
4.506288 3.250037 -0.739358 39.000000
11.147360 2.294308 -2.082648 1.000000
10.002622 -2.245018 -2.078232 6.000000
4.108069 -3.065408 -0.933349 8.000000
4.498876 3.269824 -0.735164 184.000000
11.211796 2.350436 -2.092149 2.000000
9.953743 -2.193937 -2.066311 4.000000
4.119153 -3.049126 -0.937821 8.000000
4.496627 3.291034 -0.730640 151.000000
11.247410 2.403024 -2.092205 4.000000
9.938147 -2.150519 -2.061344 4.000000
4.105071 -3.017681 -0.935089 8.000000
4.501587 3.318856 -0.728359 156.000000
11.282148 2.453719 -2.098244 1.000000
9.974369 -2.120117 -2.069084 5.000000
4.131332 -3.013724 -0.943163 8.000000
4.493983 3.338743 -0.723143 170.000000
11.308569 2.500838 -2.096417 1.000000
9.952948 -2.075654 -2.066668 6.000000
4.142339 -2.997452 -0.946732 8.000000
11.256466 19.615187 -1.248569 6.000000
4.494129 3.364486 -0.720165 175.000000
11.348043 2.553230 -2.101263 1.000000
9.950532 -2.038931 -2.064676 6.000000
4.126838 -2.976369 -0.943957 8.000000
11.154201 19.595108 -1.213229 6.000000
4.509068 3.386735 -0.719410 153.000000
11.430722 2.617985 -2.109965 1.000000
9.933916 -1.995813 -2.061465 3.000000
4.137699 -2.960118 -0.947509 9.000000
11.064460 19.596249 -1.179391 6.000000
4.505034 3.409604 -0.715745 192.000000
11.450524 2.666727 -2.111173 1.000000
9.907515 -1.952757 -2.054487 2.000000
4.123799 -2.927383 -0.946430 9.000000
10.972383 19.592600 -1.145421 6.000000
4.501089 3.432637 -0.710087 202.000000
11.426908 2.707525 -2.102374 1.000000
9.967820 -1.921304 -2.068995 9.000000
4.142130 -2.917623 -0.950922 9.000000
10.878018 19.584139 -1.111341 6.000000
4.505309 3.460794 -0.707618 168.000000
11.518829 2.773933 -2.112607 1.000000
9.955564 -1.882923 -2.063233 2.000000
4.148593 -2.898407 -0.954417 9.000000
10.786321 19.579752 -1.073750 6.000000
4.505143 3.486997 -0.701519 143.000000
11.581247 2.836056 -2.117448 1.000000
9.962721 -1.844683 -2.063233 6.000000
4.146801 -2.874594 -0.953398 10.000000
10.791321 19.588829 -1.066424 5.000000
11.641284 2.848604 -2.115390 1.000000
10.032301 -1.857566 -2.066517 4.000000
4.138928 -2.878773 -0.948070 10.000000
10.848125 19.522295 -1.080587 6.000000
4.516256 3.456687 -0.698311 124.000000
11.618851 2.798020 -2.105135 1.000000
10.051648 -1.901096 -2.058984 6.000000
4.141773 -2.903334 -0.942016 10.000000
10.939961 19.526711 -1.110350 6.000000
4.516652 3.430811 -0.700443 114.000000
11.710969 2.772672 -2.119880 1.000000
10.097910 -1.948207 -2.068041 5.000000
4.139938 -2.924736 -0.938539 9.000000
11.078700 19.613472 -1.141124 6.000000
4.520782 3.407891 -0.704158 100.000000
11.648871 2.710777 -2.111045 1.000000
10.163922 -2.001452 -2.075595 6.000000
4.141874 -2.948920 -0.936834 9.000000
11.148969 19.577969 -1.164971 6.000000
4.513082 3.376216 -0.704024 114.000000
11.692327 2.675753 -2.117128 1.000000
10.162033 -2.041644 -2.071151 1.000000
4.135828 -2.967518 -0.932410 9.000000
11.273700 19.637278 -1.198574 6.000000
4.516284 3.336998 -0.709386 170.000000
11.644507 2.617797 -2.108782 1.000000
10.179208 -2.083937 -2.072423 5.000000
4.129568 -2.986015 -0.928864 9.000000
11.371447 19.648376 -1.229482 6.000000
4.515983 3.311256 -0.712393 198.000000
11.648498 2.573879 -2.112077 1.000000
10.234243 -2.136181 -2.081487 5.000000
4.120231 -3.017763 -0.923527 9.000000
4.511745 3.282790 -0.712791 184.000000
11.643860 2.526002 -2.109461 1.000000
10.279798 -2.186913 -2.086724 3.000000
4.110047 -3.033511 -0.917287 9.000000
4.510042 3.258731 -0.715746 114.000000
11.623428 2.476998 -2.108380 1.000000
10.258043 -2.221616 -2.080139 1.000000
4.119290 -3.063719 -0.917226 8.000000
4.510688 3.231718 -0.716738 168.000000
11.613939 2.428394 -2.102816 1.000000
10.298754 -2.271867 -2.082498 8.000000
4.108799 -3.079370 -0.911849 8.000000
4.586649 3.260767 -0.731897 9.000000
11.646570 2.388579 -2.111329 1.000000
10.314240 -2.316849 -2.085495 5.000000
4.105977 -3.100822 -0.909108 8.000000
4.598046 3.243564 -0.736808 8.000000
11.611091 2.336989 -2.107594 1.000000
10.335083 -2.361355 -2.087601 5.000000
4.103052 -3.122294 -0.906349 9.000000
4.593341 3.215098 -0.737147 8.000000
11.639659 2.296271 -2.109028 2.000000
10.365589 -2.410241 -2.087900 1.000000
4.096365 -3.140980 -0.900908 8.000000
4.600600 3.195119 -0.740406 8.000000
11.608610 2.245974 -2.106154 2.000000
10.376065 -2.454710 -2.088029 1.000000
4.089344 -3.159464 -0.897259 8.000000
4.606555 3.176664 -0.744634 8.000000
11.582571 2.194831 -2.104131 1.000000
10.396335 -2.499778 -2.090062 3.000000
4.101803 -3.193167 -0.896948 8.000000
4.605467 3.151068 -0.746551 8.000000
11.584585 2.155442 -2.105310 3.000000
10.396901 -2.542182 -2.088245 1.000000
4.102442 -3.217882 -0.894039 8.000000
4.605344 3.123917 -0.748448 8.000000
11.617727 2.111299 -2.109707 8.000000
10.440871 -2.595460 -2.091267 5.000000
4.090666 -3.234093 -0.889489 8.000000
4.603996 3.098425 -0.750323 7.000000
11.441239 2.033875 -2.078317 82.000000
10.436754 -2.635091 -2.088463 5.000000
4.118643 -3.279639 -0.892383 8.000000
4.594173 3.067409 -0.751794 7.000000
11.413960 1.985897 -2.076200 74.000000
10.436774 -2.677767 -2.086607 3.000000
4.065018 -3.261355 -0.877735 143.000000
4.599752 3.049130 -0.754973 7.000000
11.430170 1.947636 -2.079987 82.000000
10.450872 -2.724196 -2.087590 4.000000
4.060491 -3.283429 -0.876661 155.000000
4.598985 3.022117 -0.757742 8.000000
11.501367 1.912290 -2.089429 30.000000
10.499180 -2.777924 -2.091395 3.000000
4.053080 -3.302079 -0.871103 130.000000
6.153434 9.442951 -0.809888 1.000000
4.587796 2.993029 -0.758156 8.000000
11.594685 1.886237 -2.109406 1.000000
10.499609 -2.817290 -2.089492 7.000000
4.060600 -3.333041 -0.870628 143.000000
6.150229 9.366390 -0.818920 1.000000
4.606493 2.981215 -0.764316 8.000000
11.542432 1.832272 -2.104921 1.000000
4.056661 -3.354769 -0.866750 152.000000
6.163070 9.314916 -0.830015 1.000000
4.609750 2.957135 -0.765804 8.000000
11.583472 1.795286 -2.109079 1.000000
4.060903 -3.382216 -0.863544 137.000000
6.218733 9.324596 -0.846673 1.000000
4.599218 2.926641 -0.766148 8.000000
11.560723 1.746331 -2.105807 2.000000
8.118175 -2.280387 -1.611612 1.000000
4.067958 -3.413422 -0.862941 121.000000
4.614830 2.909489 -0.773509 8.000000
11.507901 1.695235 -2.099232 3.000000
8.059145 -2.292667 -1.598363 1.000000
4.074124 -3.445340 -0.863227 127.000000
4.617229 2.886285 -0.774957 8.000000
11.548057 1.655872 -2.107485 1.000000
8.027489 -2.317016 -1.589304 1.000000
4.070627 -3.474187 -0.858151 121.000000
6.370422 9.338691 -0.895645 1.000000
4.619786 2.862156 -0.778291 9.000000
11.558838 1.612147 -2.110410 1.000000
7.919660 -2.320373 -1.566802 3.000000
4.077265 -3.505763 -0.856478 124.000000
6.251507 9.092599 -0.887802 1.000000
4.629781 2.844920 -0.782084 8.000000
11.588681 1.573030 -2.116900 1.000000
7.788779 -2.314537 -1.539717 1.000000
4.083616 -3.537339 -0.855696 83.000000
6.316728 9.119113 -0.904231 1.000000
4.618581 2.814770 -0.782299 8.000000
11.589392 1.527830 -2.118050 1.000000
7.640387 -2.300950 -1.504828 1.000000
4.086182 -3.565860 -0.853146 96.000000
6.458720 9.261802 -0.934276 1.000000
4.640124 2.806839 -0.788233 9.000000
11.623825 1.489046 -2.125444 2.000000
7.534111 -2.297658 -1.482619 6.000000
4.151554 -3.649798 -0.864640 7.000000
6.472096 9.208861 -0.941212 1.000000
4.645545 2.786913 -0.792241 8.000000
11.620060 1.443236 -2.121616 1.000000
7.388747 -2.305583 -1.451319 1.000000
4.131539 -3.659135 -0.856352 6.000000
6.526804 9.211316 -0.959893 1.000000
4.639210 2.757848 -0.793115 9.000000
11.634917 1.399739 -2.125444 1.000000
7.350822 -2.330406 -1.441752 2.000000
4.148912 -3.700444 -0.856664 7.000000
6.601743 9.248472 -0.978146 1.000000
4.670114 2.753104 -0.800535 9.000000
11.566304 1.348497 -2.114092 1.000000
7.270772 -2.342791 -1.421303 1.000000
4.154257 -3.732640 -0.855598 5.000000
6.606709 9.194209 -0.990525 1.000000
4.661659 2.727329 -0.801384 9.000000
11.580807 1.305136 -2.117912 1.000000
7.238593 -2.363141 -1.415401 1.000000
4.188852 -3.791564 -0.859525 5.000000
6.671987 9.213602 -1.005246 1.000000
4.683971 2.717388 -0.807366 8.000000
11.658500 1.270636 -2.133369 1.000000
7.189170 -2.373416 -1.404535 1.000000
4.142602 -3.777416 -0.847865 5.000000
6.712183 9.201326 -1.020482 1.000000
4.706145 2.707247 -0.814316 9.000000
11.584648 1.217596 -2.121084 1.000000
7.087446 -2.370051 -1.382381 1.000000
4.154871 -3.816587 -0.847192 4.000000
6.746721 9.174476 -1.034396 1.000000
4.755140 2.710084 -0.824812 28.000000
11.603551 1.174554 -2.125807 1.000000
6.990302 -2.368807 -1.359949 1.000000
4.134244 -3.825672 -0.839808 2.000000
6.779422 9.155178 -1.046778 41.000000
4.760015 2.690894 -0.825976 9.000000
11.587827 1.130071 -2.124253 1.000000
6.959403 -2.385451 -1.351567 1.000000
4.099022 -3.821063 -0.830495 2.000000
6.867125 9.206246 -1.069504 1.000000
4.760718 2.668314 -0.828293 39.000000
11.567225 1.083241 -2.121794 1.000000
6.853483 -2.377251 -1.330063 2.000000
6.916370 9.205047 -1.086353 1.000000
4.765385 2.648023 -0.833252 10.000000
11.600511 1.043482 -2.127183 1.000000
6.817117 -2.394001 -1.320869 1.000000
6.988430 9.230311 -1.104583 1.000000
4.748575 2.615950 -0.832504 21.000000
11.564510 0.999562 -2.122023 2.000000
6.688436 -2.376384 -1.293775 5.000000
4.309990 -4.105783 -0.864147 1.000000
7.037892 9.228525 -1.121613 1.000000
4.896666 2.674185 -0.858737 1.000000
11.568228 0.951081 -2.124049 1.000000
6.624348 -2.382300 -1.279330 4.000000
7.069101 9.202651 -1.137817 1.000000
4.818738 2.608744 -0.849263 1.000000
11.551703 0.911168 -2.120449 2.000000
6.611367 -2.405034 -1.275980 5.000000
7.138719 9.223107 -1.153850 1.000000
4.805977 2.579103 -0.849242 8.000000
11.559653 0.867146 -2.123372 1.000000
6.561155 -2.415335 -1.264289 3.000000
7.169998 9.197015 -1.168098 1.000000
4.838027 2.570258 -0.856913 7.000000
11.567719 0.819039 -2.126297 1.000000
6.427532 -2.395487 -1.236675 5.000000
6.453222 -6.279868 -1.279925 10.000000
7.227354 9.200839 -1.186380 1.000000
4.876714 2.570112 -0.865208 7.000000
11.555651 0.779681 -2.123591 1.000000
6.359868 -2.395586 -1.221584 5.000000
6.395760 -6.269754 -1.263510 15.000000
7.286298 9.209518 -1.205268 1.000000
4.916969 2.566160 -0.875476 7.000000
11.548630 0.730626 -2.123808 1.000000
6.318606 -2.409051 -1.211851 5.000000
6.357154 -6.275574 -1.250664 9.000000
7.331745 9.197481 -1.217575 1.000000
4.925934 2.547910 -0.878379 6.000000
11.526804 0.684818 -2.119295 1.000000
6.241436 -2.405867 -1.195120 6.000000
6.313965 -6.278799 -1.237181 9.000000
7.390889 9.205564 -1.236632 1.000000
4.942596 2.535789 -0.883822 7.000000
11.518823 0.646019 -2.119503 4.000000
6.187713 -2.410001 -1.182849 5.000000
6.274325 -6.285285 -1.224441 10.000000
7.447032 9.209458 -1.255270 1.000000
4.991359 2.536644 -0.894802 6.000000
11.565416 0.604094 -2.127634 1.000000
6.183995 -2.434694 -1.180246 3.000000
6.220614 -6.277328 -1.210583 10.000000
7.495462 9.200176 -1.272404 1.000000
5.017841 2.527004 -0.900900 7.000000
11.527887 0.559774 -2.122421 1.000000
6.079115 -2.420403 -1.158460 4.000000
6.182174 -6.282247 -1.197961 9.000000
7.583439 9.242092 -1.294519 1.000000
5.057424 2.523743 -0.910388 7.000000
11.426054 0.510861 -2.107423 1.000000
6.025086 -2.424512 -1.146343 5.000000
6.142668 -6.288035 -1.185389 10.000000
7.622583 9.220672 -1.310213 1.000000
5.097041 2.520221 -0.919923 7.000000
11.540932 0.471602 -2.128262 1.000000
5.998042 -2.440432 -1.139476 6.000000
6.106639 -6.297163 -1.173531 10.000000
7.685639 9.231141 -1.328236 1.000000
5.137129 2.515542 -0.929507 6.000000
11.434846 0.425292 -2.106332 1.000000
5.948615 -2.445771 -1.128310 5.000000
6.075156 -6.308612 -1.162371 10.000000
7.724910 9.209453 -1.341923 1.000000
5.159195 2.502946 -0.934915 6.000000
11.524858 0.384333 -2.122625 1.000000
5.871930 -2.439440 -1.112022 6.000000
6.015151 -6.292296 -1.146020 10.000000
7.794421 9.226718 -1.363337 1.000000
5.198876 2.498698 -0.944574 6.000000
11.462351 0.338192 -2.110858 1.000000
5.844890 -2.454565 -1.105257 5.000000
5.975807 -6.297187 -1.133667 10.000000
7.856235 9.231045 -1.381079 1.000000
5.243189 2.496381 -0.954079 7.000000
11.482808 0.296677 -2.116483 1.000000
5.754933 -2.441639 -1.085435 5.000000
5.947799 -6.311651 -1.123290 10.000000
7.932720 9.255263 -1.401769 1.000000
5.238746 2.469635 -0.955691 7.000000
11.474030 0.252368 -2.114671 1.000000
5.701183 -2.443530 -1.073634 5.000000
5.901710 -6.308912 -1.109748 10.000000
7.975202 9.236100 -1.418393 1.000000
5.331922 2.489716 -0.976293 6.000000
11.503672 0.208831 -2.124124 1.000000
5.669668 -2.455834 -1.066135 5.000000
5.859214 -6.309681 -1.095407 10.000000
8.078103 9.289519 -1.443985 1.000000
5.346041 2.470218 -0.979168 6.000000
11.489612 0.166453 -2.121400 1.000000
5.619819 -2.461081 -1.054201 6.000000
5.821115 -6.312701 -1.083260 10.000000
8.232157 9.396896 -1.478620 1.000000
5.358648 2.453381 -0.983074 6.000000
11.505656 0.122500 -2.120107 1.000000
5.571131 -2.462971 -1.043391 5.000000
5.781951 -6.316529 -1.071165 12.000000
8.224293 9.322067 -1.486757 1.000000
5.429537 2.461805 -1.000834 5.000000
11.461049 0.078014 -2.115954 1.000000
5.508559 -2.459484 -1.030102 7.000000
5.736155 -6.312799 -1.057889 9.000000
8.264186 9.304905 -1.499399 1.000000
5.437511 2.443715 -1.001875 7.000000
11.486583 0.036086 -2.116483 1.000000
5.455064 -2.459618 -1.018553 6.000000
5.701646 -6.319000 -1.045030 11.000000
8.379923 9.365852 -1.527513 1.000000
5.535716 2.463502 -1.023736 1.000000
11.476067 -0.002003 -2.118677 1.000000
5.420010 -2.466614 -1.010401 7.000000
5.669120 -6.329441 -1.035787 9.000000
8.364622 9.283336 -1.536516 1.000000
11.495641 -0.046147 -2.122308 1.000000
5.371254 -2.468230 -0.998747 5.000000
5.614721 -6.312907 -1.020890 10.000000
8.510894 9.376338 -1.570525 1.000000
5.711035 2.490343 -1.060503 1.000000
11.529796 -0.090557 -2.128662 1.000000
5.308661 -2.463073 -0.987730 6.000000
5.577908 -6.313554 -1.010539 10.000000
8.554319 9.355051 -1.583434 1.000000
5.778439 2.494569 -1.074706 2.000000
11.514638 -0.132645 -2.125939 1.000000
5.277773 -2.473413 -0.977466 7.000000
5.555541 -6.334880 -1.000246 10.000000
8.562083 9.298159 -1.594539 1.000000
5.751200 2.456655 -1.071248 2.000000
11.558290 -0.177537 -2.134109 1.000000
5.220098 -2.469759 -0.965346 6.000000
5.514625 -6.332681 -0.986451 11.000000
8.682476 9.359823 -1.626409 5.000000
5.768379 2.439032 -1.078402 2.000000
11.523111 -0.221255 -2.127755 1.000000
5.135659 -2.452885 -0.949345 6.000000
5.472452 -6.330956 -0.975649 10.000000
8.707156 9.320961 -1.638503 4.000000
5.804627 2.428128 -1.085689 1.000000
11.492728 -0.262813 -2.122308 1.000000
5.117765 -2.468517 -0.944725 7.000000
5.441387 -6.339612 -0.963705 10.000000
8.855730 9.417211 -1.674338 1.000000
5.985577 2.478083 -1.123650 2.000000
11.569639 -0.304982 -2.140872 1.000000
5.122581 -2.494024 -0.943207 5.000000
5.412214 -6.352588 -0.955277 9.000000
8.902817 9.398024 -1.688205 1.000000
5.962167 2.442832 -1.121043 5.000000
11.494668 -0.347178 -2.127230 1.000000
5.052007 -2.482610 -0.927845 6.000000
5.377815 -6.357030 -0.944283 10.000000
8.909817 9.333369 -1.701050 1.000000
6.025737 2.441899 -1.134732 1.000000
11.468984 -0.392489 -2.120680 1.000000
5.016788 -2.488173 -0.920034 7.000000
5.361607 -6.385187 -0.935224 9.000000
10.454367 10.871287 -2.004384 6.000000
6.079807 2.437906 -1.146758 1.000000
11.560741 -0.440078 -2.137944 1.000000
4.990121 -2.498867 -0.912896 7.000000
5.352640 -6.419880 -0.928701 9.000000
10.397702 10.737093 -2.002253 5.000000
6.275823 2.489844 -1.185645 1.000000
11.539317 -0.483641 -2.134309 1.000000
4.937452 -2.495168 -0.900962 7.000000
