VERSION .7
FIELDS x y z intensity
SIZE 4 4 4 4
TYPE F F F F
COUNT 1 1 1 1
WIDTH 1220
HEIGHT 1
VIEWPOINT 0 0 0 1 0 0 0
POINTS 1220
DATA ascii
47.900608 -8.050194 -2.035785 3.000000
58.937702 -38.847500 -1.256780 15.000000
11.321557 -17.446999 0.254114 9.000000
11.948335 9.375428 -1.067344 1.000000
12.857465 3.243890 -0.808715 1.000000
47.726219 -8.209440 -2.038165 1.000000
59.056133 -39.221943 -1.237463 19.000000
11.338593 -17.614300 0.274227 8.000000
11.977943 9.327932 -1.080242 1.000000
12.791498 3.177424 -0.808446 1.000000
48.272171 -8.485627 -2.045656 1.000000
59.423664 -39.780678 -1.198273 6.000000
11.298437 -17.687271 0.293066 10.000000
12.173082 9.408427 -1.108219 1.000000
12.696401 3.102093 -0.810836 1.000000
48.186306 -8.652721 -2.051907 1.000000
59.356548 -40.051571 -1.174870 9.000000
11.231105 -17.717888 0.314894 22.000000
12.254351 9.399696 -1.123312 1.000000
12.731808 3.061337 -0.814670 1.000000
44.778881 -8.210384 -1.900118 9.000000
59.424980 -40.415504 -1.128963 5.000000
11.136636 -17.712088 0.335979 27.000000
12.569478 9.568444 -1.165607 1.000000
12.936629 3.060474 -0.836370 1.000000
44.856194 -8.394608 -1.912670 6.000000
59.741634 -40.936588 -1.112401 15.000000
11.093138 -17.780340 0.351172 20.000000
12.460588 9.413616 -1.163265 16.000000
12.903875 3.002826 -0.835856 1.000000
59.793388 -41.294918 -1.065433 20.000000
10.993532 -17.765350 0.368314 34.000000
30.545343 22.900763 -2.877224 9.000000
43.876816 -8.544684 -1.865715 17.000000
59.941486 -41.722507 -1.045291 1.000000
10.936475 -17.811796 0.390379 32.000000
30.498646 22.691614 -2.905009 9.000000
13.221482 2.974741 -0.871618 1.000000
43.692986 -8.675221 -1.867026 1.000000
60.115883 -42.171822 -1.025382 8.000000
10.902176 -17.902761 0.406133 7.000000
30.362581 22.417963 -2.923961 9.000000
13.392771 2.961750 -0.886997 1.000000
60.307751 -42.621307 -0.979621 6.000000
8.176750 -13.533383 0.320166 5.000000
28.331484 20.758301 -2.751854 8.000000
13.618124 2.956785 -0.908490 1.000000
44.059097 -9.084110 -1.877600 4.000000
60.477325 -43.074387 -0.946050 1.000000
8.085622 -13.488709 0.332169 7.000000
28.135321 20.456514 -2.756045 8.000000
48.615932 -10.209541 -2.082057 9.000000
60.563011 -43.470871 -0.923850 1.000000
8.058935 -13.556620 0.349635 7.000000
28.135391 20.299351 -2.779213 8.000000
42.179714 8.834852 -2.862370 1.000000
48.548874 -10.381391 -2.080801 10.000000
60.772167 -43.959389 -0.903306 22.000000
8.031721 -13.618845 0.364319 2.000000
29.167589 20.881943 -2.911403 2.000000
42.161472 8.669846 -2.881594 1.000000
37.368404 -27.229532 -0.540705 7.000000
10.522720 -17.993055 0.494859 25.000000
28.006042 19.895502 -2.830416 3.000000
42.122025 8.500941 -2.914419 3.000000
37.083054 -27.230247 -0.529985 22.000000
10.414522 -17.951548 0.507212 29.000000
26.683819 18.963202 -2.737390 5.000000
42.312553 8.539392 -3.003295 7.000000
37.050816 -27.196625 -0.601663 9.000000
10.432384 -17.982336 0.482668 35.000000
27.319382 19.565969 -2.804023 2.000000
42.055202 8.647993 -3.002319 8.000000
37.378540 -27.246906 -0.662037 6.000000
10.515569 -17.980827 0.458149 32.000000
25.454721 18.372036 -2.602979 1.000000
42.174046 8.833665 -3.020652 3.000000
48.494934 -10.378708 -2.269357 6.000000
60.741051 -43.936882 -1.151488 22.000000
8.050053 -13.655375 0.329275 6.000000
27.894505 20.288868 -2.847932 8.000000
8.036386 -13.518685 0.307466 7.000000
27.748806 20.338820 -2.822513 8.000000
44.013039 -9.082622 -2.111476 6.000000
60.229542 -42.913750 -1.277960 1.000000
8.094042 -13.508101 0.283121 7.000000
27.759438 20.503437 -2.813029 9.000000
46.169704 10.201765 -3.322962 21.000000
44.000889 -8.912102 -2.132871 5.000000
60.262112 -42.589050 -1.352472 16.000000
8.164530 -13.518487 0.270148 1.000000
27.837593 20.719286 -2.804239 10.000000
46.077793 10.367180 -3.302620 8.000000
43.968842 -8.737968 -2.145434 9.000000
60.003613 -42.077442 -1.394382 6.000000
10.913277 -17.920992 0.329618 7.000000
27.733948 20.800539 -2.795369 9.000000
12.767479 2.921798 -0.922760 1.000000
43.818096 -8.541188 -2.159966 10.000000
59.882935 -41.697273 -1.477540 10.000000
10.944587 -17.831987 0.303114 24.000000
12.589110 9.514163 -1.258533 1.000000
12.854156 2.991256 -0.925182 1.000000
59.770035 -41.278793 -1.534249 10.000000
10.959585 -17.717402 0.279994 18.000000
12.457850 9.490338 -1.240793 1.000000
12.799421 3.028014 -0.922035 1.000000
44.751766 -8.383150 -2.234763 9.000000
59.612751 -40.878857 -1.589832 20.000000
11.114574 -17.821627 0.256618 10.000000
12.233871 9.390772 -1.211070 1.000000
12.565313 3.021304 -0.903695 1.000000
44.825630 -8.227042 -2.252878 7.000000
59.469536 -40.430630 -1.631900 14.000000
11.126304 -17.702511 0.233562 12.000000
12.176377 9.417765 -1.197976 1.000000
12.462397 3.044919 -0.892590 1.000000
59.308163 -40.033989 -1.673801 7.000000
11.241680 -17.748270 0.209012 29.000000
12.016443 9.364655 -1.177585 1.000000
12.460835 3.092979 -0.893284 1.000000
59.140125 -39.590862 -1.739327 9.000000
11.315639 -17.707386 0.187056 9.000000
12.037578 9.452246 -1.172295 1.000000
12.420151 3.133557 -0.886731 1.000000
48.257030 -8.309418 -2.480572 2.000000
59.024712 -39.230774 -1.769228 19.000000
11.808151 9.342259 -1.140063 1.000000
12.345914 3.163002 -0.880017 1.000000
58.874424 -38.820530 -1.834345 19.000000
11.343582 -17.487625 0.141886 7.000000
11.653434 9.289501 -1.120557 1.000000
12.459753 3.240879 -0.888973 1.000000
58.828934 -38.496574 -1.865566 1.000000
11.426517 -17.481520 0.120288 8.000000
11.675977 9.374313 -1.115352 1.000000
12.669947 3.345179 -0.900242 1.000000
47.924274 -7.710545 -2.501431 6.000000
11.465530 -17.408216 0.098229 8.000000
11.506305 9.307651 -1.094604 1.000000
12.440779 3.333497 -0.884821 1.000000
47.635654 -7.485100 -2.501794 38.000000
11.556970 -17.407820 0.072937 9.000000
11.496043 9.369264 -1.083875 1.000000
12.712779 3.456368 -0.900441 1.000000
47.612114 -7.302687 -2.524425 39.000000
11.631606 -17.388212 0.047466 23.000000
11.462208 9.411814 -1.073521 1.000000
12.416603 3.424766 -0.875829 1.000000
47.850464 -7.159838 -2.544122 16.000000
10.272503 -15.235348 0.022449 3.000000
11.289731 9.339678 -1.052855 1.000000
12.533675 3.506540 -0.884988 1.000000
38.715061 -5.647917 -2.077837 4.000000
11.761383 -17.312849 0.003653 6.000000
12.405239 3.522024 -0.872346 1.000000
38.665936 -5.496093 -2.080942 38.000000
11.841704 -17.294373 -0.014633 8.000000
8.193212 6.879796 -0.751873 1.000000
12.579507 3.621376 -0.880937 1.000000
38.646255 -5.348862 -2.078813 39.000000
9.601393 -13.907622 -0.035395 19.000000
8.103700 6.855433 -0.736651 9.000000
12.355436 3.605961 -0.866166 1.000000
38.749359 -5.218460 -2.090160 9.000000
58.009026 -35.603706 -2.222230 18.000000
9.602213 -13.815774 -0.049921 6.000000
8.063626 6.872397 -0.729719 5.000000
12.552917 3.713578 -0.876368 1.000000
38.822315 -5.083485 -2.099930 63.000000
58.282928 -35.478386 -2.275413 18.000000
6.029742 -8.608167 -0.042190 7.000000
8.004801 6.873070 -0.717420 9.000000
12.472610 3.739590 -0.867147 1.000000
58.607979 -35.382500 -2.330873 18.000000
6.025126 -8.537995 -0.054716 4.000000
7.945976 6.873316 -0.707033 12.000000
12.535487 3.808572 -0.867890 1.000000
51.661896 -6.370743 -2.828213 3.000000
58.993450 -35.320839 -2.377084 18.000000
6.033159 -8.483208 -0.065408 6.000000
7.842115 6.833885 -0.692721 16.000000
12.521444 3.854491 -0.867890 1.000000
51.405823 -6.147973 -2.840131 7.000000
6.080212 -8.480236 -0.076492 5.000000
7.742390 6.797069 -0.678884 11.000000
12.650410 3.945009 -0.873179 1.000000
51.665562 -5.987048 -2.862355 7.000000
59.524872 -35.034847 -2.496465 18.000000
6.122924 -8.474047 -0.085762 1.000000
7.755240 6.858844 -0.673137 18.000000
12.498185 3.947858 -0.859070 1.000000
51.451954 -5.789448 -2.849442 19.000000
59.820030 -34.941998 -2.564508 18.000000
6.134745 -8.434461 -0.098299 1.000000
7.735414 6.889581 -0.664422 1.000000
12.506979 4.003515 -0.856121 1.000000
50.966095 -5.545690 -2.830364 17.000000
37.796539 -21.892265 -1.647438 27.000000
12.446379 -16.980934 -0.220483 4.000000
7.664569 6.872197 -0.653074 1.000000
32.260132 10.444616 -2.198726 7.000000
37.715466 -21.661085 -1.663238 13.000000
7.596619 6.866480 -0.640656 1.000000
32.313118 10.605268 -2.199261 8.000000
37.572773 -21.405066 -1.683874 36.000000
12.059949 -16.209164 -0.250371 5.000000
7.542209 6.867696 -0.631037 1.000000
32.213203 10.703420 -2.183218 25.000000
48.825916 -4.770216 -2.742790 3.000000
37.454449 -21.156202 -1.697643 23.000000
11.690499 -15.598615 -0.265388 8.000000
7.480533 6.861855 -0.620864 1.000000
32.231236 10.840747 -2.175199 10.000000
50.235912 -4.704464 -2.829746 18.000000
37.380810 -20.917122 -1.727926 29.000000
11.798351 -15.617207 -0.286974 8.000000
7.437400 6.872655 -0.610501 1.000000
32.253761 10.980076 -2.161508 8.000000
49.833591 -4.500136 -2.806228 17.000000
37.208679 -20.659079 -1.746554 17.000000
11.904402 -15.649412 -0.305453 7.000000
32.431038 11.173235 -2.164097 7.000000
49.187790 -4.260124 -2.777608 17.000000
37.147671 -20.447443 -1.762401 28.000000
11.870273 -15.486423 -0.320151 7.000000
32.347466 11.277242 -2.161264 3.000000
49.286678 -4.086745 -2.799646 17.000000
37.032990 -20.207813 -1.775563 26.000000
2.968885 -3.815075 -0.090288 9.000000
10.481041 9.897577 -0.836257 1.000000
32.669338 11.523921 -2.167367 2.000000
48.420021 -3.836249 -2.758104 16.000000
36.881618 -19.950136 -1.794114 26.000000
2.990288 -3.810915 -0.095548 9.000000
9.985588 9.492544 -0.787170 1.000000
46.634785 16.624245 -3.080160 2.000000
48.647316 -3.674888 -2.778808 17.000000
36.774124 -19.726376 -1.807415 24.000000
3.015251 -3.816601 -0.100187 8.000000
10.012771 9.595195 -0.780202 1.000000
46.272961 16.704922 -3.043428 10.000000
36.694813 -19.510979 -1.836327 27.000000
3.022264 -3.798146 -0.105064 8.000000
10.046058 9.691205 -0.773076 1.000000
45.823826 16.732872 -2.992262 9.000000
49.042080 -3.334754 -2.799849 8.000000
36.614983 -19.296724 -1.850494 29.000000
3.042359 -3.794770 -0.109525 8.000000
45.285637 16.724714 -2.944187 9.000000
49.043518 -3.154311 -2.807857 18.000000
36.467659 -19.048626 -1.861094 32.000000
3.053692 -3.779081 -0.114500 9.000000
44.793098 16.720728 -2.899191 7.000000
49.194263 -2.982996 -2.815843 17.000000
36.376385 -18.831570 -1.881557 25.000000
3.044062 -3.741713 -0.117885 8.000000
44.710361 16.885721 -2.889639 9.000000
49.582142 -2.824160 -2.863523 17.000000
36.235420 -18.590509 -1.892098 28.000000
3.022177 -3.688437 -0.121535 7.000000
44.119759 16.856522 -2.830811 2.000000
50.967926 -2.715718 -2.942961 2.000000
36.168865 -18.389217 -1.906382 25.000000
3.003774 -3.638690 -0.125202 5.000000
43.718723 16.887186 -2.792614 1.000000
50.788082 -2.519495 -2.932024 18.000000
36.128078 -18.202145 -1.921933 35.000000
3.004220 -3.612182 -0.129592 5.000000
50.921124 -2.339033 -2.948116 7.000000
36.096054 -18.028305 -1.952161 20.000000
2.978226 -3.555608 -0.131985 4.000000
35.141445 13.870932 -2.218075 1.000000
51.487923 -2.175988 -2.980449 3.000000
35.964638 -17.798269 -1.948532 16.000000
2.937567 -3.478603 -0.134335 5.000000
34.929176 13.935328 -2.188128 1.000000
50.019119 -1.930284 -2.894997 1.000000
35.875637 -17.590824 -1.975156 24.000000
2.971058 -3.495924 -0.139371 3.000000
49.995422 -1.745879 -2.901996 1.000000
35.759266 -17.371481 -1.986098 24.000000
2.912265 -3.401401 -0.139939 4.000000
51.827236 -1.628736 -3.007976 3.000000
35.680767 -17.187334 -1.999351 19.000000
2.940936 -3.409512 -0.145435 3.000000
10.254533 10.712024 -0.686355 1.000000
35.792961 -17.064697 -2.036476 5.000000
2.917824 -3.356572 -0.149093 5.000000
10.136635 10.666860 -0.663060 1.000000
51.144581 -1.214220 -2.967726 4.000000
35.827847 -16.920448 -2.041853 4.000000
2.922270 -3.339258 -0.152630 5.000000
10.133858 10.738758 -0.657580 1.000000
50.958012 -1.022930 -2.974515 18.000000
35.675430 -16.688820 -2.064130 4.000000
2.907388 -3.298945 -0.155093 6.000000
10.105140 10.787261 -0.642769 1.000000
45.965591 -0.754184 -2.682919 33.000000
35.404659 -16.404263 -2.065459 8.000000
2.912734 -3.280691 -0.158569 8.000000
35.950172 38.659924 -2.249566 17.000000
45.868225 -0.584434 -2.677093 140.000000
35.295654 -16.196884 -2.076014 20.000000
2.927977 -3.273614 -0.162582 7.000000
35.758728 38.737797 -2.200368 17.000000
32.350548 14.006037 -1.927711 5.000000
21.672159 -0.204261 -1.264846 6.000000
35.344692 -16.062824 -2.095808 1.000000
2.949302 -3.274382 -0.167752 8.000000
35.540180 38.771713 -2.149257 17.000000
32.276737 14.114779 -1.914049 3.000000
21.582916 -0.124310 -1.259603 7.000000
35.821182 -16.121227 -2.141172 1.000000
2.956708 -3.260795 -0.170635 8.000000
35.348648 38.847660 -2.100361 17.000000
32.170891 14.209180 -1.892379 6.000000
21.568033 -0.045172 -1.262493 8.000000
35.855522 -15.993910 -2.153789 1.000000
2.958409 -3.238736 -0.174647 8.000000
35.110363 38.871044 -2.039715 17.000000
32.041981 14.292821 -1.869442 3.000000
21.388580 0.033597 -1.248242 9.000000
36.209702 -15.993033 -2.192318 6.000000
2.980869 -3.238266 -0.179085 8.000000
34.948971 38.937592 -2.000854 29.000000
32.172371 14.492596 -1.861608 1.000000
21.383360 0.104500 -1.247950 10.000000
35.896526 -15.697732 -2.190436 82.000000
2.984693 -3.220919 -0.182511 8.000000
34.780804 39.037121 -1.944575 17.000000
32.284115 14.671908 -1.852260 1.000000
21.307962 0.182233 -1.243581 36.000000
36.026413 -15.597487 -2.208605 143.000000
3.013391 -3.228075 -0.188173 8.000000
34.549225 39.064533 -1.894048 17.000000
21.267179 0.263553 -1.241250 30.000000
36.206158 -15.517979 -2.236814 16.000000
3.011936 -3.201782 -0.191925 8.000000
34.384060 39.152328 -1.846943 17.000000
21.240679 0.341092 -1.247209 37.000000
36.367401 -15.429555 -2.264019 1.000000
3.060201 -3.231550 -0.198208 8.000000
34.192665 39.195789 -1.798188 3.000000
21.239721 0.418949 -1.239794 36.000000
3.054689 -3.202140 -0.200186 8.000000
33.947979 39.232105 -1.739195 10.000000
21.218084 0.496327 -1.238629 33.000000
48.443329 -20.135260 -3.052459 5.000000
3.066283 -3.190795 -0.204048 8.000000
33.838570 39.354855 -1.694573 9.000000
21.231089 0.574496 -1.239503 34.000000
48.545277 -19.989098 -3.082271 7.000000
3.105063 -3.208656 -0.209787 8.000000
33.577675 39.370029 -1.635166 17.000000
63.701843 30.643936 -3.482018 9.000000
21.214090 0.651855 -1.234924 34.000000
47.282986 -19.247711 -3.024018 1.000000
3.099242 -3.179240 -0.212488 8.000000
33.470276 39.508709 -1.600122 1.000000
63.627205 30.895712 -3.434607 18.000000
21.236500 0.730462 -1.236376 36.000000
47.398525 -19.092533 -3.044812 1.000000
3.124739 -3.181979 -0.217336 9.000000
33.432777 39.744919 -1.559587 1.000000
63.361610 31.054247 -3.414046 24.000000
21.238516 0.801053 -1.244086 36.000000
3.146755 -3.180992 -0.222752 9.000000
32.999454 39.522938 -1.501149 17.000000
63.159431 31.242773 -3.372319 13.000000
21.195234 0.884638 -1.241748 101.000000
44.616486 -17.610893 -2.916945 1.000000
3.147129 -3.159236 -0.225897 9.000000
32.810333 39.604553 -1.436568 11.000000
62.930923 31.417353 -3.304725 1.000000
21.212442 0.963251 -1.231799 81.000000
44.928120 -17.525776 -2.941143 1.000000
3.190379 -3.179262 -0.232105 9.000000
32.786526 39.872383 -1.387816 5.000000
62.669689 31.574409 -3.260238 9.000000
21.333410 1.047110 -1.239038 18.000000
3.191216 -3.156869 -0.235250 9.000000
32.464554 39.762947 -1.335227 10.000000
62.225578 31.637146 -3.206517 16.000000
21.349169 1.130072 -1.240196 10.000000
3.202617 -3.145006 -0.239167 9.000000
32.355278 39.898453 -1.291310 15.000000
61.501858 31.553404 -3.138892 23.000000
21.409454 1.211968 -1.247703 9.000000
45.781357 -17.281073 -3.061538 5.000000
3.231297 -3.151090 -0.244436 9.000000
42.386234 52.661354 -1.628507 25.000000
61.125053 31.643625 -3.101484 23.000000
21.474625 1.294635 -1.251769 8.000000
45.772751 -17.086420 -3.082437 4.000000
3.239084 -3.135603 -0.248100 8.000000
42.143742 52.735897 -1.567309 35.000000
60.764202 31.726255 -3.028836 23.000000
21.595404 1.373804 -1.247700 6.000000
43.839844 -16.199455 -2.948637 4.000000
3.290024 -3.161640 -0.254308 4.000000
41.848656 52.762020 -1.492958 214.000000
60.352806 31.793505 -2.978332 23.000000
21.943836 1.476743 -1.268135 2.000000
45.599319 -16.659912 -3.079865 7.000000
41.603168 52.830235 -1.432060 152.000000
60.060802 31.921452 -2.933995 23.000000
40.984287 -14.803751 -2.787382 22.000000
41.422466 52.999271 -1.362046 1.000000
59.676632 31.998331 -2.873578 9.000000
43.715843 -15.609512 -2.985517 5.000000
3.327149 -3.128775 -0.267341 2.000000
31.130711 40.119007 -0.983901 1.000000
59.393295 32.127232 -2.830166 20.000000
43.437714 -15.330929 -2.978812 7.000000
30.938316 40.174221 -0.929349 6.000000
59.381683 32.402840 -2.799772 8.000000
43.426178 -15.148096 -2.998376 5.000000
30.768009 40.242886 -0.884226 10.000000
59.570583 32.789837 -2.766774 17.000000
43.233021 -14.894765 -2.997098 8.000000
30.678263 40.431770 -0.832736 7.000000
59.547356 33.062004 -2.735584 23.000000
29.438480 -10.021676 -2.049144 7.000000
35.830833 20.058016 -1.620549 37.000000
43.021042 -14.453109 -3.030311 7.000000
30.580635 40.907742 -0.739931 1.000000
35.640343 20.123299 -1.593795 33.000000
43.053780 -14.288711 -3.044813 8.000000
30.541155 41.168716 -0.688931 1.000000
35.645218 20.298706 -1.575819 14.000000
42.958725 -14.099190 -3.034767 8.000000
30.439182 41.331993 -0.636119 1.000000
59.964668 34.439445 -2.608160 23.000000
42.904701 -13.907474 -3.043144 8.000000
30.394005 41.589031 -0.593397 1.000000
60.107281 34.814949 -2.583475 23.000000
42.949623 -13.748282 -3.058550 8.000000
3.913255 -3.445146 -0.343551 1.000000
30.257858 41.707569 -0.530618 15.000000
60.184364 35.154816 -2.519221 23.000000
42.713314 -13.500247 -3.053886 8.000000
3.910648 -3.417490 -0.345862 1.000000
31.102896 43.188747 -0.492337 1.000000
60.303165 35.507107 -2.504907 24.000000
42.742435 -13.337341 -3.068156 8.000000
3.945575 -3.422588 -0.351502 1.000000
30.915607 43.262173 -0.436192 7.000000
60.379974 35.851006 -2.476725 24.000000
27.020813 3.222037 -1.526165 2.000000
42.594555 -13.120073 -3.069699 8.000000
60.468422 36.175274 -2.423695 18.000000
42.680023 -12.975319 -3.080233 8.000000
4.023268 -3.438625 -0.363592 1.000000
30.853159 43.834522 -0.336808 1.000000
61.055695 36.860222 -2.403296 20.000000
42.384491 -12.707894 -3.070880 8.000000
3.962698 -3.362991 -0.362524 2.000000
30.717325 43.966805 -0.280831 12.000000
60.802086 37.011864 -2.348888 24.000000
24.519724 3.197612 -1.365157 8.000000
42.237919 -12.495406 -3.080097 8.000000
3.948051 -3.325746 -0.364594 3.000000
30.450726 43.927273 -0.223890 7.000000
60.750221 37.271553 -2.314539 24.000000
24.527866 3.290146 -1.361940 31.000000
42.225456 -12.323592 -3.083589 8.000000
3.960067 -3.311130 -0.367297 1.000000
30.254793 43.971661 -0.176998 1.000000
60.873821 37.655174 -2.274467 24.000000
24.446638 3.370510 -1.353787 21.000000
42.217110 -12.153420 -3.087410 8.000000
3.979654 -3.302799 -0.371617 2.000000
29.949743 43.871773 -0.120525 5.000000
60.982903 38.002831 -2.245579 25.000000
24.409033 3.460881 -1.348114 32.000000
42.054016 -11.939734 -3.087598 8.000000
4.060764 -3.345055 -0.382659 4.000000
29.846962 44.050652 -0.055721 9.000000
60.878357 38.277817 -2.171991 24.000000
24.332651 3.541076 -1.331691 100.000000
42.091652 -11.783882 -3.102503 8.000000
4.053923 -3.321644 -0.383952 1.000000
29.522829 43.901497 0.000000 18.000000
60.939831 38.613937 -2.128570 24.000000
24.329615 3.631744 -1.327938 21.000000
41.912365 -11.568202 -3.101397 8.000000
29.447735 44.138321 0.055564 14.000000
61.106609 39.034241 -2.088713 25.000000
24.296629 3.717907 -1.322570 11.000000
40.971729 -11.147130 -3.043646 8.000000
4.019491 -3.244479 -0.386587 1.000000
29.439734 44.461723 0.111684 8.000000
61.207756 39.415474 -2.058945 25.000000
24.287542 3.807671 -1.327130 22.000000
41.711685 -11.176612 -3.110556 8.000000
3.961052 -3.173401 -0.384299 2.000000
29.300308 44.571545 0.158263 5.000000
61.664955 39.999802 -2.027421 1.000000
24.314907 3.894617 -1.316392 10.000000
40.599949 -10.719389 -3.024700 8.000000
61.713428 40.368755 -1.956815 14.000000
24.319012 3.995467 -1.313159 9.000000
40.894253 -10.636913 -3.051114 8.000000
61.503590 40.554146 -1.903394 25.000000
24.291079 4.073650 -1.308062 9.000000
40.410198 -10.353024 -3.026785 4.000000
29.128998 45.355659 0.338693 4.000000
61.669384 40.957523 -1.873930 10.000000
24.305737 4.167755 -1.305349 9.000000
40.930367 -10.326577 -3.077705 8.000000
3.970868 -3.086787 -0.394948 1.000000
28.967602 45.452518 0.395104 5.000000
61.661144 41.278538 -1.826429 25.000000
24.379274 4.272405 -1.301467 8.000000
40.666847 -10.101697 -3.069789 8.000000
4.033238 -3.111623 -0.403593 5.000000
28.816717 45.618786 0.452049 10.000000
61.755959 41.686291 -1.781918 21.000000
24.319881 4.353930 -1.286167 7.000000
40.368843 -9.870727 -3.051835 8.000000
28.718061 45.816032 0.519075 1.000000
64.104637 43.614552 -1.773049 7.000000
24.372746 4.455650 -1.285482 23.000000
24.425632 4.557897 -1.276099 25.000000
40.756161 -9.641859 -3.090258 8.000000
24.472969 4.659616 -1.270737 28.000000
40.780991 -9.490034 -3.096830 8.000000
41.755009 8.108788 -2.162177 32.000000
40.328384 -9.229025 -3.074391 8.000000
62.405159 43.761520 -1.516729 15.000000
41.755505 8.267813 -2.141413 39.000000
40.294357 -9.065948 -3.061995 8.000000
28.575518 47.407585 0.830913 4.000000
62.481522 44.141220 -1.468892 26.000000
41.936138 8.463426 -2.137282 11.000000
39.912437 -8.826452 -3.044841 8.000000
28.370911 47.441910 0.887675 6.000000
64.535530 45.947826 -1.465803 6.000000
51.037571 10.495076 -2.593964 25.000000
41.027229 -8.907885 -3.134623 8.000000
28.209011 47.566105 0.955641 11.000000
64.408119 46.213779 -1.411385 20.000000
50.974766 10.677041 -2.583631 21.000000
39.869751 -8.503674 -3.043785 8.000000
28.077770 47.723717 1.014835 9.000000
32.867268 23.756985 -0.679558 6.000000
50.917503 10.860008 -2.546294 17.000000
39.758606 -8.327734 -3.040079 8.000000
27.933140 47.859352 1.073690 9.000000
63.313919 46.118542 -1.257854 15.000000
50.853390 11.041353 -2.535990 102.000000
38.884327 -7.995952 -2.984903 8.000000
27.937252 48.271927 1.139070 8.000000
63.076641 46.300510 -1.201863 12.000000
50.823196 11.230012 -2.518309 128.000000
40.113373 -8.110134 -3.069984 8.000000
27.852379 48.515118 1.220652 18.000000
63.345749 46.839176 -1.127580 5.000000
50.851189 11.431836 -2.494402 86.000000
40.706665 -8.067520 -3.112997 8.000000
27.781158 48.784660 1.283806 7.000000
65.407288 48.735336 -1.110492 1.000000
51.058098 11.675109 -2.488309 9.000000
39.790817 -7.734552 -3.047885 8.000000
27.639290 48.931957 1.363647 9.000000
65.069199 48.855339 -1.022562 15.000000
51.040546 11.868117 -2.462059 16.000000
39.741062 -7.573825 -3.034826 8.000000
3.442866 6.155237 0.180986 1.000000
64.580330 48.841721 -0.904481 26.000000
51.241398 12.112954 -2.437033 15.000000
39.729343 -7.420792 -3.031834 8.000000
3.454108 6.228812 0.191483 3.000000
64.182884 48.911957 -0.816905 28.000000
40.659245 -7.440363 -3.093440 8.000000
3.467389 6.227111 0.192862 4.000000
64.215820 48.919346 -0.746762 21.000000
57.187107 13.708300 -2.608711 22.000000
40.971951 -7.497587 -3.066063 8.000000
27.599697 49.282806 1.508704 1.000000
64.545601 48.815456 -0.762736 26.000000
51.238796 12.084014 -2.307712 9.000000
41.358051 -7.725008 -3.067524 8.000000
27.802906 49.221619 1.460573 1.000000
65.183609 48.923450 -0.810829 23.000000
51.302204 11.900647 -2.308588 39.000000
40.876476 -7.790212 -2.997399 8.000000
27.710508 48.660599 1.397889 5.000000
65.458488 48.755722 -0.840514 14.000000
51.137249 11.683816 -2.290236 8.000000
42.041245 -8.179605 -3.077575 3.000000
27.812214 48.425579 1.335542 6.000000
63.207703 46.737103 -0.864400 16.000000
51.144829 11.488471 -2.307007 10.000000
41.039043 -8.140838 -2.984356 2.000000
27.954216 48.281799 1.275804 8.000000
63.156376 46.342079 -0.916064 23.000000
50.980946 11.255537 -2.315998 18.000000
27.873671 47.757462 1.216232 9.000000
63.527493 46.257141 -0.960134 3.000000
50.988075 11.061278 -2.305341 9.000000
27.990835 47.556961 1.155917 6.000000
51.050823 10.860500 -2.324443 8.000000
28.190334 47.515705 1.109065 8.000000
64.424789 46.208714 -1.051712 21.000000
51.193718 10.713576 -2.338466 64.000000
28.269369 47.272114 1.047974 8.000000
64.307976 45.768902 -1.102174 1.000000
51.125401 10.503836 -2.324443 22.000000
28.342222 47.001984 0.996368 5.000000
62.428997 44.087784 -1.093877 14.000000
41.889576 8.446421 -1.903111 11.000000
42.143486 -9.319838 -2.987882 5.000000
56.735928 39.771214 -1.040067 152.000000
41.738625 8.256900 -1.902306 25.000000
44.057724 -9.912679 -3.094476 2.000000
56.872501 39.556866 -1.088281 159.000000
41.758472 8.101899 -1.909284 38.000000
41.868980 -9.596969 -2.935895 1.000000
28.508726 46.159565 0.833341 1.000000
41.817333 7.954393 -1.910629 7.000000
44.133526 -10.286434 -3.065527 5.000000
28.672768 46.064728 0.776598 6.000000
63.792938 43.679935 -1.295532 1.000000
42.833942 -10.149199 -2.970104 2.000000
28.788677 45.875298 0.718451 3.000000
64.221291 43.644745 -1.355354 1.000000
42.108746 -10.140512 -2.907189 30.000000
28.949024 45.775135 0.661734 4.000000
61.760391 41.642227 -1.352207 26.000000
24.736403 4.424044 -1.145492 1.000000
42.191624 -10.332030 -2.900397 8.000000
28.904568 45.336155 0.609988 10.000000
61.696140 41.270786 -1.373398 26.000000
24.801455 4.341929 -1.152163 1.000000
44.317066 -11.008416 -3.040995 3.000000
3.964990 -3.097790 -0.366852 5.000000
29.125076 45.332153 0.564272 3.000000
44.510563 -11.246373 -3.041249 5.000000
61.487240 40.497185 -1.465100 25.000000
24.537048 4.110496 -1.138450 1.000000
44.503895 -11.418379 -3.027525 7.000000
61.345634 40.082317 -1.509395 25.000000
24.596113 4.027768 -1.144857 1.000000
44.569496 -11.609484 -3.010643 9.000000
61.235577 39.690914 -1.541324 25.000000
46.210571 -12.200731 -3.107458 1.000000
61.082737 39.289738 -1.584742 25.000000
44.927452 -12.038275 -3.015969 2.000000
3.982320 -3.230577 -0.352284 2.000000
61.039967 38.946682 -1.630493 24.000000
45.161160 -12.286944 -3.018397 4.000000
4.067204 -3.324229 -0.357184 1.000000
29.475725 43.781921 0.230295 1.000000
60.949020 38.575054 -1.674659 25.000000
44.419926 -12.277001 -2.955972 1.000000
29.827753 43.972706 0.185476 1.000000
60.949795 38.263386 -1.695950 24.000000
45.049267 -12.628850 -2.968117 7.000000
3.966981 -3.289944 -0.341405 1.000000
30.150419 44.116116 0.139892 4.000000
60.914890 37.930935 -1.728693 24.000000
45.483662 -12.930618 -2.983268 9.000000
3.909625 -3.273594 -0.332430 3.000000
30.259760 43.962444 0.083833 6.000000
60.832897 37.615177 -1.772967 24.000000
45.719666 -13.161733 -2.984921 9.000000
3.897821 -3.288088 -0.327980 1.000000
30.542404 44.010292 0.028049 18.000000
60.764980 37.236828 -1.816401 24.000000
45.269890 -13.229266 -2.942472 1.000000
3.912533 -3.325119 -0.326642 2.000000
30.662401 43.871883 -0.018684 7.000000
60.870331 36.995190 -1.852806 24.000000
45.484673 -13.455906 -2.951005 9.000000
3.953603 -3.385058 -0.326544 2.000000
30.792303 43.731842 -0.074679 7.000000
45.373894 -13.604189 -2.930434 23.000000
3.948899 -3.406193 -0.323530 1.000000
30.906744 43.522182 -0.130432 7.000000
60.479488 36.167561 -1.919140 24.000000
3.952267 -3.433232 -0.320200 3.000000
30.985651 43.312233 -0.185895 12.000000
60.369740 35.802189 -1.960518 24.000000
27.371490 3.249318 -1.314335 4.000000
46.691776 -14.391031 -2.979799 1.000000
30.179167 41.890663 -0.216267 1.000000
60.202694 35.405506 -1.975264 23.000000
27.273190 3.145968 -1.304304 1.000000
46.900009 -14.634669 -2.970510 1.000000
3.983566 -3.511986 -0.315510 3.000000
30.239923 41.667545 -0.260588 4.000000
60.110977 35.055687 -2.004491 23.000000
3.892499 -3.457138 -0.304740 1.000000
30.356840 41.507755 -0.314135 1.000000
60.001038 34.725445 -2.033303 23.000000
57.952213 6.254693 -2.779417 3.000000
47.558746 -15.223674 -2.984232 1.000000
59.913265 34.354324 -2.073897 23.000000
58.194946 6.044661 -2.800107 2.000000
47.408661 -15.367424 -2.960871 1.000000
30.610947 41.232704 -0.412300 3.000000
59.833176 34.059074 -2.103493 23.000000
58.124737 5.842606 -2.806001 1.000000
50.179993 -16.469233 -3.109951 1.000000
30.571709 40.880920 -0.472218 1.000000
35.736156 20.169172 -1.282407 28.000000
57.921093 5.607777 -2.815519 1.000000
48.627220 -16.157274 -3.017367 1.000000
30.645916 40.668499 -0.506613 1.000000
35.852863 20.062130 -1.305480 8.000000
58.011360 5.401976 -2.808733 1.000000
29.384975 -9.883428 -1.803884 4.000000
30.682556 40.408131 -0.557904 9.000000
59.523399 33.021526 -2.198632 31.000000
57.826340 5.171036 -2.808995 1.000000
29.405851 -10.010569 -1.796526 6.000000
30.789701 40.256695 -0.601528 10.000000
59.471905 32.708473 -2.239722 23.000000
31.101444 40.356895 -0.658088 5.000000
59.379749 32.374889 -2.267219 22.000000
57.075768 4.682454 -2.780812 1.000000
46.137375 -16.084793 -2.783073 1.000000
59.554974 32.174393 -2.316487 22.000000
56.963097 4.463087 -2.774506 1.000000
46.159054 -16.282339 -2.770821 1.000000
3.337117 -3.164593 -0.234586 4.000000
59.992992 32.127529 -2.364604 21.000000
41.064060 -14.670727 -2.453226 4.000000
3.303948 -3.156218 -0.229868 7.000000
60.113655 31.909184 -2.400412 23.000000
45.781380 -16.545521 -2.713081 7.000000
3.285304 -3.161519 -0.225387 9.000000
31.820086 40.089432 -0.857657 9.000000
60.576141 31.897652 -2.450534 23.000000
45.774044 -16.714695 -2.698854 9.000000
3.266663 -3.166722 -0.220923 9.000000
32.018661 40.051704 -0.903996 12.000000
60.904125 31.785788 -2.495091 23.000000
45.666519 -16.865381 -2.679096 8.000000
3.269464 -3.192765 -0.217905 8.000000
32.189720 39.964466 -0.958440 17.000000
61.178825 31.644386 -2.537689 23.000000
22.368116 1.336747 -1.099856 3.000000
45.774517 -17.096180 -2.654875 6.000000
3.222822 -3.169271 -0.211579 9.000000
32.394623 39.932728 -1.005274 17.000000
62.066463 31.815710 -2.618413 7.000000
21.585054 1.210571 -1.061127 9.000000
46.007099 -17.375458 -2.646215 2.000000
3.211314 -3.181190 -0.207634 9.000000
32.574997 39.855610 -1.051269 14.000000
62.353668 31.647505 -2.637370 13.000000
21.519339 1.127781 -1.061456 31.000000
45.967289 -17.553202 -2.630383 1.000000
3.185618 -3.178953 -0.202789 9.000000
32.580322 39.565281 -1.100449 8.000000
62.982574 31.718264 -2.696720 4.000000
21.389019 1.042356 -1.047339 8.000000
52.569427 -20.295395 -2.982824 9.000000
3.170521 -3.187166 -0.199426 9.000000
32.858017 39.619865 -1.150090 7.000000
21.352419 0.962139 -1.052846 8.000000
52.601665 -20.529688 -2.988902 8.000000
3.163008 -3.201890 -0.195720 9.000000
33.172218 39.701683 -1.201159 5.000000
63.277119 31.287243 -2.798150 24.000000
21.310711 0.882006 -1.054355 8.000000
52.838711 -20.845688 -2.976869 7.000000
3.144375 -3.206449 -0.191366 9.000000
33.152073 39.397255 -1.249393 1.000000
63.309296 31.014902 -2.831499 24.000000
21.248924 0.801445 -1.051146 9.000000
52.762917 -21.039597 -2.957041 28.000000
3.132717 -3.218070 -0.187447 9.000000
33.453915 39.461460 -1.300482 1.000000
63.807724 30.969606 -2.885893 24.000000
21.226765 0.722709 -1.049911 9.000000
52.737820 -21.253946 -2.930129 40.000000
3.117542 -3.226054 -0.183324 9.000000
33.649509 39.398514 -1.347708 17.000000
64.172859 30.829151 -2.946573 24.000000
21.269205 0.646117 -1.051886 10.000000
48.658360 -19.837297 -2.680290 3.000000
3.106371 -3.237031 -0.179409 9.000000
33.750042 39.238045 -1.400478 17.000000
64.476761 30.712408 -2.980807 24.000000
21.231310 0.567086 -1.053618 10.000000
48.611637 -20.006500 -2.662959 6.000000
3.077362 -3.230419 -0.174516 8.000000
33.997551 39.234013 -1.450110 17.000000
64.994080 30.667067 -3.037202 15.000000
21.293156 0.490646 -1.056591 10.000000
3.089636 -3.267198 -0.171960 8.000000
34.202194 39.206715 -1.498725 11.000000
41.408806 19.353254 -1.955700 8.000000
21.294664 0.420033 -1.056591 9.000000
3.068623 -3.266608 -0.167476 7.000000
34.414131 39.145214 -1.556043 17.000000
65.268608 30.213644 -3.115054 17.000000
21.286133 0.338105 -1.056095 9.000000
36.614712 -15.542023 -1.959327 17.000000
3.035732 -3.256564 -0.161694 7.000000
34.626038 39.096348 -1.604752 24.000000
21.332260 0.253188 -1.058325 10.000000
36.490211 -15.647264 -1.920990 6.000000
3.027265 -3.271438 -0.157986 7.000000
34.831367 39.038963 -1.653327 17.000000
21.397902 0.183002 -1.061546 9.000000
36.423450 -15.776931 -1.920507 3.000000
2.998444 -3.264212 -0.153232 7.000000
34.992733 38.972660 -1.710073 17.000000
21.497934 0.105060 -1.074005 10.000000
35.986526 -15.744571 -1.879884 7.000000
3.000573 -3.289504 -0.150815 7.000000
35.228394 38.947018 -1.751305 8.000000
21.548492 0.018805 -1.068978 9.000000
36.016270 -15.915112 -1.863809 8.000000
3.005372 -3.319117 -0.146972 8.000000
35.386478 38.834732 -1.807157 17.000000
35.763180 -15.945235 -1.839739 7.000000
2.984374 -3.317975 -0.144144 8.000000
35.642529 38.869747 -1.850851 9.000000
35.536861 -16.000729 -1.810650 27.000000
2.969560 -3.324774 -0.138536 7.000000
35.847591 38.779705 -1.918002 18.000000
35.633423 -16.201548 -1.798044 33.000000
2.997219 -3.380600 -0.136457 6.000000
35.927036 38.580997 -1.960742 15.000000
54.692795 -0.735063 -2.713444 2.000000
35.361309 -16.234486 -1.766888 141.000000
2.955169 -3.357884 -0.131195 4.000000
36.201103 38.631248 -1.996826 18.000000
55.374119 -0.927889 -2.747384 3.000000
35.365849 -16.393780 -1.749654 88.000000
36.467651 38.603931 -2.058657 9.000000
35.433025 -16.582960 -1.735448 36.000000
10.094410 10.615005 -0.583219 1.000000
55.000431 -1.324972 -2.748504 1.000000
35.512829 -16.779257 -1.721751 29.000000
10.177820 10.624462 -0.598644 1.000000
54.945286 -1.525164 -2.746009 1.000000
35.605198 -16.982809 -1.708542 32.000000
10.221415 10.595682 -0.611899 1.000000
54.594925 -1.715715 -2.728795 1.000000
35.737057 -17.206766 -1.697077 28.000000
10.148399 10.443119 -0.617962 1.000000
54.723019 -1.920533 -2.735531 1.000000
35.828617 -17.397444 -1.690228 32.000000
10.144413 10.355517 -0.627857 1.000000
35.094246 13.979888 -1.920271 4.000000
54.296925 -2.104859 -2.705091 1.000000
35.923557 -17.614321 -1.683894 23.000000
54.363686 -2.307029 -2.708821 1.000000
36.020729 -17.826027 -1.670419 15.000000
54.423756 -2.509443 -2.731319 1.000000
36.094475 -18.027515 -1.655731 22.000000
36.149387 -18.220791 -1.640071 35.000000
50.205143 -2.692650 -2.511749 18.000000
36.230072 -18.428295 -1.625467 31.000000
52.718086 19.888966 -3.002228 3.000000
50.294647 -2.882357 -2.516738 18.000000
36.322548 -18.643219 -1.625534 19.000000
3.072023 -3.809921 -0.090555 8.000000
50.604607 18.880032 -2.906269 1.000000
49.901237 -3.043349 -2.471352 17.000000
36.441555 -18.873371 -1.598075 26.000000
3.058096 -3.821227 -0.085430 9.000000
50.093204 -3.239382 -2.498996 25.000000
36.523182 -19.085741 -1.590306 29.000000
3.032335 -3.816267 -0.081678 9.000000
46.434429 -3.173724 -2.308893 7.000000
36.617729 -19.306339 -1.561316 21.000000
3.005996 -3.811719 -0.076259 9.000000
49.655125 -3.576746 -2.469673 17.000000
36.687115 -19.506886 -1.559906 33.000000
2.992712 -3.822240 -0.072023 9.000000
9.953308 9.451942 -0.719358 1.000000
48.321247 -3.658738 -2.420939 31.000000
36.840645 -19.762060 -1.547583 24.000000
2.963374 -3.813483 -0.068280 10.000000
10.358319 9.771432 -0.756252 1.000000
32.662014 11.508520 -1.948257 8.000000
49.637096 -3.941394 -2.478859 17.000000
36.953476 -19.997343 -1.526018 22.000000
2.965356 -3.843650 -0.063550 15.000000
10.262383 9.610089 -0.758976 1.000000
49.871586 -4.144009 -2.482555 17.000000
36.999050 -20.197676 -1.508847 22.000000
12.016811 -15.570392 -0.260905 1.000000
52.643742 -4.550185 -2.621287 20.000000
37.168968 -20.450712 -1.496292 24.000000
11.840198 -15.441605 -0.241139 1.000000
7.444156 6.869269 -0.564541 1.000000
53.233963 -4.797833 -2.642182 11.000000
37.274864 -20.704340 -1.488987 23.000000
11.895693 -15.632301 -0.222861 4.000000
7.504527 6.876632 -0.576206 1.000000
32.311684 10.861529 -1.965524 1.000000
53.101662 -4.982184 -2.636504 13.000000
37.385452 -20.928288 -1.473708 27.000000
11.973794 -15.849437 -0.204555 8.000000
7.562615 6.879038 -0.585887 1.000000
32.333218 10.730765 -1.982210 1.000000
48.613487 -4.758028 -2.406049 6.000000
37.518681 -21.192484 -1.459569 10.000000
11.664377 -15.569422 -0.179961 8.000000
7.665117 6.921106 -0.602710 2.000000
32.259026 10.568808 -1.998939 5.000000
53.131393 -5.396890 -2.639960 4.000000
37.567551 -21.402090 -1.434293 15.000000
11.618981 -15.622176 -0.166508 8.000000
7.678889 6.882619 -0.610835 7.000000
32.349113 10.467188 -2.014041 7.000000
50.231640 -5.279558 -2.496779 6.000000
37.744720 -21.686649 -1.436476 10.000000
7.726035 6.873976 -0.621634 11.000000
32.415115 10.357451 -2.027694 1.000000
51.622337 -5.617096 -2.557826 15.000000
37.854881 -21.917234 -1.420499 23.000000
12.491141 -17.035767 -0.140105 4.000000
7.749490 6.846531 -0.632463 23.000000
52.067440 -5.858704 -2.590094 12.000000
59.764294 -34.923435 -2.199514 18.000000
6.159911 -8.472170 -0.058503 1.000000
7.747850 6.794682 -0.639319 10.000000
54.669731 -6.354514 -2.720685 3.000000
59.489796 -35.028187 -2.157492 18.000000
6.103993 -8.457171 -0.049150 5.000000
7.889043 6.867516 -0.656219 7.000000
12.708235 3.907135 -0.810846 1.000000
54.170532 -6.497804 -2.687464 4.000000
59.267117 -35.190239 -2.129996 18.000000
6.049687 -8.446998 -0.039895 6.000000
7.970358 6.887115 -0.670108 9.000000
12.765178 3.873491 -0.818242 1.000000
54.037785 -6.682878 -2.672549 3.000000
58.596577 -35.069332 -2.050635 18.000000
6.057921 -8.514877 -0.031006 3.000000
8.017735 6.876886 -0.683074 10.000000
12.677018 3.800876 -0.821053 1.000000
53.606239 -6.829082 -2.661880 5.000000
58.493935 -35.299721 -2.027688 18.000000
6.018034 -8.524788 -0.021855 4.000000
8.065315 6.866548 -0.692405 1.000000
12.667969 3.742806 -0.824116 1.000000
58.156593 -35.415398 -1.973328 18.000000
6.048361 -8.637956 -0.009202 1.000000
8.150933 6.888072 -0.706937 1.000000
12.671744 3.693477 -0.828101 1.000000
39.143490 -5.278494 -1.931764 35.000000
58.014782 -35.621178 -1.925367 14.000000
9.582727 -13.792874 -0.002931 9.000000
12.655864 3.638574 -0.835416 1.000000
38.649319 -5.356161 -1.901506 64.000000
9.511811 -13.793304 0.014621 7.000000
12.524815 3.551249 -0.830464 1.000000
38.732594 -5.512465 -1.920274 36.000000
9.509182 -13.898214 0.026452 7.000000
11.430452 9.456093 -1.021744 1.000000
12.642570 3.537005 -0.842049 1.000000
11.755934 -17.298330 0.054755 8.000000
11.633954 9.552837 -1.049998 1.000000
12.563490 3.465280 -0.845067 1.000000
47.868397 -7.171063 -2.358812 14.000000
10.216543 -15.152353 0.063792 6.000000
11.668174 9.509550 -1.063134 1.000000
12.537447 3.408699 -0.844746 1.000000
47.625000 -7.313171 -2.339694 33.000000
11.590057 -17.319561 0.094569 10.000000
11.648085 9.422338 -1.068662 1.000000
12.568848 3.367813 -0.850586 1.000000
47.661610 -7.497702 -2.351267 23.000000
11.545810 -17.391008 0.112944 8.000000
11.763325 9.444443 -1.091931 1.000000
12.605810 3.323539 -0.861318 1.000000
48.009342 -7.732828 -2.352790 4.000000
58.798649 -38.155117 -1.737529 1.000000
11.498730 -17.451992 0.131318 7.000000
11.812712 9.413097 -1.106556 1.000000
12.713037 3.306760 -0.872496 1.000000
58.835102 -38.485947 -1.693652 19.000000
11.418192 -17.468782 0.152984 8.000000
11.908475 9.411498 -1.122633 1.000000
12.750079 3.261806 -0.878747 1.000000
47.803627 -8.059635 -2.345541 6.000000
58.903030 -38.839390 -1.662730 13.000000
11.362494 -17.516779 0.174922 7.000000
12.102489 9.492974 -1.159231 1.000000
12.543515 3.160024 -0.875045 1.000000
47.826057 -8.252398 -2.356669 1.000000
59.022793 -39.229500 -1.657783 19.000000
11.322860 -17.589859 0.189861 7.000000
11.972008 9.326667 -1.154420 1.000000
12.419147 3.080330 -0.870063 1.000000
47.968033 -8.458058 -2.356656 4.000000
59.297398 -39.711136 -1.631991 17.000000
11.295892 -17.690092 0.208813 10.000000
12.092238 9.349316 -1.173435 1.000000
12.531439 3.061788 -0.879438 1.000000
47.811520 -8.594035 -2.358852 1.000000
59.678558 -40.284012 -1.596242 2.000000
11.225922 -17.716549 0.230628 29.000000
12.702845 9.747235 -1.246081 1.000000
12.643825 3.040182 -0.895658 1.000000
44.883991 -8.253950 -2.208051 10.000000
59.489639 -40.474667 -1.570017 7.000000
11.131535 -17.710835 0.248278 13.000000
12.361050 9.413187 -1.220073 4.000000
12.654578 2.993748 -0.900197 1.000000
44.758202 -8.384356 -2.203218 9.000000
59.659225 -40.910728 -1.527914 20.000000
11.103894 -17.804501 0.271023 11.000000
12.704600 9.601444 -1.267281 1.000000
12.757309 2.968719 -0.913616 1.000000
59.878853 -41.369381 -1.486396 12.000000
10.983203 -17.755583 0.287886 23.000000
27.757868 20.818478 -2.797780 8.000000
12.918199 2.956290 -0.933654 1.000000
43.857315 -8.548832 -2.161899 10.000000
59.809082 -41.645851 -1.475718 10.000000
10.941972 -17.827726 0.303041 21.000000
27.688499 20.615829 -2.813841 9.000000
46.088997 10.369700 -3.353139 34.000000
44.114689 -8.766953 -2.176155 10.000000
60.114758 -42.186691 -1.461420 8.000000
10.905535 -17.908278 0.322063 7.000000
27.697769 20.465363 -2.837396 8.000000
46.078625 10.181641 -3.366072 8.000000
44.009205 -8.913786 -2.164694 4.000000
60.324207 -42.664513 -1.392900 10.000000
8.169794 -13.527204 0.259287 3.000000
27.770582 20.362234 -2.867448 7.000000
44.166626 -9.114316 -2.181954 2.000000
8.099280 -13.516846 0.272300 9.000000
48.521778 -10.198611 -2.398942 7.000000
60.793736 -43.652565 -1.358650 1.000000
8.049534 -13.546186 0.288801 7.000000
24.666735 17.809853 -2.597586 1.000000
48.586216 -10.398244 -2.412688 15.000000
60.799953 -43.995659 -1.323076 22.000000
7.986889 -13.548231 0.296486 1.000000
24.936518 17.865963 -2.646049 1.000000
37.210457 -27.134335 -0.795820 6.000000
10.536255 -18.016199 0.411675 24.000000
37.070580 -27.241013 -0.786927 8.000000
10.412289 -17.954918 0.427520 22.000000
37.061241 -27.234148 -0.875055 9.000000
10.435114 -17.994278 0.403033 25.000000
22.814480 16.345613 -2.480106 1.000000
14.029869 2.885023 -1.092070 1.000000
48.944103 -10.671539 -2.572715 2.000000
37.257248 -27.168453 -0.909530 6.000000
10.520809 -17.996996 0.378436 19.000000
23.890213 17.249189 -2.588353 6.000000
48.496861 -10.387974 -2.599265 14.000000
60.683109 -43.927246 -1.569216 22.000000
8.035401 -13.630523 0.267900 6.000000
23.586262 17.161594 -2.546829 1.000000
48.547932 -10.212956 -2.626027 10.000000
34.083233 -24.482269 -0.923004 5.000000
8.037123 -13.525301 0.247155 9.000000
23.170418 16.989254 -2.498528 1.000000
48.769493 -10.073049 -2.662145 7.000000
34.228733 -24.406105 -0.968677 40.000000
8.087005 -13.501703 0.228005 6.000000
24.524153 18.127054 -2.635903 4.000000
48.642776 -9.861125 -2.687987 7.000000
34.402802 -24.340515 -1.015228 148.000000
8.136593 -13.472230 0.206030 1.000000
24.954430 18.586912 -2.667570 2.000000
12.831233 2.884584 -1.007333 1.000000
48.555714 -9.658332 -2.689868 5.000000
34.581043 -24.276924 -1.054749 188.000000
10.908127 -17.919575 0.248990 8.000000
12.577075 2.878224 -0.988240 1.000000
43.797100 -8.545031 -2.447935 9.000000
34.697456 -24.178282 -1.100035 8.000000
10.949845 -17.847542 0.222934 17.000000
12.608549 9.535770 -1.338586 1.000000
12.498629 2.908522 -0.980655 1.000000
59.728100 -41.296036 -1.939514 15.000000
11.010044 -17.798975 0.200910 21.000000
12.356295 9.416382 -1.304538 1.000000
12.541584 2.967016 -0.980347 1.000000
44.783821 -8.397245 -2.539462 14.000000
59.548199 -40.849876 -1.979249 1.000000
11.088099 -17.786083 0.175592 8.000000
12.441159 9.553340 -1.303401 1.000000
12.482482 3.001388 -0.972073 1.000000
48.403091 -8.892363 -2.751442 8.000000
59.577721 -40.565025 -2.025869 1.000000
11.115630 -17.692383 0.153167 8.000000
12.256837 9.483416 -1.279553 1.000000
12.432487 3.037611 -0.971287 1.000000
48.365150 -8.702265 -2.773265 12.000000
59.247940 -40.023453 -2.084589 1.000000
11.220611 -17.715006 0.131758 9.000000
11.904358 9.280644 -1.235690 1.000000
48.253201 -8.499658 -2.782198 10.000000
59.338734 -39.768829 -2.145033 1.000000
11.290527 -17.688496 0.106214 8.000000
11.976583 9.407730 -1.238730 1.000000
48.125160 -8.295360 -2.798698 17.000000
59.242897 -39.405617 -2.186302 1.000000
11.292752 -17.556547 0.083797 7.000000
11.880004 9.402478 -1.224312 1.000000
12.692727 3.251855 -0.989794 1.000000
48.125229 -8.113856 -2.805499 14.000000
58.771820 -38.782318 -2.237467 1.000000
11.324427 -17.464769 0.058126 8.000000
11.802649 9.405080 -1.208944 1.000000
12.671407 3.295931 -0.984471 1.000000
48.055656 -7.921097 -2.808261 14.000000
58.791004 -38.486416 -2.281919 1.000000
11.396287 -17.441917 0.036364 10.000000
11.586880 9.309433 -1.177608 1.000000
12.688334 3.350033 -0.984430 1.000000
47.875927 -7.711339 -2.821564 11.000000
58.889172 -38.213860 -2.328820 1.000000
11.454370 -17.397881 0.010907 10.000000
11.514731 9.321118 -1.160731 1.000000
38.717175 -6.090643 -2.287326 57.000000
11.529118 -17.372446 -0.010917 8.000000
11.514984 9.384701 -1.158670 1.000000
38.723251 -5.946242 -2.306966 49.000000
11.625806 -17.386106 -0.032853 8.000000
11.424072 9.387177 -1.140324 1.000000
38.734516 -5.802736 -2.313214 38.000000
10.199953 -15.133445 -0.047778 1.000000
11.577877 9.578053 -1.148288 1.000000
38.763020 -5.675642 -2.320641 73.000000
11.780746 -17.347864 -0.080519 10.000000
38.653885 -5.515029 -2.333398 41.000000
11.838343 -17.302416 -0.106113 14.000000
13.455649 3.873599 -1.030708 1.000000
38.744518 -5.369354 -2.344401 79.000000
9.605307 -13.928885 -0.103358 23.000000
8.103571 6.857751 -0.787032 7.000000
13.374687 3.903432 -1.020706 1.000000
38.848534 -5.231816 -2.356328 93.000000
58.033916 -35.632927 -2.604244 21.000000
9.593904 -13.808963 -0.117390 7.000000
8.076099 6.883028 -0.781106 9.000000
13.275589 3.922330 -1.014130 1.000000
38.790218 -5.093055 -2.372313 110.000000
58.277374 -35.488945 -2.668948 21.000000
6.019491 -8.596724 -0.084258 6.000000
7.995777 6.862899 -0.766405 9.000000
38.892372 -4.961531 -2.384301 61.000000
58.539581 -35.369095 -2.747021 18.000000
6.049398 -8.575568 -0.097080 6.000000
7.918160 6.846840 -0.754020 7.000000
38.909885 -4.818899 -2.391144 19.000000
46.715508 -27.991886 -2.215899 17.000000
6.028581 -8.479903 -0.107143 6.000000
7.848377 6.836933 -0.740626 19.000000
47.167114 -5.666089 -2.905605 1.000000
59.180870 -35.166977 -2.849188 18.000000
6.081365 -8.491229 -0.118492 1.000000
7.735156 6.793109 -0.723480 31.000000
46.951527 -5.449087 -2.890954 1.000000
59.514229 -35.070557 -2.907339 9.000000
6.198723 -8.585262 -0.131226 1.000000
7.751582 6.858021 -0.721917 8.000000
47.091808 -5.307161 -2.923398 1.000000
59.800629 -34.944668 -2.951384 12.000000
12.439445 -17.108866 -0.284294 7.000000
7.732990 6.887422 -0.713228 1.000000
12.649012 4.048980 -0.947352 1.000000
46.857418 -5.106894 -2.915924 1.000000
37.732018 -21.863689 -1.896375 23.000000
12.413239 -16.948126 -0.304345 4.000000
7.671025 6.882816 -0.700799 1.000000
12.235868 3.966233 -0.912980 1.000000
37.638050 -21.634100 -1.918211 28.000000
7.597906 6.867644 -0.691027 1.000000
32.312534 10.592584 -2.413609 5.000000
37.520931 -21.384205 -1.930892 35.000000
11.734431 -15.783153 -0.322693 8.000000
7.554682 6.879054 -0.680428 1.000000
32.142143 10.667351 -2.385965 113.000000
37.471764 -21.174610 -1.954464 27.000000
11.899900 -15.883794 -0.346430 7.000000
7.479578 6.858575 -0.666921 1.000000
32.136715 10.796471 -2.376591 104.000000
37.282417 -20.887705 -1.963005 25.000000
11.807489 -15.646330 -0.362681 7.000000
7.399753 6.835473 -0.654970 1.000000
32.143024 10.936118 -2.368236 99.000000
37.173832 -20.648220 -1.990478 8.000000
10.282719 9.568678 -0.900938 1.000000
32.263855 11.109337 -2.368154 6.000000
47.304035 -4.096973 -2.987259 8.000000
36.858669 -20.296747 -1.999047 23.000000
2.973039 -3.849439 -0.105281 7.000000
9.880453 9.262151 -0.856795 1.000000
32.463539 11.311354 -2.379808 1.000000
47.129757 -3.907898 -2.975329 8.000000
36.722363 -20.054951 -2.009804 10.000000
2.967973 -3.815276 -0.109693 9.000000
9.825211 9.278255 -0.843108 1.000000
32.559071 11.478635 -2.377771 3.000000
47.048729 -3.727603 -2.977601 10.000000
36.614311 -19.822067 -2.029036 34.000000
2.975697 -3.796411 -0.114518 9.000000
32.569630 11.616743 -2.363445 3.000000
46.956543 -3.547164 -2.987427 9.000000
36.698345 -19.693975 -2.066112 38.000000
2.982660 -3.778058 -0.119321 8.000000
9.882149 9.466713 -0.829810 1.000000
46.505836 -3.341738 -2.966125 4.000000
36.690605 -19.516954 -2.068907 25.000000
2.980864 -3.747459 -0.122880 7.000000
9.854982 9.510201 -0.820854 1.000000
43.661873 15.934785 -3.144156 1.000000
46.257797 -3.169763 -2.949618 7.000000
36.530579 -19.260389 -2.092018 8.000000
2.943829 -3.674500 -0.126580 7.000000
