VERSION .7
FIELDS x y z intensity
SIZE 4 4 4 4
TYPE F F F F
COUNT 1 1 1 1
WIDTH 1218
HEIGHT 1
VIEWPOINT 0 0 0 1 0 0 0
POINTS 1218
DATA ascii
26.093422 21.145123 3.328595 8.000000
9.957687 -6.580857 2.244506 1.000000
13.874839 -21.670475 3.896148 23.000000
26.030260 21.252468 3.342298 16.000000
9.974174 -6.539356 2.238495 1.000000
13.931148 -21.583801 3.875961 13.000000
34.622890 28.480066 4.482676 10.000000
17.671894 -11.498199 3.949436 22.000000
13.945869 -21.441969 3.840948 21.000000
34.514393 28.593399 4.497326 12.000000
17.732748 -11.445506 3.938385 15.000000
14.012640 -21.372828 3.814934 26.000000
32.497929 27.124334 4.269889 10.000000
17.759754 -11.370942 3.923675 12.000000
14.078712 -21.302912 3.793418 27.000000
32.393917 27.239582 4.276774 11.000000
17.793346 -11.305075 3.907129 16.000000
14.073152 -21.125755 3.752921 18.000000
30.250168 25.626791 4.027093 10.000000
17.815018 -11.227402 3.895223 10.000000
14.107823 -21.010494 3.723553 16.000000
30.178913 25.747911 4.036544 10.000000
17.845842 -11.155651 3.877803 28.000000
14.152037 -20.918196 3.697916 15.000000
30.003521 25.788883 4.046630 15.000000
17.877466 -11.088819 3.868648 19.000000
14.216124 -20.847874 3.676679 18.000000
30.061350 26.030777 4.088311 10.000000
17.886202 -11.003664 3.850419 17.000000
14.236655 -20.698978 3.642560 12.000000
33.551430 29.268778 4.593223 9.000000
17.918394 -10.937435 3.833961 17.000000
14.309839 -20.658327 3.621349 9.000000
31.859324 27.989101 4.397363 8.000000
17.963715 -10.874927 3.827529 16.000000
14.303638 -20.496161 3.588295 14.000000
31.763399 28.111769 4.405798 9.000000
17.990057 -10.805244 3.817514 12.000000
6.033947 -8.579071 1.498340 1.000000
31.632441 28.203291 4.424372 9.000000
18.023373 -10.735560 3.801080 10.000000
6.180614 -8.719510 1.517298 5.000000
33.894329 30.422321 4.778932 13.000000
18.046795 -10.660093 3.790197 15.000000
33.917206 30.668060 4.822180 4.000000
104.751419 34.521568 17.922876 1.000000
18.068052 -10.587751 3.779329 23.000000
6.423235 -8.925722 1.547436 31.000000
31.203203 28.432575 4.466706 11.000000
104.274620 34.808872 17.844341 1.000000
18.096251 -10.515364 3.762054 25.000000
6.479953 -8.935278 1.543379 7.000000
31.064089 28.514904 4.484050 35.000000
103.942299 35.081459 17.846584 24.000000
18.142509 -10.457703 3.756514 24.000000
6.463304 -8.843933 1.527784 18.000000
33.666740 31.132111 4.892364 13.000000
103.567230 35.378227 17.823938 17.000000
18.122599 -10.357919 3.733225 22.000000
27.041059 25.172115 3.954690 9.000000
102.916023 35.557423 17.733120 26.000000
18.181185 -10.307375 3.730331 19.000000
27.002293 25.312534 3.981520 9.000000
102.628365 35.879627 17.725573 33.000000
18.297216 -10.284722 3.738819 10.000000
102.176804 36.122509 17.669252 26.000000
18.741304 -10.444133 3.806263 10.000000
6.346032 -8.424528 1.439170 23.000000
26.147205 24.873554 3.914078 22.000000
19.201698 -10.621780 3.885070 10.000000
6.443223 -8.488631 1.448462 21.000000
78.945847 -6.116134 14.861502 2.000000
19.738163 -10.824245 3.977455 10.000000
6.461389 -8.451145 1.438342 27.000000
32.735947 31.590660 4.982293 8.000000
78.641953 -5.802704 14.785943 1.000000
6.580479 -8.541842 1.452124 27.000000
79.358139 -5.577099 14.888102 1.000000
20.910742 -11.263983 4.170945 20.000000
6.627555 -8.538037 1.447915 18.000000
79.216217 -5.275423 14.857750 1.000000
21.461466 -11.459355 4.263635 9.000000
6.677745 -8.537906 1.444332 20.000000
22.112301 -11.717745 4.376594 10.000000
6.527160 -8.285611 1.398004 20.000000
27.723263 27.540003 4.362498 10.000000
22.766752 -11.947743 4.487350 18.000000
6.604166 -8.320444 1.402296 211.000000
26.402790 26.421232 4.176522 14.000000
77.719971 -4.345221 14.525432 1.000000
23.878834 -12.430534 4.683867 28.000000
6.678574 -8.351148 1.403992 22.000000
27.395475 27.616310 4.377030 9.000000
77.548859 -4.050591 14.490579 1.000000
24.010302 -12.382029 4.695437 23.000000
6.613169 -8.207508 1.378296 26.000000
27.276379 27.688896 4.394027 9.000000
24.706945 -12.637742 4.808482 10.000000
6.658005 -8.204370 1.374161 33.000000
26.210943 26.803141 4.258071 9.000000
25.645340 -12.993744 4.965862 22.000000
6.610018 -8.084497 1.352572 27.000000
24.581545 25.321932 4.027138 9.000000
26.292421 -13.200720 5.076470 24.000000
6.599363 -8.011364 1.335166 56.000000
25.700428 26.669407 4.246074 10.000000
26.370806 -13.125019 5.072139 19.000000
6.628980 -7.987481 1.331543 24.000000
25.568375 26.718405 4.252718 10.000000
6.744855 -8.066755 1.339544 64.000000
25.265884 26.596783 4.251032 17.000000
6.677572 -7.929873 1.315161 84.000000
25.118067 26.617390 4.260410 25.000000
6.870550 -8.098608 1.343546 27.000000
25.291698 27.017843 4.321316 11.000000
6.910615 -8.085574 1.336147 39.000000
25.188927 27.097029 4.339528 15.000000
6.806551 -7.907761 1.305133 26.000000
25.179337 27.286587 4.368216 24.000000
6.842735 -7.891117 1.297260 33.000000
25.016205 27.309963 4.390021 33.000000
6.930671 -7.933589 1.304675 12.000000
24.957813 27.447519 4.417098 25.000000
100.638969 44.366096 18.503744 1.000000
38.211716 -17.664385 7.120192 8.000000
6.871634 -7.808064 1.282637 14.000000
25.110355 27.809690 4.474514 27.000000
100.751991 44.857677 18.574427 1.000000
38.400906 -17.589417 7.128796 11.000000
7.085323 -7.991621 1.307586 20.000000
25.069464 27.950188 4.503659 9.000000
38.649849 -17.548618 7.148929 22.000000
6.942034 -7.780625 1.274778 20.000000
22.878586 25.696415 4.151332 8.000000
38.812382 -17.467409 7.160599 15.000000
22.022320 24.900461 4.028584 8.000000
39.001495 -17.389061 7.168921 10.000000
39.252216 -17.328659 7.187884 13.000000
39.560623 -17.291836 7.224958 8.000000
7.457327 -8.115466 1.318131 8.000000
21.514074 24.862820 4.031184 8.000000
7.475962 -8.078959 1.310587 7.000000
21.851345 25.458410 4.143217 22.000000
40.292377 -17.252689 7.303292 9.000000
7.492291 -8.037311 1.304387 10.000000
21.503912 25.231298 4.105764 16.000000
40.484562 -17.176338 7.304099 20.000000
7.508879 -7.996144 1.292457 9.000000
21.414593 25.295937 4.134074 11.000000
40.548820 -17.036827 7.304918 8.000000
7.610713 -8.050918 1.301462 8.000000
21.276119 25.319971 4.136954 9.000000
7.570260 -7.946779 1.281550 1.000000
21.108704 25.308495 4.139937 8.000000
40.815804 -16.806395 7.299499 18.000000
15.839220 -16.505449 2.658981 23.000000
20.762096 25.070326 4.112183 25.000000
40.985744 -16.700943 7.295090 9.000000
15.852242 -16.398287 2.638957 25.000000
20.668699 25.144587 4.129226 29.000000
41.220016 -16.628866 7.310476 9.000000
15.875402 -16.302246 2.616750 22.000000
20.508732 25.137230 4.138662 23.000000
41.446835 -16.543997 7.331900 12.000000
15.919255 -16.233522 2.602561 20.000000
20.555544 25.383984 4.184238 10.000000
41.734440 -16.481720 7.355957 10.000000
7.747158 -7.842390 1.255990 22.000000
20.570627 25.584700 4.228758 13.000000
41.921597 -16.386705 7.370750 9.000000
7.723745 -7.761583 1.241766 1.000000
20.097990 25.185331 4.167698 10.000000
42.170063 -16.305906 7.403879 9.000000
16.032827 -15.993700 2.556188 17.000000
19.957560 25.198238 4.180520 29.000000
42.427307 -16.235361 7.422767 9.000000
16.067574 -15.911295 2.540422 28.000000
19.920223 25.332281 4.208356 29.000000
42.600925 -16.123045 7.418269 15.000000
16.102705 -15.835137 2.525248 30.000000
19.743078 25.297277 4.213279 9.000000
42.865532 -16.043821 7.437657 8.000000
16.119221 -15.735584 2.502855 22.000000
19.539595 25.226639 4.206554 33.000000
47.099140 -17.441193 8.170619 9.000000
16.159883 -15.660015 2.488312 28.000000
19.465631 25.313175 4.220969 8.000000
46.982700 -17.202524 8.103578 9.000000
16.193035 -15.577463 2.472701 27.000000
19.734316 25.858150 4.328639 9.000000
46.807114 -16.953178 8.054120 9.000000
16.194336 -15.470237 2.452771 30.000000
19.644022 25.936396 4.346995 8.000000
16.259071 -15.418501 2.442127 28.000000
19.574253 26.042048 4.370012 20.000000
16.283829 -15.329013 2.425542 28.000000
19.579197 26.238823 4.414806 8.000000
44.500420 -15.575106 7.593985 9.000000
16.308140 -15.239546 2.409003 31.000000
19.018581 25.683386 4.326632 9.000000
44.636513 -15.439331 7.607502 9.000000
16.364809 -15.180528 2.397316 25.000000
19.367992 26.356682 4.457138 20.000000
44.546589 -15.234337 7.574637 18.000000
16.345486 -15.056791 2.375002 17.000000
19.219482 26.346830 4.455695 18.000000
44.546326 -15.052108 7.531487 9.000000
16.423492 -15.017748 2.366538 22.000000
19.132118 26.429985 4.486877 17.000000
16.427492 -14.911221 2.351392 14.000000
19.169094 26.686443 4.541831 8.000000
16.460781 -14.831761 2.336628 25.000000
19.973534 28.001862 4.772761 11.000000
43.957687 -14.342115 7.389612 18.000000
16.492559 -14.761596 2.318555 23.000000
19.886820 28.107962 4.802299 8.000000
44.055954 -14.187240 7.388635 21.000000
16.546005 -14.695396 2.310309 26.000000
18.502565 26.336260 4.506274 8.000000
44.044235 -14.005504 7.361468 9.000000
16.563354 -14.602562 2.293556 30.000000
18.963722 27.224342 4.668786 8.000000
44.087070 -13.841406 7.351830 10.000000
16.591467 -14.519617 2.278397 24.000000
18.970982 27.428251 4.704813 8.000000
16.641418 -14.455969 2.270188 26.000000
45.096161 -13.821713 7.504241 9.000000
16.652504 -14.368985 2.253550 25.000000
18.920517 27.778078 4.795329 10.000000
45.364056 -13.730780 7.523835 9.000000
16.649282 -14.260082 2.234428 22.000000
18.710032 27.707457 4.793952 9.000000
45.883827 -13.687284 7.592300 9.000000
16.719669 -14.209439 2.228797 21.000000
45.757317 -13.475789 7.555002 9.000000
16.750008 -14.129816 2.210467 29.000000
46.049603 -13.396078 7.587306 9.000000
16.759523 -14.042982 2.194000 25.000000
46.286079 -13.281062 7.600968 9.000000
16.812227 -13.972657 2.189686 26.000000
18.235882 27.846130 4.867762 8.000000
46.539963 -13.178255 7.643712 9.000000
16.838757 -13.895614 2.175265 27.000000
46.698643 -13.038496 7.653200 9.000000
16.859657 -13.809301 2.159889 29.000000
45.383240 -12.492105 7.404813 9.000000
16.911034 -13.748126 2.148477 34.000000
45.248959 -12.285390 7.384248 24.000000
16.942820 -13.671132 2.134626 32.000000
21.199305 33.404758 5.891662 10.000000
45.334339 -12.130341 7.374090 22.000000
16.926512 -13.565545 2.119248 30.000000
21.169918 33.630280 5.938982 10.000000
45.258247 -11.940845 7.346517 23.000000
17.009386 -13.534725 2.116035 25.000000
45.262226 -11.764623 7.348477 15.000000
16.994129 -13.411524 2.095981 34.000000
20.512360 33.121758 5.878093 10.000000
45.466679 -11.640031 7.349516 15.000000
17.003830 -13.327915 2.084103 29.000000
20.375811 33.159298 5.906837 10.000000
45.678215 -11.524441 7.385587 9.000000
17.072781 -13.281228 2.078953 33.000000
20.738157 34.027950 6.076459 10.000000
45.639900 -11.337010 7.364214 17.000000
17.086460 -13.191632 2.067113 24.000000
20.670450 34.198288 6.114718 8.000000
45.939556 -11.241338 7.397731 10.000000
17.131599 -13.126547 2.055336 25.000000
17.141947 -13.039762 2.047311 27.000000
17.194450 -12.980490 2.036504 26.000000
19.704786 33.412067 6.025770 9.000000
17.210892 -12.894142 2.021480 24.000000
19.487789 33.322643 6.024323 10.000000
17.246614 -12.822483 2.012574 25.000000
19.225992 33.139908 5.999669 9.000000
84.796928 -19.140919 13.581849 18.000000
17.242260 -12.721384 1.995295 29.000000
19.116558 33.231289 6.037768 9.000000
84.193619 -18.680693 13.458742 1.000000
17.266762 -12.646617 1.989241 21.000000
19.545527 34.266960 6.241107 10.000000
85.100647 -18.570501 13.608863 10.000000
17.329386 -12.595158 1.987353 24.000000
19.335005 34.188427 6.241965 10.000000
85.218773 -18.269321 13.601371 13.000000
17.332132 -12.500328 1.967354 21.000000
19.208042 34.242332 6.274660 10.000000
85.074768 -17.912558 13.552275 11.000000
17.374342 -12.434222 1.959438 10.000000
19.051968 34.229630 6.281758 10.000000
85.294106 -17.648035 13.592890 4.000000
17.393562 -12.356393 1.952975 17.000000
18.952347 34.346279 6.325494 2.000000
85.348022 -17.348740 13.607320 13.000000
17.439013 -12.292755 1.949251 22.000000
85.427895 -17.039169 13.594433 8.000000
17.447783 -12.203461 1.937724 9.000000
85.489548 -16.741394 13.641587 1.000000
17.496487 -12.142269 1.938178 16.000000
85.611214 -16.439638 13.698064 10.000000
17.543142 -12.084137 1.934913 16.000000
85.540863 -16.441610 13.780752 8.000000
17.512760 -12.063209 1.954017 22.000000
17.489725 -12.146624 1.971629 19.000000
85.535103 -17.076077 13.877189 13.000000
17.468426 -12.226980 1.989281 31.000000
85.387390 -17.372263 13.910245 6.000000
17.426424 -12.292990 2.004634 21.000000
19.025846 34.210800 6.368218 10.000000
85.398125 -17.700645 13.938078 13.000000
17.421249 -12.385215 2.016775 26.000000
19.211229 34.248013 6.360074 10.000000
85.125702 -17.954315 13.919333 14.000000
17.348722 -12.425047 2.024661 29.000000
19.348961 34.240990 6.355938 10.000000
17.350348 -12.522675 2.045267 20.000000
19.527033 34.234535 6.348066 10.000000
84.111832 -18.385485 13.852285 1.000000
17.287075 -12.573629 2.058288 28.000000
19.692366 34.246071 6.341694 10.000000
84.904091 -18.884981 14.040791 1.000000
17.280142 -12.665687 2.074298 24.000000
19.289917 33.263474 6.145253 9.000000
83.973480 -18.985853 13.913187 1.000000
17.260454 -12.748769 2.092652 28.000000
19.484240 33.329926 6.156238 9.000000
83.872162 -19.286337 13.954262 1.000000
17.221010 -12.817452 2.101116 23.000000
19.672026 33.396473 6.152801 8.000000
17.204582 -12.903485 2.120027 25.000000
19.852610 33.435604 6.158824 1.000000
17.151722 -12.962336 2.138299 23.000000
20.555124 34.331509 6.316209 1.000000
17.139126 -13.051787 2.150273 30.000000
45.955582 -11.270765 7.731579 15.000000
17.082384 -13.107774 2.160554 29.000000
20.770880 34.135246 6.257261 10.000000
45.791458 -11.400117 7.710615 9.000000
17.072685 -13.200031 2.176845 28.000000
20.740536 33.805733 6.182388 10.000000
45.823299 -11.586568 7.740015 9.000000
17.039286 -13.274277 2.186393 28.000000
20.444941 33.051544 6.037282 10.000000
45.721863 -11.739379 7.738557 9.000000
17.001055 -13.344911 2.202993 32.000000
20.671646 33.158764 6.049060 10.000000
45.779633 -11.933234 7.781125 9.000000
16.982332 -13.431099 2.218386 31.000000
45.093781 -11.922709 7.671577 29.000000
16.953886 -13.505064 2.232283 33.000000
21.172598 33.414219 6.067266 10.000000
45.584305 -12.231334 7.787986 9.000000
16.934387 -13.591283 2.247751 28.000000
21.279602 33.325226 6.050433 10.000000
16.906437 -13.671031 2.266019 25.000000
21.917578 34.048561 6.167376 10.000000
46.379536 -12.801183 7.973805 9.000000
16.867168 -13.741828 2.275169 28.000000
21.986355 33.894859 6.138968 7.000000
46.473461 -13.010604 8.006752 9.000000
16.861269 -13.840149 2.300447 28.000000
22.007259 33.656250 6.081602 10.000000
46.236607 -13.118511 7.982407 9.000000
16.802456 -13.895262 2.303203 23.000000
18.363701 27.860594 5.028599 10.000000
46.039936 -13.245232 7.965373 9.000000
16.776915 -13.977999 2.322125 29.000000
45.734062 -13.338924 7.929404 11.000000
16.751291 -14.060986 2.337278 23.000000
45.501431 -13.443593 7.905668 13.000000
16.727747 -14.141047 2.352467 29.000000
45.715832 -13.689320 7.985828 9.000000
16.705141 -14.227248 2.368227 33.000000
18.797979 27.650005 4.955113 8.000000
45.654579 -13.853517 7.992505 9.000000
16.632763 -14.271116 2.380846 27.000000
19.025988 27.765957 4.976349 13.000000
45.350071 -13.934177 7.956176 9.000000
16.658367 -14.399424 2.403715 33.000000
45.052540 -14.023677 7.921409 9.000000
16.593285 -14.449763 2.413609 22.000000
44.752354 -14.110363 7.902934 11.000000
16.557940 -14.526037 2.427868 27.000000
18.506979 26.391472 4.702404 8.000000
44.735710 -14.276987 7.908746 9.000000
16.558638 -14.629250 2.443250 29.000000
18.541580 26.255171 4.671860 9.000000
44.618153 -14.419869 7.922504 9.000000
16.518797 -14.702204 2.457027 29.000000
19.982447 28.076504 4.984384 8.000000
44.777088 -14.644059 7.968210 9.000000
16.463842 -14.761789 2.468606 28.000000
20.019499 27.901163 4.948511 8.000000
44.954460 -14.884677 8.026433 9.000000
16.448904 -14.857511 2.490183 32.000000
19.220175 26.600470 4.717407 10.000000
44.800121 -15.015999 8.017134 9.000000
16.404394 -14.926850 2.503471 25.000000
19.284510 26.484484 4.685999 13.000000
44.672031 -15.129339 8.011146 9.000000
16.377905 -15.012844 2.519591 26.000000
19.390001 26.434950 4.671666 11.000000
44.653584 -15.323175 8.044239 9.000000
16.364582 -15.106091 2.537450 32.000000
19.038479 25.757221 4.541385 19.000000
44.692955 -15.511274 8.061036 9.000000
16.311769 -15.168445 2.549680 15.000000
19.394424 26.038580 4.586154 8.000000
44.845718 -15.748696 8.124557 9.000000
16.302214 -15.271359 2.568768 24.000000
19.689415 26.223839 4.608717 16.000000
46.735424 -16.604980 8.495699 9.000000
16.259602 -15.343719 2.582759 19.000000
19.693626 26.049091 4.577834 9.000000
46.652592 -16.759184 8.500130 9.000000
16.234669 -15.433074 2.599652 25.000000
19.754410 25.931368 4.552437 8.000000
47.322624 -17.177273 8.641585 9.000000
16.204824 -15.512746 2.615433 19.000000
19.490801 25.382553 4.446419 8.000000
47.190327 -17.343960 8.648140 9.000000
16.178383 -15.601470 2.640259 24.000000
19.615669 25.370556 4.438573 25.000000
43.003277 -15.975690 7.899233 6.000000
16.149256 -15.688022 2.648855 25.000000
19.740866 25.340006 4.423004 11.000000
42.775803 -16.069847 7.884639 9.000000
16.090654 -15.746134 2.660644 32.000000
20.006317 25.487507 4.444232 20.000000
42.543125 -16.152122 7.860275 12.000000
16.070068 -15.841707 2.686792 24.000000
20.040821 25.348782 4.420723 19.000000
42.324478 -16.229897 7.854223 21.000000
20.206512 25.366697 4.413671 8.000000
42.050564 -16.310337 7.814956 8.000000
20.664127 25.746969 4.469512 9.000000
41.846920 -16.391203 7.803329 17.000000
20.306780 25.121578 4.356004 8.000000
41.625862 -16.497656 7.798548 22.000000
7.894813 -8.011414 1.363114 6.000000
20.622343 25.321564 4.386348 20.000000
41.398823 -16.575113 7.766805 13.000000
15.910275 -16.264065 2.769421 21.000000
20.663023 25.182447 4.357977 25.000000
41.177971 -16.645340 7.743671 21.000000
15.882911 -16.344166 2.786187 17.000000
20.801809 25.162945 4.338770 22.000000
40.952953 -16.720930 7.728197 10.000000
15.836246 -16.421843 2.801167 26.000000
21.229834 25.498932 4.397668 9.000000
40.855694 -16.872881 7.738464 21.000000
15.805820 -16.510973 2.818619 17.000000
21.356482 25.460688 4.386838 18.000000
40.759407 -16.991549 7.754689 8.000000
7.561035 -7.956536 1.359370 8.000000
21.426029 25.354282 4.358430 20.000000
7.534573 -7.987111 1.367650 9.000000
21.721527 25.522707 4.382540 27.000000
40.391407 -17.195076 7.732706 8.000000
7.624871 -8.139568 1.395121 2.000000
21.887417 25.527470 4.379197 8.000000
40.150719 -17.250111 7.713265 6.000000
7.445842 -8.007073 1.373539 35.000000
7.419484 -8.037602 1.377981 8.000000
39.382183 -17.254787 7.612367 29.000000
7.553530 -8.243231 1.416408 23.000000
21.932604 25.044590 4.282355 8.000000
39.152691 -17.317392 7.595059 17.000000
7.166436 -7.870289 1.354115 21.000000
22.770197 25.791401 4.401231 8.000000
38.941124 -17.411051 7.582874 10.000000
7.164069 -7.931415 1.367256 13.000000
25.041687 28.175404 4.802140 9.000000
38.745907 -17.470032 7.563163 14.000000
6.958560 -7.755442 1.336632 14.000000
25.206112 28.171705 4.795617 9.000000
38.521973 -17.523006 7.530753 23.000000
6.998728 -7.857961 1.357339 10.000000
38.354298 -17.616682 7.540949 15.000000
6.898514 -7.800095 1.348719 51.000000
25.043272 27.570492 4.685508 13.000000
100.997162 44.566113 19.604319 1.000000
7.016613 -7.992468 1.383189 39.000000
25.029627 27.372538 4.639645 10.000000
101.067635 44.218395 19.571077 1.000000
6.950966 -7.976470 1.381636 108.000000
25.079872 27.207369 4.615558 9.000000
34.638668 -16.358833 6.878767 8.000000
6.820511 -7.884930 1.368844 43.000000
25.134470 27.085810 4.589403 15.000000
6.868161 -7.993436 1.389333 35.000000
25.227116 26.996035 4.569441 10.000000
32.150505 -15.466083 6.419322 5.000000
6.823658 -7.997952 1.391570 88.000000
25.079756 26.641926 4.499099 30.000000
6.714182 -7.933920 1.381266 87.000000
25.266693 26.625542 4.493916 32.000000
29.530582 -14.473275 5.946873 7.000000
6.780065 -8.071580 1.408387 23.000000
25.442179 26.633024 4.489821 24.000000
100.497803 41.401684 19.087067 1.000000
26.674793 -13.189298 5.381013 9.000000
6.713285 -8.048962 1.405929 65.000000
25.662252 26.667027 4.485160 18.000000
100.468056 40.959351 19.013739 1.000000
26.378067 -13.163117 5.341479 30.000000
6.597725 -7.963953 1.390926 30.000000
24.581762 25.366411 4.268304 22.000000
100.448029 40.502087 18.941410 1.000000
26.207253 -13.192340 5.326761 16.000000
6.555802 -7.978325 1.394334 32.000000
26.087496 26.704863 4.478053 9.000000
25.372004 -12.888661 5.176821 8.000000
6.658844 -8.161641 1.429789 30.000000
27.293825 27.755013 4.662410 10.000000
24.594166 -12.601725 5.037024 12.000000
6.621913 -8.171548 1.433278 28.000000
27.446571 27.706476 4.643509 11.000000
23.903976 -12.358904 4.914620 22.000000
6.588586 -8.197478 1.438785 17.000000
26.415691 26.480314 4.433574 20.000000
23.078543 -12.034414 4.762909 94.000000
6.542424 -8.201424 1.442721 72.000000
27.831163 27.695486 4.626283 10.000000
22.540985 -11.859386 4.670097 10.000000
6.616226 -8.350593 1.470779 54.000000
21.798615 -11.566139 4.533533 10.000000
6.549809 -8.332295 1.470657 31.000000
21.196783 -11.346569 4.416987 10.000000
6.613182 -8.476678 1.497590 36.000000
32.587639 31.723310 5.286211 10.000000
20.887402 -11.274939 4.369258 33.000000
6.577167 -8.491467 1.499960 31.000000
78.705994 -5.807430 15.512092 6.000000
20.041388 -10.913310 4.208863 102.000000
6.569663 -8.546299 1.511137 32.000000
78.763573 -6.115843 15.542273 1.000000
19.594879 -10.763471 4.131419 14.000000
6.507463 -8.529905 1.513558 21.000000
26.137211 24.898829 4.138441 30.000000
19.121540 -10.590519 4.047281 10.000000
6.499743 -8.584854 1.522905 23.000000
26.291224 24.862375 4.129177 9.000000
18.583513 -10.381718 3.949114 10.000000
6.364995 -8.468141 1.505794 18.000000
26.811161 25.168552 4.176815 1.000000
103.563423 36.267395 18.776232 1.000000
18.194742 -10.248027 3.881617 10.000000
27.025837 25.184370 4.163200 9.000000
103.667641 35.898140 18.732878 1.000000
18.182705 -10.329214 3.887100 16.000000
33.599480 31.091681 5.134816 13.000000
18.145359 -10.391946 3.894399 16.000000
31.108391 28.575586 4.730614 23.000000
18.109636 -10.459819 3.906265 17.000000
6.484716 -8.892765 1.587955 11.000000
31.201271 28.450756 4.691542 7.000000
78.231560 -8.029250 15.471814 1.000000
18.088823 -10.532174 3.917244 19.000000
31.262941 28.297829 4.662838 9.000000
78.042809 -8.299043 15.454627 1.000000
18.054338 -10.600890 3.918164 14.000000
18.032963 -10.673162 3.929157 17.000000
34.070812 30.409363 4.993373 5.000000
18.009422 -10.748554 3.940165 17.000000
33.430180 29.607742 4.859125 12.000000
17.978443 -10.815355 3.952997 21.000000
6.022645 -8.578901 1.544091 1.000000
33.503956 29.475412 4.831974 12.000000
17.941889 -10.874557 3.956659 15.000000
6.225641 -8.930889 1.609544 4.000000
33.504051 29.237747 4.791468 9.000000
17.906612 -10.947410 3.969502 12.000000
5.967310 -8.627539 1.556534 6.000000
29.916939 25.933149 4.252166 10.000000
17.891129 -11.019614 3.974148 21.000000
14.202168 -20.687479 3.736786 10.000000
30.075821 25.860157 4.231951 18.000000
17.867779 -11.100091 3.989808 25.000000
14.173183 -20.823921 3.769102 15.000000
30.202900 25.777483 4.208475 18.000000
17.834120 -11.169979 3.999018 20.000000
14.128863 -20.923260 3.791200 22.000000
30.300709 25.687778 4.196189 10.000000
17.795021 -11.232164 3.999018 16.000000
14.089865 -21.007509 3.807456 20.000000
17.780182 -11.305424 4.019329 20.000000
14.084871 -21.167360 3.849739 19.000000
17.744318 -11.378534 4.024882 26.000000
14.023172 -21.259182 3.869811 13.000000
34.452675 28.572701 4.649101 12.000000
17.731239 -11.453303 4.030509 10.000000
13.963701 -21.314405 3.880960 21.000000
34.566719 28.454096 4.626692 8.000000
17.656559 -11.501386 4.034978 21.000000
13.938244 -21.446619 3.909410 24.000000
25.929380 21.185192 3.442465 8.000000
10.015377 -6.576371 2.298600 5.000000
13.876806 -21.524338 3.932578 13.000000
26.066666 21.138517 3.426707 8.000000
9.930599 -6.570427 2.286548 4.000000
13.888736 -21.708860 3.966617 19.000000
31.744892 25.550926 4.139266 10.000000
9.940779 -6.624663 2.298261 1.000000
13.828769 -21.790653 3.990721 11.000000
32.279213 25.786612 4.174731 10.000000
85.177422 -14.299664 16.991970 1.000000
17.674757 -11.867991 4.095874 13.000000
13.767673 -21.862696 4.004323 14.000000
31.809465 25.229954 4.081088 10.000000
84.843628 -14.548312 16.951015 1.000000
17.633427 -11.934239 4.107967 30.000000
13.751401 -22.015390 4.041591 10.000000
32.756187 25.785837 4.161001 27.000000
84.804230 -14.861722 16.953915 1.000000
17.622923 -12.017037 4.122991 14.000000
13.697745 -22.109430 4.068211 20.000000
31.562801 24.659563 3.969658 17.000000
84.538391 -15.119481 16.864511 1.000000
17.606485 -12.100603 4.133362 10.000000
13.655957 -22.214815 4.088132 10.000000
84.426422 -15.419003 16.868893 1.000000
17.554882 -12.155577 4.138916 10.000000
13.590955 -22.291796 4.111781 10.000000
34.010201 26.172474 4.200284 15.000000
84.721275 -15.778645 16.954329 1.000000
17.560059 -12.250067 4.154070 19.000000
13.555772 -22.409712 4.134147 10.000000
34.139278 26.073139 4.181689 11.000000
85.401321 -16.229389 17.070692 8.000000
17.538540 -12.330866 4.163527 10.000000
13.556267 -22.597136 4.173671 26.000000
59.934467 45.426819 7.267878 9.000000
85.274826 -16.513973 17.041080 7.000000
17.483374 -12.383501 4.160667 10.000000
13.501441 -22.684870 4.195316 18.000000
59.758545 44.949589 7.173831 12.000000
85.336983 -16.850748 17.049967 5.000000
17.477226 -12.475591 4.173947 14.000000
13.465147 -22.813732 4.219474 20.000000
85.294983 -17.152016 17.037666 5.000000
17.364059 -12.486535 4.168927 19.000000
13.454165 -22.977987 4.255438 12.000000
61.813362 45.789589 7.285175 12.000000
85.060394 -17.429451 17.019190 15.000000
17.322151 -12.552974 4.169884 9.000000
13.343946 -22.982521 4.261462 13.000000
84.915489 -17.708838 16.986738 10.000000
17.273676 -12.610040 4.172660 22.000000
13.310229 -23.119177 4.292056 17.000000
60.207409 43.903999 6.912553 13.000000
17.247126 -12.683183 4.165280 31.000000
13.263721 -23.225513 4.303175 14.000000
60.223778 43.899834 6.795496 15.000000
17.255171 -12.684459 4.127910 21.000000
13.267553 -23.222811 4.274375 14.000000
60.260067 44.265419 6.804694 16.000000
85.216850 -17.787207 16.669321 1.000000
17.273870 -12.600942 4.094219 23.000000
13.362059 -23.181124 4.237810 16.000000
60.009117 44.404411 6.793818 1.000000
85.276443 -17.473721 16.589603 5.000000
17.313257 -12.537313 4.069956 10.000000
13.357308 -22.977819 4.181039 10.000000
60.012665 44.748356 6.825917 1.000000
85.460999 -17.200918 16.566425 7.000000
17.357979 -12.472973 4.050369 21.000000
13.426787 -22.912884 4.153980 10.000000
59.931850 45.030827 6.835452 20.000000
85.624374 -16.907495 16.507071 1.000000
17.501886 -12.479366 4.057705 18.000000
13.472300 -22.798574 4.118509 16.000000
59.772392 45.238312 6.861618 20.000000
17.567703 -12.434025 4.047318 10.000000
13.514240 -22.679350 4.087017 26.000000
59.655743 45.494881 6.893732 13.000000
85.693726 -16.284958 16.450251 6.000000
17.587315 -12.351401 4.025847 17.000000
13.568563 -22.581881 4.054849 17.000000
34.011551 26.135725 3.948919 9.000000
85.536293 -15.945884 16.362070 1.000000
17.675669 -12.316964 4.016254 15.000000
13.594162 -22.437790 4.014462 10.000000
34.096741 26.391001 3.977071 9.000000
85.815292 -15.672655 16.357054 14.000000
17.646936 -12.205653 3.992271 13.000000
13.649421 -22.343800 3.987864 18.000000
33.990837 26.508818 3.991199 11.000000
86.116982 -15.417318 16.372589 9.000000
17.746544 -12.178630 3.989136 17.000000
13.687682 -22.231617 3.953037 10.000000
31.343967 24.629856 3.705014 10.000000
85.928055 -15.058670 16.341827 18.000000
17.762228 -12.098408 3.971505 18.000000
13.728805 -22.116430 3.922889 10.000000
31.158792 24.669603 3.707782 22.000000
85.020386 -14.593897 16.081512 1.000000
17.760992 -12.002503 3.938156 18.000000
13.764365 -21.993406 3.886837 24.000000
31.907227 25.452972 3.829476 10.000000
85.342690 -14.327410 16.116806 1.000000
17.797834 -11.932614 3.928870 10.000000
13.833492 -21.924757 3.860511 10.000000
31.910801 25.638609 3.847830 14.000000
86.426086 -14.199285 16.280313 7.000000
9.941881 -6.615380 2.185250 2.000000
13.828756 -21.748661 3.824187 12.000000
26.030842 21.071838 3.165804 5.000000
86.426964 -13.874301 16.254986 10.000000
9.926597 -6.552845 2.165871 6.000000
13.867460 -21.633995 3.790022 10.000000
26.014727 21.217093 3.179191 8.000000
10.007652 -6.556310 2.174235 1.000000
13.918559 -21.539537 3.764094 25.000000
32.357841 26.588488 3.988376 9.000000
17.671942 -11.485065 3.822587 22.000000
13.982640 -21.465702 3.741853 29.000000
32.376038 26.793308 4.002122 10.000000
17.717272 -11.422380 3.800514 16.000000
14.014478 -21.343119 3.702110 24.000000
32.815022 27.359856 4.091330 11.000000
17.758711 -11.361537 3.789476 23.000000
14.049001 -21.233776 3.678017 12.000000
32.345078 27.150364 4.066256 11.000000
17.788881 -11.289167 3.779468 19.000000
14.100695 -21.143099 3.653127 30.000000
17.800142 -11.209347 3.765945 14.000000
14.129807 -21.019447 3.622641 25.000000
30.135954 25.665854 3.839422 8.000000
17.843615 -11.154259 3.752137 14.000000
14.175200 -20.920950 3.592093 19.000000
32.287308 27.702908 4.148906 9.000000
78.878082 -10.384496 14.587404 1.000000
17.864805 -11.068017 3.735867 14.000000
14.218497 -20.827915 3.571149 20.000000
32.184460 27.820112 4.163756 11.000000
79.133377 -10.137219 14.627984 1.000000
17.905550 -11.006953 3.721195 16.000000
14.265278 -20.732845 3.545869 27.000000
78.669968 -9.784919 14.492696 1.000000
17.930061 -10.931675 3.710378 12.000000
5.970813 -8.610100 1.466965 7.000000
78.420555 -9.476043 14.412072 1.000000
17.974539 -10.872908 3.696583 10.000000
6.119378 -8.755629 1.486068 6.000000
78.222656 -9.161369 14.383639 1.000000
17.998482 -10.797484 3.685791 17.000000
33.883011 30.156851 4.527491 13.000000
78.205383 -8.882726 14.346285 1.000000
18.013645 -10.716992 3.673285 22.000000
33.782776 30.290270 4.536900 13.000000
18.018665 -10.634996 3.655426 19.000000
33.763687 30.486429 4.572658 13.000000
106.172470 34.928268 17.422812 12.000000
78.220589 -8.317947 14.295238 1.000000
18.063984 -10.581130 3.646186 20.000000
105.183121 35.030548 17.301233 15.000000
78.316650 -8.037983 14.293118 1.000000
18.093346 -10.505229 3.632658 15.000000
6.473665 -8.916779 1.495696 8.000000
33.653709 30.837944 4.628496 9.000000
104.531181 35.219257 17.214115 19.000000
78.114136 -7.741754 14.251140 1.000000
18.104033 -10.422897 3.612087 24.000000
6.594691 -9.013803 1.508075 33.000000
30.972837 28.590921 4.296469 22.000000
103.968384 35.454483 17.162357 32.000000
18.148148 -10.368319 3.606495 17.000000
6.475543 -8.783214 1.463761 24.000000
103.576805 35.725029 17.157381 34.000000
18.150328 -10.277327 3.591563 22.000000
6.537551 -8.799611 1.466582 26.000000
26.934544 25.222540 3.793768 13.000000
103.149506 36.001221 17.088804 22.000000
18.224066 -10.239419 3.591903 9.000000
6.266082 -8.372998 1.389829 19.000000
27.252897 25.708788 3.871681 9.000000
102.733437 36.258789 17.079702 17.000000
18.705301 -10.424069 3.664169 10.000000
6.291197 -8.342640 1.383041 18.000000
27.259367 25.895313 3.898683 9.000000
102.313278 36.532757 17.051424 29.000000
19.197474 -10.606319 3.745061 17.000000
6.466425 -8.509944 1.405207 33.000000
26.062874 24.941059 3.766064 9.000000
102.275284 36.942398 17.106438 14.000000
19.738832 -10.811173 3.834829 14.000000
6.479787 -8.462957 1.397576 36.000000
32.690514 31.491768 4.754835 13.000000
102.050163 37.223927 17.068834 16.000000
20.539968 -11.156936 3.974486 10.000000
6.541790 -8.479369 1.394731 31.000000
32.515671 31.575972 4.771796 13.000000
101.352234 37.431011 17.015741 29.000000
20.921730 -11.265191 4.023274 27.000000
6.574986 -8.461164 1.387896 31.000000
32.462505 31.756353 4.797071 13.000000
101.233894 37.789398 17.056572 28.000000
21.392979 -11.413192 4.092380 20.000000
6.787075 -8.668335 1.416182 14.000000
30.582174 30.126551 4.557451 11.000000
100.939445 38.101574 17.049677 22.000000
22.019634 -11.653875 4.200368 31.000000
30.565136 30.331310 4.594250 14.000000
100.713539 38.418484 17.034067 26.000000
22.747406 -11.927466 4.316597 13.000000
26.422230 26.413006 4.012435 8.000000
100.552681 38.779888 17.069345 32.000000
23.296326 -12.116965 4.398975 7.000000
6.668111 -8.329120 1.353546 71.000000
26.365789 26.550505 4.038434 9.000000
100.347275 39.123768 17.077976 34.000000
23.987770 -12.359811 4.515702 35.000000
6.677384 -8.278329 1.341716 34.000000
27.295458 27.669600 4.215451 12.000000
100.232094 39.442062 17.117924 31.000000
24.794140 -12.671425 4.649575 103.000000
6.845790 -8.423742 1.363568 30.000000
27.212324 27.798014 4.232804 19.000000
100.079361 39.846649 17.138296 32.000000
25.652191 -12.991590 4.786047 29.000000
6.583502 -8.043468 1.298354 29.000000
26.071960 26.810385 4.089045 9.000000
99.870941 40.168110 17.126513 36.000000
26.263103 -13.186000 4.880868 29.000000
6.591274 -7.993012 1.288591 52.000000
25.855173 26.801886 4.098197 5.000000
99.685486 40.518616 17.158573 29.000000
26.352686 -13.098789 4.877150 18.000000
6.589530 -7.931493 1.273422 37.000000
25.674051 26.782009 4.089358 17.000000
99.731293 40.902786 17.188494 29.000000
26.899040 -13.259302 4.948591 7.000000
6.634911 -7.926826 1.271073 60.000000
25.316805 26.603853 4.073913 18.000000
99.564255 41.261227 17.204943 34.000000
29.619661 -14.472080 5.427954 7.000000
6.715681 -7.963836 1.273564 25.000000
25.146940 26.638672 4.083171 32.000000
99.400375 41.661640 17.282555 36.000000
6.894876 -8.118662 1.296505 21.000000
25.084188 26.749344 4.106803 35.000000
99.323570 41.996780 17.292053 35.000000
32.123692 -15.411780 5.840924 5.000000
6.947761 -8.120423 1.293273 20.000000
25.257187 27.122955 4.163702 18.000000
99.444878 42.478394 17.378885 32.000000
7.055851 -8.185829 1.300145 31.000000
25.192230 27.252800 4.202231 17.000000
99.039803 42.755775 17.375286 26.000000
34.900436 -16.430340 6.296088 8.000000
6.959159 -8.014068 1.273149 68.000000
25.151642 27.409758 4.225343 9.000000
7.134898 -8.158744 1.290488 26.000000
25.024206 27.462702 4.239719 28.000000
6.909181 -7.842445 1.238905 13.000000
24.981371 27.618345 4.275923 30.000000
38.419197 -17.589682 6.843714 22.000000
7.053818 -7.947700 1.252086 19.000000
25.160545 28.022202 4.344122 9.000000
38.595787 -17.499704 6.863699 14.000000
6.925063 -7.750705 1.219145 27.000000
22.880709 25.653688 3.983400 8.000000
38.835876 -17.453535 6.880813 20.000000
6.973784 -7.747891 1.217182 9.000000
21.968681 24.813620 3.858016 8.000000
39.012589 -17.369524 6.878397 19.000000
7.354926 -8.114199 1.271005 8.000000
39.224251 -17.275429 6.888084 10.000000
7.421906 -8.128024 1.271583 33.000000
22.489885 25.771557 4.018140 8.000000
39.446415 -17.217319 6.901622 22.000000
7.401655 -8.046420 1.257251 18.000000
21.925730 25.311754 3.951672 26.000000
39.685223 -17.156887 6.917405 13.000000
7.431839 -8.020039 1.247710 8.000000
21.841913 25.393568 3.976229 16.000000
39.907818 -17.079784 6.937476 10.000000
7.648085 -8.192962 1.273020 2.000000
21.482992 25.162245 3.945220 10.000000
40.098095 -16.979349 6.943581 11.000000
7.537422 -8.018122 1.246043 10.000000
21.369583 25.215984 3.964745 16.000000
40.352207 -16.929367 6.962162 9.000000
7.499174 -7.919072 1.225275 8.000000
21.282068 25.300144 3.983247 8.000000
40.608265 -16.870337 6.988269 9.000000
7.556029 -7.920760 1.224009 1.000000
21.240463 25.430357 4.003784 9.000000
40.747410 -16.753286 6.970070 8.000000
15.880213 -16.525057 2.550474 27.000000
20.710102 24.963165 3.948117 13.000000
41.000668 -16.681997 7.002885 10.000000
15.870790 -16.411739 2.528567 27.000000
20.566977 24.994146 3.962861 21.000000
41.169724 -16.583519 7.013890 13.000000
7.819707 -8.021550 1.232795 8.000000
20.527281 25.133089 3.990182 8.000000
41.443554 -16.517534 7.034218 23.000000
7.779709 -7.922219 1.217981 10.000000
20.503302 25.283358 4.025723 15.000000
41.737564 -16.466112 7.058271 9.000000
20.565174 25.550512 4.067856 10.000000
41.895412 -16.351189 7.066739 9.000000
20.255932 25.356010 4.048050 15.000000
42.176247 -16.282917 7.071656 24.000000
7.711681 -7.684810 1.173093 6.000000
19.925507 25.121716 4.016568 18.000000
42.372421 -16.188931 7.086921 20.000000
16.091908 -15.918711 2.427003 29.000000
19.868418 25.221071 4.038973 23.000000
42.620941 -16.105112 7.118565 11.000000
16.083649 -15.794326 2.405072 31.000000
19.771381 25.306213 4.062642 22.000000
42.891426 -16.027914 7.129324 9.000000
16.145889 -15.739616 2.393797 30.000000
19.646358 25.337063 4.078751 8.000000
46.934826 -17.352407 7.773405 15.000000
16.155188 -15.639071 2.375162 16.000000
19.426125 25.216230 4.066392 18.000000
47.378624 -17.319363 7.836341 9.000000
16.192078 -15.560226 2.356333 28.000000
19.789680 25.902561 4.187357 15.000000
47.372936 -17.130064 7.798453 9.000000
16.228300 -15.481030 2.341460 29.000000
19.564009 25.802673 4.182570 10.000000
46.369915 -16.575447 7.623284 9.000000
16.259954 -15.397791 2.333917 29.000000
19.514250 25.924515 4.208529 21.000000
46.490025 -16.426464 7.606647 9.000000
16.296015 -15.319042 2.311290 28.000000
19.433231 25.995852 4.221145 28.000000
44.808250 -15.656515 7.314010 9.000000
16.321186 -15.235737 2.295488 27.000000
19.536926 26.335289 4.287888 10.000000
44.970512 -15.528500 7.314156 9.000000
16.355907 -15.156343 2.280745 22.000000
19.408657 26.363775 4.309975 8.000000
44.847923 -15.311165 7.277014 7.000000
16.404902 -15.090365 2.268057 29.000000
19.177711 26.241440 4.296320 12.000000
44.056145 -14.860780 7.139654 9.000000
16.409546 -14.983974 2.249336 25.000000
19.088810 26.321766 4.315311 17.000000
43.935253 -14.657909 7.087326 5.000000
16.456331 -14.926923 2.237199 25.000000
18.999126 26.401171 4.339993 17.000000
38.429646 -12.672197 6.184799 8.000000
16.487022 -14.850194 2.222576 23.000000
44.132153 -14.356440 7.076641 9.000000
16.513975 -14.754828 2.206496 24.000000
19.757540 27.873617 4.607248 8.000000
44.067642 -14.182516 7.067385 12.000000
16.537340 -14.677377 2.195308 23.000000
19.727501 28.048578 4.648562 8.000000
44.201759 -14.047101 7.064023 9.000000
16.562017 -14.591110 2.179799 25.000000
44.235264 -13.879450 7.052921 8.000000
16.601257 -14.517956 2.166286 29.000000
18.747305 27.064453 4.504082 8.000000
45.328106 -14.048733 7.210829 9.000000
16.638943 -14.438539 2.152308 32.000000
18.766840 27.305920 4.556356 8.000000
45.413586 -13.892994 7.207798 10.000000
16.692602 -14.378190 2.140772 29.000000
45.201576 -13.647161 7.149301 12.000000
16.688097 -14.278186 2.122503 34.000000
18.859295 27.865538 4.668991 9.000000
45.226410 -13.465390 7.136574 10.000000
16.730944 -14.198916 2.109090 32.000000
18.636513 27.754980 4.662781 9.000000
45.416641 -13.358232 7.168015 9.000000
16.746433 -14.111799 2.100962 26.000000
18.488928 27.754448 4.675014 8.000000
45.423862 -13.188255 7.136512 10.000000
16.790442 -14.053933 2.085199 26.000000
18.966270 28.687534 4.845487 8.000000
46.163506 -13.219734 7.227914 9.000000
16.823532 -13.977088 2.071377 30.000000
18.970457 28.923746 4.898237 8.000000
46.219952 -13.052794 7.237786 9.000000
16.846043 -13.881867 2.051895 25.000000
20.866108 32.069687 5.438451 10.000000
46.151863 -12.842427 7.210797 9.000000
16.877817 -13.804497 2.045750 25.000000
20.880054 32.349880 5.507235 18.000000
46.395653 -12.744651 7.233657 9.000000
16.890480 -13.711843 2.029689 19.000000
20.893578 32.620182 5.561501 9.000000
16.935186 -13.650338 2.017835 30.000000
45.691486 -12.200271 7.084754 9.000000
16.942041 -13.563429 2.005641 18.000000
21.117849 33.482716 5.739705 10.000000
45.777733 -12.043728 7.099683 9.000000
17.003883 -13.510969 1.999441 16.000000
20.924038 33.459465 5.750037 10.000000
45.442566 -11.786099 7.032900 25.000000
17.034559 -13.433784 1.985790 22.000000
20.677778 33.310886 5.740644 14.000000
45.673500 -11.667501 7.053563 10.000000
17.037174 -13.334860 1.972769 13.000000
20.471279 33.275589 5.755181 10.000000
45.820644 -11.534860 7.061594 9.000000
17.092997 -13.273028 1.961892 11.000000
20.437941 33.482723 5.806616 10.000000
45.837421 -11.360597 7.066142 10.000000
17.141672 -13.219940 1.951009 15.000000
20.434887 33.728722 5.865631 10.000000
45.903969 -11.198669 7.061594 24.000000
17.123055 -13.105777 1.939616 10.000000
20.243320 33.690544 5.867085 10.000000
17.199543 -13.064629 1.931442 17.000000
20.003580 33.596302 5.878508 10.000000
83.575127 -19.756325 12.819303 1.000000
17.200937 -12.957130 1.914377 12.000000
19.740376 33.392452 5.852731 12.000000
83.612038 -19.457130 12.799152 1.000000
17.233852 -12.897261 1.909735 20.000000
19.510778 33.281929 5.848336 9.000000
83.969398 -19.216135 12.827620 1.000000
17.293804 -12.843513 1.899782 25.000000
19.269337 33.147945 5.846576 9.000000
83.604393 -18.825731 12.777033 1.000000
17.264849 -12.724093 1.887693 16.000000
19.002516 32.966454 5.829427 9.000000
83.679840 -18.520731 12.762813 1.000000
17.328243 -12.673071 1.878206 10.000000
19.616285 34.307480 6.082654 10.000000
83.879814 -18.242756 12.767715 1.000000
17.346886 -12.589379 1.867674 10.000000
19.510241 34.414127 6.117119 10.000000
84.114899 -17.986610 12.809208 1.000000
17.358923 -12.505837 1.856734 14.000000
19.228840 34.209408 6.103230 7.000000
85.150452 -17.881937 12.941315 11.000000
17.388958 -12.430919 1.847543 10.000000
19.059845 34.201630 6.124338 8.000000
85.166550 -17.575146 12.949872 8.000000
17.443054 -12.373238 1.840939 13.000000
18.857033 34.117222 6.125283 10.000000
17.455959 -12.286469 1.833783 22.000000
18.786242 34.285355 6.178030 1.000000
85.227493 -16.952803 12.971368 16.000000
17.474501 -12.208527 1.827495 18.000000
85.684822 -16.717531 13.047136 4.000000
17.539864 -12.158769 1.825906 27.000000
85.629089 -16.396587 13.076529 12.000000
17.522999 -12.052233 1.815800 10.000000
85.865860 -16.457462 13.269190 4.000000
17.527264 -12.059671 1.842645 15.000000
85.708580 -16.737696 13.269427 11.000000
17.502350 -12.137288 1.859672 18.000000
85.482132 -17.018963 13.275065 14.000000
17.452597 -12.197757 1.874103 12.000000
18.864613 34.159096 6.222374 10.000000
85.425674 -17.364525 13.323721 12.000000
17.422987 -12.272357 1.890735 10.000000
19.071798 34.251190 6.230193 10.000000
84.992950 -17.570255 13.311752 17.000000
17.461813 -12.395710 1.918702 19.000000
19.225405 34.231266 6.218270 10.000000
85.220970 -17.943340 13.404352 10.000000
17.370619 -12.426972 1.928705 10.000000
19.412617 34.283756 6.211885 10.000000
85.073380 -18.222624 13.406607 11.000000
17.344604 -12.504722 1.938418 18.000000
19.576496 34.279533 6.202897 10.000000
85.102585 -18.555365 13.421836 7.000000
17.358259 -12.611513 1.956424 10.000000
19.011362 33.008423 5.958210 9.000000
83.864555 -18.607679 13.283300 1.000000
17.298759 -12.665416 1.970030 10.000000
19.226728 33.114544 5.975752 9.000000
85.077301 -19.219810 13.533742 1.000000
17.259125 -12.733827 1.985919 26.000000
19.466881 33.246933 5.991816 9.000000
84.686172 -19.457956 13.498308 1.000000
17.259443 -12.832022 2.002712 25.000000
19.689892 33.360195 6.003806 9.000000
83.382629 -19.449774 13.346657 1.000000
17.187269 -12.876444 2.014924 26.000000
20.010759 33.621704 6.043052 10.000000
17.174870 -12.965708 2.030395 22.000000
20.244024 33.745056 6.056793 7.000000
17.149870 -13.045790 2.048257 26.000000
45.861153 -11.239120 7.402624 14.000000
17.105322 -13.111151 2.056253 25.000000
45.757549 -11.374713 7.417245 17.000000
17.105871 -13.206618 2.073268 27.000000
20.353418 33.135822 5.915911 10.000000
45.701939 -11.530426 7.423141 9.000000
17.079775 -13.286671 2.091240 26.000000
20.566570 33.183414 5.911217 10.000000
45.495441 -11.655856 7.404891 9.000000
17.014429 -13.336224 2.100636 28.000000
20.856783 33.390797 5.940007 10.000000
45.267040 -11.774308 7.399791 18.000000
16.987715 -13.416088 2.118650 35.000000
21.191460 33.651470 5.978862 10.000000
45.205315 -11.926880 7.404825 24.000000
17.004040 -13.530471 2.134515 27.000000
21.197622 33.389225 5.917801 10.000000
45.431950 -12.164956 7.457618 18.000000
16.929876 -13.573093 2.146732 28.000000
20.943138 32.735283 5.787085 10.000000
45.257137 -12.296092 7.444662 9.000000
16.902359 -13.653103 2.161062 25.000000
20.890915 32.391518 5.712307 9.000000
45.146034 -12.435289 7.441859 9.000000
16.909502 -13.761592 2.176096 27.000000
20.869955 32.124638 5.663751 9.000000
46.432690 -12.972976 7.687621 9.000000
16.861912 -13.825905 2.188010 29.000000
46.431046 -13.156168 7.703918 9.000000
16.813780 -13.889809 2.203735 27.000000
46.258865 -13.281993 7.700224 9.000000
16.802544 -13.979488 2.220207 27.000000
19.095987 28.709148 5.030092 8.000000
46.123260 -13.426237 7.694389 9.000000
16.742676 -14.033840 2.230635 28.000000
45.913620 -13.547950 7.693360 9.000000
16.720634 -14.120028 2.246158 29.000000
18.724953 27.719120 4.844212 9.000000
45.897873 -13.717648 7.707275 9.000000
16.724390 -14.228539 2.269145 27.000000
18.907890 27.759542 4.845975 8.000000
45.368755 -13.758137 7.636126 9.000000
16.670012 -14.298024 2.281159 27.000000
45.082077 -13.826005 7.612036 9.000000
16.663002 -14.388193 2.298368 35.000000
18.955391 27.415937 4.767415 8.000000
44.268425 -13.754184 7.508020 9.000000
16.619270 -14.452005 2.310939 21.000000
18.884542 27.100586 4.706934 10.000000
44.068306 -13.869319 7.474377 13.000000
16.587717 -14.531679 2.325617 22.000000
44.152264 -14.065317 7.521798 9.000000
16.544306 -14.601171 2.342595 26.000000
19.847143 28.051884 4.859992 8.000000
44.022766 -14.201997 7.525126 9.000000
16.523201 -14.690625 2.358923 28.000000
19.969040 28.005899 4.840181 9.000000
43.933826 -14.351301 7.543708 9.000000
16.486839 -14.766846 2.373164 28.000000
38.379211 -12.685280 6.590266 8.000000
16.442755 -14.836330 2.386360 22.000000
19.126568 26.422316 4.555202 25.000000
44.183144 -14.783474 7.621185 9.000000
16.453550 -14.955838 2.407644 31.000000
19.234373 26.367241 4.528798 18.000000
44.535358 -15.074388 7.707820 9.000000
16.400312 -15.012329 2.419286 15.000000
19.297901 26.261299 4.510550 17.000000
44.511211 -15.248273 7.721694 10.000000
16.369511 -15.094774 2.438618 21.000000
44.438488 -15.405581 7.735682 20.000000
16.338629 -15.177477 2.454105 23.000000
19.549454 26.198963 4.483641 9.000000
44.620613 -15.643404 7.785320 9.000000
16.300093 -15.253357 2.468529 23.000000
19.576242 26.044695 4.457320 25.000000
46.572285 -16.519558 8.162931 9.000000
16.261213 -15.329153 2.482978 11.000000
19.611094 25.892920 4.414744 10.000000
46.453972 -16.660378 8.152338 9.000000
16.242701 -15.419136 2.500226 16.000000
19.619627 25.707869 4.383927 8.000000
46.940380 -17.029255 8.275458 9.000000
16.213539 -15.504827 2.520327 20.000000
19.427231 25.272366 4.298539 8.000000
47.106464 -17.285147 8.333849 9.000000
16.180696 -15.587358 2.535998 22.000000
19.596970 25.300713 4.298488 16.000000
46.887245 -17.390650 8.314724 9.000000
16.129314 -15.652244 2.552811 29.000000
19.730902 25.299881 4.292339 9.000000
42.812168 -16.057934 7.618862 9.000000
16.103172 -15.741886 2.565751 27.000000
19.922998 25.335810 4.289066 35.000000
42.553493 -16.139065 7.591468 10.000000
16.096724 -15.845843 2.585502 27.000000
19.991583 25.259306 4.269562 16.000000
42.374691 -16.240669 7.585920 18.000000
16.051363 -15.917450 2.603559 18.000000
20.137497 25.234837 4.261855 8.000000
42.134315 -16.325905 7.561656 10.000000
16.006002 -15.989250 2.617693 21.000000
20.564007 25.594755 4.316644 13.000000
41.872566 -16.392820 7.541042 14.000000
20.498659 25.313738 4.259362 8.000000
41.641335 -16.478563 7.518261 16.000000
20.540035 25.193548 4.233266 24.000000
41.388081 -16.554052 7.515442 10.000000
20.639936 25.127468 4.217533 31.000000
41.212402 -16.650890 7.486072 18.000000
15.900076 -16.350407 2.691285 23.000000
20.781187 25.111214 4.204424 14.000000
40.999325 -16.723167 7.473295 9.000000
15.859752 -16.428991 2.706758 31.000000
21.215569 25.436623 4.254885 8.000000
40.857056 -16.848406 7.490837 21.000000
15.819058 -16.507492 2.722261 24.000000
21.324032 25.394983 4.236195 15.000000
7.555370 -7.942243 1.311006 7.000000
21.408785 25.306988 4.216938 33.000000
40.524395 -17.059860 7.476259 8.000000
7.595149 -8.040073 1.330603 10.000000
21.621874 25.369709 4.222832 13.000000
40.318233 -17.138996 7.457085 8.000000
7.500639 -7.998552 1.324998 12.000000
21.947306 25.552158 4.243306 26.000000
40.345730 -17.325554 7.473865 8.000000
7.447124 -8.000049 1.326522 10.000000
7.420648 -8.030423 1.332850 12.000000
22.476276 25.801378 4.280314 9.000000
39.419010 -17.262722 7.371268 8.000000
39.180920 -17.305355 7.329182 12.000000
