VERSION .7
FIELDS x y z intensity
SIZE 4 4 4 4
TYPE F F F F
COUNT 1 1 1 1
WIDTH 1249
HEIGHT 1
VIEWPOINT 0 0 0 1 0 0 0
POINTS 1249
DATA ascii
8.231624 3.244182 -1.675017 1.000000
6.123364 -0.273777 -1.221454 26.000000
5.542107 -2.800734 -1.092684 30.000000
5.272823 -6.478961 -0.973912 9.000000
9.161821 9.424598 -1.896406 4.000000
8.535747 3.398512 -1.735983 1.000000
6.109584 -0.251795 -1.218523 29.000000
5.573665 -2.791084 -1.101369 30.000000
5.311409 -6.477731 -0.988504 9.000000
9.176479 9.509163 -1.894871 5.000000
8.364809 3.366024 -1.697197 1.000000
6.100666 -0.229032 -1.216568 27.000000
5.600460 -2.778874 -1.111396 35.000000
5.355456 -6.485149 -1.001414 10.000000
9.213326 9.614284 -1.892798 4.000000
8.437931 3.436586 -1.710000 1.000000
6.096600 -0.205441 -1.215591 32.000000
5.628104 -2.766931 -1.115991 36.000000
5.378628 -6.464803 -1.008753 16.000000
9.285164 9.753791 -1.899806 5.000000
8.509133 3.498528 -1.721785 1.000000
6.087265 -0.183856 -1.214700 27.000000
5.654725 -2.755551 -1.123887 30.000000
5.407562 -6.458203 -1.022301 9.000000
9.243913 9.782001 -1.884316 5.000000
8.355769 3.473039 -1.688534 1.000000
6.083476 -0.159301 -1.211598 29.000000
5.687197 -2.743178 -1.132693 28.000000
5.455276 -6.462307 -1.033899 9.000000
9.319274 9.930964 -1.894616 5.000000
6.078717 -0.135822 -1.212744 27.000000
5.717564 -2.734491 -1.142638 25.000000
5.484249 -6.455376 -1.047547 9.000000
9.338503 10.031855 -1.887194 4.000000
6.064486 -0.112209 -1.209810 29.000000
5.764188 -2.727181 -1.151961 27.000000
5.535101 -6.462478 -1.062853 9.000000
9.378744 10.145868 -1.887731 5.000000
6.064872 -0.088922 -1.209810 31.000000
5.813324 -2.724397 -1.165564 28.000000
5.563377 -6.449784 -1.073013 9.000000
9.443563 10.284199 -1.892739 5.000000
6.060231 -0.068754 -1.208832 31.000000
5.875120 -2.729633 -1.180805 19.000000
5.600255 -6.449173 -1.085082 9.000000
9.506756 10.436805 -1.901242 5.000000
8.510258 3.725117 -1.705003 1.000000
6.055562 -0.043333 -1.207854 34.000000
5.930631 -2.725278 -1.193188 16.000000
5.637164 -6.441548 -1.098062 10.000000
9.533278 10.535892 -1.898375 5.000000
6.060376 -0.020097 -1.209889 32.000000
5.984582 -2.723548 -1.206771 16.000000
5.692763 -6.457172 -1.113439 9.000000
9.534646 10.611624 -1.885742 3.000000
6.055717 0.000000 -1.207854 32.000000
6.010933 -2.711515 -1.213834 11.000000
5.718825 -6.445799 -1.123746 9.000000
9.624276 10.786880 -1.895503 3.000000
6.050777 0.021121 -1.206876 38.000000
6.078138 -2.716336 -1.229087 14.000000
5.774661 -6.460876 -1.139287 9.000000
9.667951 10.916108 -1.899029 5.000000
6.045732 0.046429 -1.205898 30.000000
6.137668 -2.713434 -1.243757 15.000000
5.807451 -6.449828 -1.150331 10.000000
9.691965 11.016611 -1.895288 5.000000
6.045545 0.066477 -1.205898 36.000000
6.191534 -2.711452 -1.256409 10.000000
5.838831 -6.439334 -1.164440 9.000000
9.746110 11.156444 -1.897710 3.000000
6.039921 0.089611 -1.207028 37.000000
6.281590 -2.723495 -1.278831 10.000000
5.878277 -6.435279 -1.176887 10.000000
9.797873 11.299015 -1.894619 5.000000
6.044816 0.115011 -1.205898 35.000000
6.332715 -2.715513 -1.289499 13.000000
5.933550 -6.450427 -1.191227 9.000000
9.807261 11.397968 -1.891552 6.000000
6.039428 0.138108 -1.204920 37.000000
6.396759 -2.713945 -1.304175 10.000000
5.966115 -6.438309 -1.205504 9.000000
9.873846 11.552620 -1.895609 5.000000
6.038516 0.158124 -1.207028 48.000000
6.455443 -2.710967 -1.320431 19.000000
6.011342 -6.441865 -1.219494 10.000000
9.851218 11.607941 -1.877448 6.000000
6.033594 0.181181 -1.202888 36.000000
6.537240 -2.718513 -1.336492 10.000000
6.054533 -6.440661 -1.231321 9.000000
9.937767 11.797297 -1.885773 6.000000
6.032854 0.204347 -1.202888 34.000000
6.587181 -2.711006 -1.349813 10.000000
6.097486 -6.438900 -1.246295 9.000000
10.025384 11.985973 -1.890954 6.000000
6.041865 0.226825 -1.204842 38.000000
6.652426 -2.705328 -1.364744 19.000000
6.140795 -6.437212 -1.258234 9.000000
10.045857 12.100294 -1.889244 5.000000
6.035840 0.249811 -1.204920 37.000000
6.724031 -2.708498 -1.384139 15.000000
6.189591 -6.443182 -1.274752 9.000000
10.160774 12.330389 -1.899543 6.000000
6.034836 0.272985 -1.204920 33.000000
6.788454 -2.704199 -1.399219 13.000000
6.212078 -6.419328 -1.285667 9.000000
10.160012 12.417531 -1.887616 4.000000
5.050364 2.578843 -0.981535 1.000000
6.034163 0.296175 -1.202811 38.000000
6.862536 -2.701841 -1.416245 12.000000
6.274946 -6.439164 -1.303630 9.000000
10.277761 12.651294 -1.897499 3.000000
5.015055 2.584031 -0.973465 1.000000
6.042621 0.318795 -1.205819 34.000000
6.916981 -2.695427 -1.429561 12.000000
6.332204 -6.450450 -1.320272 8.000000
10.297831 12.771360 -1.895324 6.000000
5.132480 2.669523 -0.994082 1.000000
6.041352 0.341995 -1.205819 35.000000
6.985664 -2.692742 -1.445773 13.000000
6.351349 -6.422694 -1.329009 9.000000
10.381918 12.968025 -1.898556 2.000000
6.049994 0.365794 -1.206716 52.000000
7.074164 -2.692876 -1.465853 9.000000
6.405277 -6.429919 -1.345064 9.000000
10.447022 13.147833 -1.898480 1.000000
6.048613 0.387966 -1.206716 34.000000
7.151230 -2.695095 -1.484114 9.000000
6.433518 -6.413338 -1.357629 9.000000
10.531754 13.349878 -1.901298 3.000000
6.052181 0.411535 -1.206634 37.000000
7.214352 -2.693031 -1.498241 10.000000
6.477223 -6.409747 -1.370016 9.000000
10.566695 13.495600 -1.898351 3.000000
6.055448 0.435122 -1.207609 29.000000
7.266415 -2.690812 -1.513200 9.000000
6.552373 -6.436751 -1.392390 9.000000
10.542089 13.561432 -1.884218 1.000000
6.053943 0.458386 -1.206550 36.000000
7.315111 -2.685640 -1.523185 9.000000
6.584367 -6.423172 -1.404271 9.000000
10.686379 13.836538 -1.893066 5.000000
6.057908 0.478895 -1.204342 34.000000
7.367506 -2.684465 -1.534145 10.000000
6.627342 -6.420098 -1.415241 9.000000
10.722260 13.993738 -1.887139 4.000000
6.060316 0.504638 -1.207437 34.000000
7.422700 -2.673800 -1.547877 11.000000
6.672246 -6.414121 -1.429482 7.000000
10.701076 14.062438 -1.872892 1.000000
6.068736 0.528811 -1.206195 30.000000
7.519965 -2.676260 -1.570346 9.000000
6.706685 -6.404570 -1.442247 9.000000
10.822348 14.335693 -1.878379 2.000000
6.066966 0.551070 -1.205132 29.000000
7.594254 -2.671380 -1.585263 13.000000
6.759930 -6.403732 -1.458145 8.000000
10.830084 14.450563 -1.869350 1.000000
6.074781 0.575306 -1.206008 33.000000
7.677277 -2.667502 -1.607813 10.000000
6.821817 -6.415081 -1.476462 9.000000
10.915146 14.675841 -1.867497 1.000000
6.077619 0.599129 -1.205911 32.000000
7.817366 -2.682581 -1.634982 9.000000
6.854979 -6.399086 -1.488619 9.000000
10.947935 14.827734 -1.859201 6.000000
6.090441 0.622940 -1.206680 32.000000
7.891360 -2.675684 -1.652930 11.000000
6.924705 -6.416838 -1.505400 8.000000
11.070174 15.092288 -1.868204 6.000000
6.093317 0.644735 -1.206578 29.000000
7.979807 -2.671555 -1.673875 12.000000
6.956797 -6.401586 -1.517664 9.000000
11.071755 15.211032 -1.854656 6.000000
6.110092 0.670243 -1.211515 29.000000
8.077447 -2.671360 -1.695378 18.000000
7.018926 -6.411407 -1.537997 8.000000
11.005846 15.243153 -1.830216 6.000000
6.107982 0.694837 -1.208296 24.000000
8.152053 -2.661352 -1.713549 20.000000
7.056205 -6.398176 -1.547841 7.000000
11.003524 15.352571 -1.808783 6.000000
6.124969 0.720602 -1.211077 26.000000
8.203927 -2.643473 -1.723871 13.000000
7.100404 -6.390989 -1.562658 9.000000
11.210342 15.751185 -1.834332 6.000000
6.117755 0.741413 -1.209038 23.000000
8.296499 -2.639775 -1.747600 1.000000
7.138930 -6.382940 -1.575051 7.000000
11.239694 15.909690 -1.827630 6.000000
6.134547 0.767360 -1.211809 30.000000
8.460028 -2.656077 -1.784716 1.000000
7.196472 -6.382591 -1.592428 8.000000
11.465869 16.350651 -1.842036 6.000000
6.141636 0.791120 -1.212652 25.000000
8.497798 -2.633759 -1.790635 1.000000
7.253561 -6.390375 -1.609031 8.000000
11.469557 16.477972 -1.830657 6.000000
4.572935 2.824302 -0.839748 1.000000
6.148492 0.816016 -1.213491 28.000000
8.520411 -2.604951 -1.801371 21.000000
7.307587 -6.386053 -1.625762 7.000000
11.529289 16.687719 -1.824493 6.000000
4.412545 2.746568 -0.808334 1.000000
6.160676 0.840622 -1.213116 29.000000
8.595135 -2.595024 -1.815243 9.000000
7.346050 -6.376826 -1.640081 8.000000
11.626991 16.961735 -1.824456 6.000000
4.418818 2.775145 -0.806854 5.000000
6.171982 0.866317 -1.215989 30.000000
8.712597 -2.592371 -1.842792 20.000000
7.418845 -6.387975 -1.661140 8.000000
11.678232 17.164658 -1.816326 6.000000
4.459195 2.823345 -0.812339 3.000000
6.188250 0.892843 -1.218727 29.000000
8.819981 -2.587500 -1.870071 7.000000
7.456092 -6.372607 -1.673046 9.000000
11.817411 17.500259 -1.821468 6.000000
4.362780 2.782610 -0.792754 1.000000
6.214697 0.919923 -1.221177 25.000000
11.837917 17.663258 -1.807953 9.000000
6.230741 0.946761 -1.223894 26.000000
5.143936 -4.308630 -1.162640 8.000000
11.782923 17.714594 -1.782809 9.000000
6.237985 0.965691 -1.224698 26.000000
9.450839 -2.656511 -2.006234 6.000000
5.120877 -4.257477 -1.161078 9.000000
11.708129 17.742828 -1.755169 9.000000
6.258855 0.992425 -1.228354 22.000000
9.441412 -2.614787 -2.005650 5.000000
5.097679 -4.206687 -1.158259 12.000000
11.608499 17.739647 -1.720632 9.000000
6.289339 1.022030 -1.232790 12.000000
9.436080 -2.576110 -2.006056 5.000000
5.094530 -4.169825 -1.160838 10.000000
11.534675 17.748274 -1.695635 8.000000
6.357789 1.058226 -1.248162 9.000000
9.458736 -2.543310 -2.015908 7.000000
5.088441 -4.136739 -1.162220 10.000000
11.479485 17.799025 -1.663167 9.000000
6.456528 1.096677 -1.264696 8.000000
9.429347 -2.500146 -2.009547 7.000000
5.068299 -4.089602 -1.160051 10.000000
11.375067 17.773026 -1.638490 9.000000
9.414937 -2.455917 -2.007899 5.000000
5.064511 -4.053087 -1.162460 11.000000
11.343725 17.861067 -1.609514 17.000000
10.030333 1.754181 -1.962697 12.000000
9.418031 -2.421644 -2.010283 7.000000
5.050163 -4.014204 -1.161916 11.000000
11.500340 18.248100 -1.614261 8.000000
10.049036 1.797245 -1.960302 16.000000
9.436905 -2.384399 -2.015706 7.000000
5.046278 -3.978165 -1.161971 17.000000
11.519720 18.421093 -1.595494 9.000000
10.081363 1.841184 -1.966057 10.000000
9.379063 -2.333247 -2.001511 5.000000
5.037466 -3.939949 -1.162214 19.000000
11.466144 18.485790 -1.574546 9.000000
10.084548 1.881807 -1.964360 6.000000
9.381837 -2.295721 -2.007240 2.000000
5.034163 -3.910529 -1.164202 20.000000
11.377157 18.478849 -1.540277 10.000000
4.578873 3.203780 -0.797338 1.000000
10.064115 1.912552 -1.959751 5.000000
9.346961 -2.252635 -1.998084 5.000000
5.016497 -3.867409 -1.162543 17.000000
11.274068 18.462643 -1.505118 9.000000
10.086968 1.957054 -1.958215 1.000000
9.354863 -2.216568 -2.001440 8.000000
4.987034 -3.815634 -1.156999 30.000000
11.193177 18.467579 -1.472191 9.000000
10.084534 1.996791 -1.957357 4.000000
9.353390 -2.180044 -1.999402 6.000000
4.992349 -3.790772 -1.160657 39.000000
11.093699 18.448425 -1.437374 9.000000
10.136267 2.045671 -1.961361 2.000000
9.337154 -2.138494 -1.997650 7.000000
4.998366 -3.765171 -1.163206 39.000000
10.989226 18.419975 -1.405840 8.000000
10.133820 2.085705 -1.958681 6.000000
9.358942 -2.105696 -2.004061 6.000000
4.991634 -3.731502 -1.164076 39.000000
10.915006 18.448917 -1.374930 9.000000
10.203375 2.139031 -1.971742 7.000000
9.339003 -2.060149 -1.997926 7.000000
4.988672 -3.700864 -1.165825 36.000000
10.800864 18.402267 -1.342461 8.000000
10.186820 2.176428 -1.962612 5.000000
9.326677 -2.021611 -1.997168 7.000000
4.989512 -3.673212 -1.168465 37.000000
10.745737 18.448210 -1.313281 9.000000
10.198650 2.218072 -1.962672 1.000000
9.338122 -1.989990 -1.999858 6.000000
4.987049 -3.641955 -1.169070 56.000000
10.659710 18.448284 -1.280770 9.000000
10.219514 2.263740 -1.964563 1.000000
9.340221 -1.952975 -2.002164 5.000000
4.975672 -3.605758 -1.168853 68.000000
10.555573 18.423613 -1.250329 9.000000
10.273807 2.315302 -1.974715 1.000000
9.328476 -1.913164 -1.998057 6.000000
4.961092 -3.583320 -1.166317 62.000000
10.470601 18.416620 -1.217811 8.000000
4.380637 3.295057 -0.730421 4.000000
10.314088 2.366031 -1.976542 1.000000
9.335083 -1.878892 -1.999719 8.000000
4.966000 -3.557930 -1.169777 68.000000
10.368496 18.378609 -1.187153 9.000000
4.318924 3.271119 -0.716163 90.000000
10.344984 2.413064 -1.976471 4.000000
9.294221 -1.833563 -1.989443 7.000000
4.970503 -3.533659 -1.171090 68.000000
10.301962 18.418091 -1.154006 8.000000
10.355447 2.457468 -1.976415 3.000000
4.991390 -3.519734 -1.177240 34.000000
10.223008 18.412468 -1.122144 9.000000
4.316241 3.317957 -0.708038 184.000000
10.395504 2.507256 -1.978079 1.000000
9.269225 -1.754790 -1.982869 19.000000
4.995708 -3.495434 -1.178540 24.000000
10.118474 18.375038 -1.088333 9.000000
4.316494 3.343392 -0.703303 147.000000
10.506532 2.576763 -1.993263 1.000000
9.324006 -1.728102 -1.993154 6.000000
4.991510 -3.465316 -1.180047 23.000000
10.094752 18.331959 -1.071133 9.000000
10.523332 2.578936 -1.984636 1.000000
9.388614 -1.740077 -1.996526 9.000000
4.987408 -3.474090 -1.171562 32.000000
10.208337 18.393608 -1.095114 9.000000
4.326744 3.314032 -0.701074 137.000000
10.547731 2.543971 -1.983552 1.000000
9.484571 -1.795558 -2.009593 9.000000
4.988645 -3.500878 -1.165892 23.000000
10.302527 18.396486 -1.127154 9.000000
10.533493 2.497778 -1.979056 1.000000
9.483766 -1.831436 -2.005554 7.000000
4.990799 -3.533683 -1.164314 24.000000
10.407922 18.433453 -1.150165 9.000000
4.346847 3.277964 -0.707088 34.000000
10.581326 2.466246 -1.986249 3.000000
9.497251 -1.871895 -2.002863 7.000000
4.971753 -3.546317 -1.153918 65.000000
10.473970 18.400116 -1.176305 9.000000
4.587958 3.434730 -0.749440 1.000000
10.565649 2.421798 -1.985537 1.000000
9.538683 -1.918139 -2.009598 7.000000
4.974873 -3.577443 -1.152284 71.000000
10.575699 18.443811 -1.207273 9.000000
10.570071 2.380130 -1.984636 1.000000
9.541871 -1.956929 -2.006521 7.000000
4.979880 -3.606157 -1.149543 46.000000
10.657580 18.429745 -1.231269 9.000000
10.534833 2.331658 -1.980295 6.000000
9.549703 -1.995037 -2.006142 5.000000
4.975541 -3.648218 -1.144605 78.000000
10.764413 18.458044 -1.265724 8.000000
10.510068 2.283880 -1.973977 1.000000
9.566951 -2.037009 -2.006056 5.000000
4.979077 -3.678947 -1.140690 38.000000
10.860286 18.481337 -1.292311 9.000000
10.546209 2.251287 -1.985039 4.000000
9.574104 -2.076992 -2.005650 5.000000
4.993000 -3.718956 -1.143773 36.000000
10.930356 18.438128 -1.318499 9.000000
10.497022 2.198679 -1.974177 6.000000
9.577361 -2.114483 -2.000809 5.000000
4.992410 -3.747045 -1.137769 38.000000
11.028443 18.471056 -1.345940 9.000000
10.519837 2.161326 -1.976893 9.000000
9.603312 -2.158917 -2.004369 7.000000
4.991205 -3.774818 -1.134998 38.000000
11.122995 18.482533 -1.372277 9.000000
10.498427 2.116854 -1.973331 2.000000
9.624633 -2.202567 -2.005186 8.000000
4.989862 -3.802633 -1.132200 78.000000
11.222540 18.501451 -1.410713 8.000000
10.443095 2.064001 -1.965268 5.000000
9.641040 -2.243540 -2.006706 7.000000
4.996190 -3.836483 -1.131143 36.000000
11.333117 18.537514 -1.439322 9.000000
10.513697 2.036040 -1.977069 7.000000
9.690262 -2.294253 -2.015151 1.000000
5.026008 -3.888746 -1.133101 25.000000
11.407294 18.513317 -1.467212 9.000000
10.496599 1.992841 -1.974395 1.000000
9.710652 -2.338493 -2.017615 7.000000
5.028030 -3.919855 -1.131049 20.000000
11.479383 18.478323 -1.494464 9.000000
4.376123 2.996394 -0.739718 4.000000
10.484159 1.948803 -1.974483 5.000000
9.712905 -2.376733 -2.012614 7.000000
5.033764 -3.954074 -1.129830 19.000000
11.569446 18.479080 -1.520723 9.000000
4.402925 2.991101 -0.747126 2.000000
10.477060 1.907783 -1.969893 3.000000
9.742444 -2.423647 -2.017003 5.000000
5.035764 -3.985576 -1.125461 19.000000
11.691429 18.529793 -1.555146 9.000000
4.409427 2.971957 -0.749216 7.000000
9.762948 -2.468593 -2.015882 6.000000
5.056548 -4.032257 -1.127586 16.000000
11.781768 18.529335 -1.585514 9.000000
4.415520 2.952586 -0.754081 5.000000
9.763332 -2.506798 -2.017845 5.000000
5.065697 -4.070014 -1.125934 17.000000
11.826490 18.457060 -1.609775 10.000000
4.434012 2.941491 -0.760130 4.000000
9.773294 -2.549396 -2.018245 4.000000
5.085975 -4.117072 -1.127907 10.000000
11.736070 18.169001 -1.614963 8.000000
4.436050 2.919485 -0.762424 5.000000
6.379436 1.041243 -1.203840 8.000000
9.788493 -2.593543 -2.016075 3.000000
5.090707 -4.151879 -1.126421 10.000000
11.648901 17.896677 -1.616850 6.000000
4.446386 2.902988 -0.765204 4.000000
6.309987 1.006178 -1.192338 10.000000
9.784337 -2.630859 -2.013515 2.000000
5.095556 -4.187027 -1.122590 10.000000
11.633498 17.737282 -1.635900 9.000000
4.418167 2.863713 -0.762462 6.000000
6.279260 0.978815 -1.187027 19.000000
9.803227 -2.676343 -2.015815 7.000000
5.095968 -4.218749 -1.121328 10.000000
11.754696 17.786375 -1.670406 9.000000
4.419749 2.841788 -0.765614 7.000000
6.253448 0.951328 -1.182623 24.000000
9.845890 -2.728656 -2.021168 7.000000
5.119384 -4.269853 -1.121540 10.000000
11.826619 17.760115 -1.698038 9.000000
4.430442 2.823590 -0.771116 8.000000
6.237404 0.924397 -1.180048 30.000000
9.841224 -2.766243 -2.018570 4.000000
5.157154 -4.333505 -1.128451 9.000000
11.901261 17.737684 -1.726119 10.000000
4.451610 2.807670 -0.776243 7.000000
6.221980 0.891059 -1.178563 32.000000
5.209743 -4.410373 -1.137364 8.000000
12.037585 17.799507 -1.762844 9.000000
4.452909 2.785729 -0.779368 10.000000
6.205833 0.863339 -1.175971 23.000000
12.115257 17.780294 -1.791584 9.000000
4.487604 2.784602 -0.789302 9.000000
6.199159 0.838159 -1.175218 36.000000
8.808754 -2.584206 -1.801043 26.000000
7.460907 -6.372217 -1.622564 10.000000
12.167541 17.723755 -1.816606 9.000000
4.535446 2.791317 -0.797813 8.000000
6.187086 0.815644 -1.173537 25.000000
8.724119 -2.595800 -1.782464 15.000000
7.397647 -6.365227 -1.603372 10.000000
12.160646 17.575308 -1.824733 9.000000
4.557711 2.782039 -0.804695 8.000000
6.170878 0.789413 -1.168755 25.000000
8.640560 -2.605448 -1.760790 7.000000
7.345702 -6.367536 -1.586708 8.000000
12.103660 17.363102 -1.836848 6.000000
4.622373 2.798306 -0.818154 6.000000
6.173255 0.765637 -1.172013 24.000000
8.485297 -2.594216 -1.729560 12.000000
7.319637 -6.392078 -1.577422 8.000000
11.991145 17.074341 -1.836402 6.000000
4.657535 2.796317 -0.826438 6.000000
6.170938 0.742395 -1.172172 14.000000
8.504437 -2.634190 -1.732191 1.000000
7.245510 -6.374304 -1.556102 8.000000
11.994716 16.953289 -1.853446 6.000000
6.154020 0.716399 -1.169547 18.000000
8.453548 -2.654043 -1.715866 7.000000
7.182672 -6.365874 -1.537296 8.000000
11.809900 16.562983 -1.836969 6.000000
6.137397 0.690589 -1.164759 23.000000
8.247388 -2.624149 -1.672919 25.000000
7.156606 -6.389760 -1.528134 8.000000
11.773558 16.390675 -1.843714 6.000000
6.125264 0.664335 -1.163054 25.000000
8.187144 -2.638065 -1.657977 28.000000
7.096491 -6.385226 -1.510273 9.000000
11.788510 16.291174 -1.861914 6.000000
6.127344 0.642929 -1.164130 21.000000
8.116826 -2.649852 -1.642695 24.000000
7.047353 -6.383429 -1.492407 8.000000
11.665079 16.002684 -1.857990 6.000000
6.115117 0.615760 -1.162417 23.000000
8.028614 -2.653656 -1.622209 18.000000
7.006622 -6.393441 -1.480253 9.000000
11.489506 15.641067 -1.844804 6.000000
6.107143 0.594506 -1.161630 22.000000
7.953708 -2.662817 -1.606092 10.000000
6.955178 -6.393374 -1.464193 9.000000
11.291237 15.259232 -1.824465 6.000000
6.094506 0.569662 -1.159908 20.000000
7.852184 -2.660873 -1.580051 16.000000
6.914690 -6.403074 -1.450497 9.000000
11.369859 15.253837 -1.852015 6.000000
6.091755 0.545818 -1.158977 39.000000
7.769024 -2.662962 -1.562208 15.000000
6.859754 -6.399063 -1.433828 9.000000
11.421335 15.206264 -1.874767 6.000000
6.089021 0.523084 -1.156980 20.000000
7.689435 -2.670223 -1.543931 10.000000
6.795050 -6.383209 -1.416627 8.000000
11.380295 15.041989 -1.876022 6.000000
6.085887 0.499282 -1.157115 22.000000
7.611299 -2.672898 -1.525731 12.000000
6.765679 -6.402460 -1.403746 10.000000
11.421686 14.982255 -1.900349 4.000000
6.082459 0.475496 -1.158314 27.000000
7.541078 -2.682291 -1.509461 20.000000
6.721576 -6.407585 -1.391172 9.000000
11.314961 14.735291 -1.896954 5.000000
6.074565 0.452484 -1.155386 28.000000
7.448000 -2.681445 -1.490018 12.000000
6.677691 -6.412630 -1.377033 8.000000
11.234263 14.524957 -1.894345 4.000000
6.076056 0.429142 -1.156449 28.000000
7.324541 -2.678952 -1.462376 9.000000
6.613801 -6.395802 -1.356966 9.000000
11.102581 14.246497 -1.885628 2.000000
6.082561 0.406136 -1.157382 33.000000
7.271790 -2.697133 -1.448669 9.000000
6.594872 -6.424440 -1.348055 10.000000
11.083268 14.119784 -1.896138 1.000000
6.068697 0.382873 -1.157768 28.000000
7.194588 -2.710002 -1.430449 9.000000
6.543699 -6.421502 -1.335860 9.000000
11.059895 13.984173 -1.899091 3.000000
6.065622 0.359302 -1.154712 23.000000
7.175628 -2.735802 -1.421919 9.000000
6.475525 -6.401358 -1.315365 9.000000
11.026446 13.842298 -1.910034 1.000000
6.076563 0.336541 -1.157641 24.000000
7.114342 -2.746623 -1.407913 10.000000
6.445978 -6.419033 -1.304409 9.000000
10.952130 13.650952 -1.907438 6.000000
6.063040 0.313506 -1.154838 28.000000
6.953745 -2.713948 -1.374049 8.000000
6.396529 -6.414417 -1.289246 8.000000
10.921334 13.520466 -1.909604 1.000000
6.063998 0.290214 -1.155897 23.000000
6.867122 -2.707800 -1.354796 8.000000
6.349542 -6.414145 -1.274864 9.000000
10.790748 13.259089 -1.896381 2.000000
6.074789 0.269480 -1.157768 24.000000
6.812121 -2.715005 -1.341931 8.000000
6.319981 -6.431260 -1.264024 10.000000
10.707334 13.053891 -1.899751 1.000000
6.075619 0.245084 -1.158829 18.000000
6.737952 -2.716839 -1.325527 8.000000
6.274203 -6.429415 -1.249758 9.000000
10.661624 12.915202 -1.902194 6.000000
6.076516 0.221754 -1.158829 28.000000
6.656174 -2.710915 -1.307405 8.000000
6.220487 -6.421287 -1.234196 9.000000
10.603848 12.740692 -1.903262 3.000000
6.072413 0.198260 -1.157893 26.000000
6.613609 -2.724583 -1.299892 11.000000
6.194369 -6.441401 -1.224154 10.000000
10.559615 12.606785 -1.905655 6.000000
5.251406 2.548813 -0.986252 1.000000
6.063218 0.177834 -1.156021 24.000000
6.546048 -2.723516 -1.282083 10.000000
6.140810 -6.432731 -1.208735 10.000000
10.492359 12.433627 -1.902548 3.000000
6.068160 0.154661 -1.160136 27.000000
6.459321 -2.715248 -1.264512 16.000000
6.088505 -6.422677 -1.193407 9.000000
10.457871 12.296652 -1.910570 5.000000
6.068754 0.129242 -1.160136 30.000000
6.425857 -2.732911 -1.256416 9.000000
6.062240 -6.442097 -1.185020 9.000000
10.397187 12.143470 -1.909094 6.000000
6.064240 0.109028 -1.159197 26.000000
6.372139 -2.735052 -1.243931 25.000000
6.002213 -6.425334 -1.168510 9.000000
10.373586 12.030644 -1.911100 6.000000
6.055196 0.085609 -1.155206 25.000000
6.294371 -2.731647 -1.224701 14.000000
5.957252 -6.421996 -1.151670 9.000000
10.311692 11.870610 -1.913945 6.000000
6.064898 0.062455 -1.159197 26.000000
6.257179 -2.744105 -1.217045 10.000000
5.937575 -6.448024 -1.146203 9.000000
10.217769 11.679887 -1.905427 6.000000
6.069592 0.040256 -1.162254 24.000000
6.194604 -2.741191 -1.202976 12.000000
5.881388 -6.434173 -1.129070 9.000000
10.206690 11.581292 -1.911844 6.000000
6.075018 0.016965 -1.161074 27.000000
6.112693 -2.733059 -1.185482 12.000000
5.846351 -6.440846 -1.117393 11.000000
10.086962 11.373207 -1.898881 3.000000
6.074838 -0.003181 -1.162134 21.000000
6.058510 -2.735522 -1.172125 10.000000
5.816845 -6.455728 -1.107020 10.000000
10.140470 11.349469 -1.917299 1.000000
6.064757 -0.026463 -1.161314 24.000000
6.004193 -2.737534 -1.159988 18.000000
5.755352 -6.432492 -1.090399 10.000000
10.022300 11.138708 -1.908851 5.000000
6.074432 -0.049830 -1.163195 25.000000
5.941100 -2.733857 -1.148458 14.000000
5.729323 -6.450824 -1.079232 9.000000
9.985106 11.015901 -1.909889 5.000000
9.266823 4.091020 -1.780668 1.000000
6.079119 -0.072152 -1.164135 27.000000
5.909432 -2.745575 -1.139585 12.000000
5.701955 -6.463050 -1.070470 10.000000
9.933784 10.878881 -1.908116 5.000000
8.970263 3.919012 -1.726063 1.000000
6.103348 -0.095879 -1.168837 31.000000
5.860089 -2.748809 -1.126185 13.000000
5.657327 -6.457763 -1.055668 11.000000
9.869437 10.732933 -1.906664 4.000000
8.988779 3.884206 -1.737186 1.000000
6.088205 -0.119025 -1.166016 26.000000
5.791972 -2.744039 -1.112806 24.000000
5.585490 -6.423107 -1.037602 9.000000
9.856817 10.640669 -1.912130 5.000000
8.829360 3.780621 -1.705674 1.000000
6.102431 -0.142746 -1.168837 18.000000
5.773686 -2.761333 -1.106628 19.000000
5.563743 -6.443384 -1.028688 10.000000
9.764053 10.467003 -1.902287 5.000000
6.101867 -0.165112 -1.168837 19.000000
5.728549 -2.765589 -1.096482 29.000000
5.524518 -6.445565 -1.018281 11.000000
9.750076 10.375517 -1.907318 5.000000
8.778120 3.680971 -1.704103 1.000000
6.096280 -0.188388 -1.167896 18.000000
5.687567 -2.772783 -1.086120 30.000000
5.493247 -6.454543 -1.004661 9.000000
9.738972 10.287878 -1.912860 5.000000
8.699819 3.610701 -1.691413 1.000000
6.125163 -0.212825 -1.172469 26.000000
5.669031 -2.789509 -1.081120 30.000000
5.451001 -6.452673 -0.992285 9.000000
9.626441 10.098166 -1.898701 5.000000
8.817221 3.619802 -1.718393 1.000000
6.128839 -0.235446 -1.175549 19.000000
5.637371 -2.799642 -1.072509 31.000000
5.427868 -6.473269 -0.984913 9.000000
9.616940 10.014447 -1.909324 5.000000
6.127890 -0.258978 -1.175549 9.000000
5.600808 -2.808345 -1.063096 29.000000
5.393293 -6.477828 -0.972299 9.000000
9.559210 9.881579 -1.905331 5.000000
8.756957 3.514949 -1.711420 1.000000
6.131961 -0.282741 -1.175419 10.000000
5.577776 -2.822427 -1.057314 31.000000
5.373324 -6.502162 -0.964040 9.000000
9.536960 9.789963 -1.908662 5.000000
8.804300 3.500097 -1.723519 1.000000
6.145598 -0.305946 -1.178240 10.000000
5.541703 -2.829733 -1.047967 30.000000
5.351337 -6.521784 -0.953734 9.000000
9.519822 9.700979 -1.907779 4.000000
8.761299 3.445869 -1.717710 1.000000
6.144903 -0.327418 -1.176092 17.000000
5.501260 -2.834550 -1.037834 28.000000
5.385766 -6.610665 -0.953427 23.000000
9.508187 9.618350 -1.917630 5.000000
8.700283 3.383355 -1.708239 1.000000
6.162884 -0.354270 -1.180924 24.000000
5.482225 -2.851434 -1.031866 28.000000
5.474618 -6.770249 -0.964312 176.000000
9.439013 9.481943 -1.911286 5.000000
6.166446 -0.377156 -1.181863 12.000000
5.437119 -2.853341 -1.023135 32.000000
5.488921 -6.836608 -0.961736 11.000000
9.454759 9.428392 -1.921734 5.000000
6.179860 -0.401800 -1.183601 18.000000
5.400413 -2.861785 -1.011804 30.000000
5.582272 -7.005320 -0.971511 23.000000
9.343398 9.249292 -1.908594 2.000000
6.197869 -0.426876 -1.187355 21.000000
5.377649 -2.873810 -1.007226 32.000000
6.201525 -0.447795 -1.187209 19.000000
5.341641 -2.879786 -0.998100 29.000000
6.107563 -7.778074 -1.049892 26.000000
7.304529 2.667297 -1.448270 1.000000
6.204285 -0.474126 -1.189233 24.000000
5.344512 -2.906666 -0.997349 7.000000
6.074933 -7.792366 -1.038490 24.000000
7.356745 2.664557 -1.462887 1.000000
6.227069 -0.497737 -1.193926 17.000000
5.317126 -2.917075 -0.989880 9.000000
6.028734 -7.791834 -1.025038 22.000000
7.474931 2.683774 -1.486327 1.000000
6.245404 -0.522246 -1.194399 21.000000
5.315639 -2.941657 -0.987250 8.000000
5.920555 -7.707458 -0.997498 23.000000
7.660664 2.715793 -1.526952 1.000000
6.262315 -0.550084 -1.200338 18.000000
5.270065 -2.944133 -0.975566 7.000000
6.014799 -7.886981 -1.009262 42.000000
7.660069 2.685520 -1.529356 1.000000
6.265256 -0.574593 -1.200177 17.000000
5.256046 -2.960421 -0.970557 5.000000
5.905529 -7.802846 -0.983642 39.000000
7.808843 2.704055 -1.561456 1.000000
6.292443 -0.598135 -1.206902 10.000000
5.223992 -2.967641 -0.964489 1.000000
5.968534 -7.943564 -0.988239 9.000000
7.868795 2.692556 -1.577474 2.000000
6.329411 -0.626181 -1.213294 19.000000
5.145119 -2.947830 -0.947669 9.000000
5.908759 -7.921435 -0.970723 7.000000
7.980668 2.696651 -1.602384 1.000000
6.366045 -0.654498 -1.220789 9.000000
5.160504 -2.981821 -0.948243 54.000000
5.921840 -7.999987 -0.965406 9.000000
6.451727 -0.687213 -1.236521 8.000000
5.188513 -3.023425 -0.951122 9.000000
5.882587 -8.005242 -0.954807 3.000000
9.823109 3.237275 -1.976736 1.000000
6.541579 -0.722197 -1.255455 7.000000
5.202983 -3.058679 -0.951601 8.000000
5.918412 -8.116168 -0.953059 1.000000
9.805906 3.191809 -1.976504 1.000000
5.166956 -3.063037 -0.941688 9.000000
9.774373 3.140090 -1.976993 1.000000
10.545738 -1.201535 -2.022803 4.000000
5.147496 -3.077053 -0.938045 27.000000
9.793858 3.106795 -1.986058 1.000000
10.565084 -1.244851 -2.029340 6.000000
5.140834 -3.098702 -0.935675 20.000000
9.781958 3.061730 -1.983102 4.000000
10.536424 -1.280645 -2.022803 1.000000
5.126054 -3.115465 -0.928624 32.000000
5.771000 -8.153693 -0.902071 9.000000
9.735516 3.008060 -1.978819 1.000000
10.561021 -1.324805 -2.026561 3.000000
5.110664 -3.131819 -0.925767 32.000000
5.723092 -8.146158 -0.886761 9.000000
9.704079 2.957577 -1.973782 1.000000
10.561316 -1.364179 -2.025638 3.000000
5.098104 -3.143739 -0.921868 39.000000
5.725143 -8.212909 -0.879410 35.000000
9.718562 2.923105 -1.980051 1.000000
10.532005 -1.401528 -2.019112 5.000000
5.096593 -3.166182 -0.919200 38.000000
5.713967 -8.258174 -0.871519 25.000000
9.691416 2.874408 -1.975920 2.000000
10.458760 -1.432672 -2.004201 4.000000
5.089821 -3.187889 -0.914717 32.000000
5.654681 -8.233767 -0.854561 28.000000
9.691303 2.833935 -1.982813 1.000000
10.530919 -1.481898 -2.020979 1.000000
5.073208 -3.205910 -0.910822 29.000000
5.839676 -8.567068 -0.876097 26.000000
9.649770 2.783439 -1.972215 1.000000
10.521334 -1.521771 -2.014479 4.000000
5.070565 -3.230307 -0.906027 36.000000
5.916517 -8.745233 -0.877353 33.000000
9.640185 2.740623 -1.975359 1.000000
10.549429 -1.567212 -2.020996 8.000000
5.059355 -3.249295 -0.900780 32.000000
5.901597 -8.792443 -0.868748 34.000000
9.630276 2.699695 -1.976728 1.000000
10.563390 -1.608879 -2.022854 30.000000
5.051827 -3.270675 -0.899420 31.000000
5.907372 -8.867786 -0.861046 27.000000
9.606147 2.653190 -1.976900 1.000000
10.440865 -1.627529 -2.002378 77.000000
5.037204 -3.284965 -0.895533 36.000000
5.828856 -8.813123 -0.844576 16.000000
9.606133 2.613529 -1.978429 1.000000
10.410047 -1.667419 -1.995883 39.000000
5.028890 -3.308391 -0.889966 36.000000
5.809283 -8.857257 -0.831779 31.000000
9.567615 2.565425 -1.972141 1.000000
10.419097 -1.708060 -1.994988 39.000000
5.025362 -3.332525 -0.888271 34.000000
5.811513 -8.928462 -0.823462 1.000000
9.566581 2.525814 -1.977097 1.000000
10.427264 -1.746796 -1.999618 26.000000
5.018912 -3.352263 -0.884787 30.000000
5.864712 -9.079357 -0.822202 36.000000
9.560870 2.486856 -1.977606 1.000000
10.473462 -1.799670 -2.007984 9.000000
5.006053 -3.372813 -0.879519 30.000000
5.809153 -9.062595 -0.809395 9.000000
9.512689 2.435366 -1.969256 1.000000
10.534542 -1.849942 -2.020981 1.000000
5.006319 -3.399737 -0.878514 27.000000
5.574615 -8.763888 -0.768214 13.000000
9.463596 2.384116 -1.964272 1.000000
10.551888 -1.894782 -2.023751 1.000000
4.994455 -3.418494 -0.873232 31.000000
5.252966 -8.325447 -0.714271 11.000000
9.424032 2.337449 -1.957796 1.000000
10.555570 -1.933501 -2.021861 4.000000
4.991141 -3.441872 -0.870428 27.000000
5.750856 -9.185446 -0.776820 20.000000
9.412564 2.296276 -1.960607 4.000000
10.548065 -1.972111 -2.023734 7.000000
4.991059 -3.468877 -0.869377 26.000000
5.321762 -8.566422 -0.712279 181.000000
9.396154 2.254083 -1.962395 1.000000
10.511456 -2.007069 -2.018174 2.000000
4.978684 -3.487407 -0.866194 22.000000
5.438851 -8.823464 -0.719343 150.000000
9.350566 2.206934 -1.958156 2.000000
10.528133 -2.052183 -2.020935 1.000000
4.974327 -3.511603 -0.864417 26.000000
5.422477 -8.869514 -0.710534 20.000000
9.353533 2.169753 -1.960510 6.000000
10.539818 -2.094588 -2.024638 8.000000
4.978172 -3.541728 -0.861897 23.000000
9.322252 2.124809 -1.959183 1.000000
10.560244 -2.140829 -2.032073 5.000000
4.969548 -3.563097 -0.859394 30.000000
9.314972 2.087265 -1.959504 2.000000
10.547828 -2.180511 -2.027387 4.000000
4.984408 -3.585619 -0.859658 31.000000
5.438030 -9.107918 -0.685978 9.000000
9.283650 2.042842 -1.956439 5.000000
10.539764 -2.219156 -2.027387 1.000000
4.974976 -3.607903 -0.857134 25.000000
5.256526 -8.874155 -0.656141 9.000000
9.246315 2.000813 -1.953972 3.000000
10.550731 -2.263807 -2.029203 1.000000
4.978950 -3.637372 -0.854516 19.000000
9.239235 1.960489 -1.954235 7.000000
10.503555 -2.295907 -2.021811 3.000000
4.973922 -3.661735 -0.852655 29.000000
4.575468 -7.851982 -0.559019 9.000000
9.216599 1.918734 -1.954729 4.000000
10.519054 -2.339724 -2.026431 8.000000
4.988028 -3.701735 -0.854189 24.000000
4.493420 -7.773429 -0.541296 7.000000
9.159893 1.873593 -1.946411 4.000000
10.548332 -2.388779 -2.033824 6.000000
4.982718 -3.726193 -0.852294 14.000000
4.595956 -8.008778 -0.546972 24.000000
9.122149 1.827753 -1.946983 7.000000
10.500087 -2.420276 -2.030193 1.000000
4.993003 -3.762498 -0.854183 18.000000
4.495218 -7.900167 -0.530466 28.000000
9.032126 1.809716 -1.946236 6.000000
10.367383 -2.389688 -2.023769 2.000000
4.997586 -3.753658 -0.866184 18.000000
8.997017 1.838642 -1.936829 3.000000
10.269317 -2.327478 -2.010565 7.000000
5.001867 -3.729635 -0.872435 23.000000
4.705873 -8.203633 -0.575134 195.000000
8.998806 1.875032 -1.942101 1.000000
10.219286 -2.274919 -2.006622 3.000000
4.990887 -3.693062 -0.874783 19.000000
4.482852 -7.755148 -0.558855 8.000000
8.977516 1.906592 -1.937399 9.000000
10.216591 -2.235050 -2.012041 8.000000
4.999533 -3.671179 -0.881664 25.000000
4.710479 -8.083674 -0.596826 255.000000
8.965687 1.938450 -1.936366 5.000000
10.166466 -2.183214 -2.006150 2.000000
4.987446 -3.635575 -0.884983 30.000000
5.061647 -8.617028 -0.653268 7.000000
8.972508 1.976018 -1.939464 6.000000
10.159304 -2.142753 -2.006933 4.000000
4.995975 -3.613825 -0.890731 24.000000
5.152230 -8.701543 -0.675216 8.000000
8.994161 2.017027 -1.942443 7.000000
10.098788 -2.089520 -2.000849 4.000000
4.988455 -3.580609 -0.892515 29.000000
5.184224 -8.693167 -0.688249 9.000000
8.957729 2.045013 -1.936257 3.000000
10.090921 -2.049353 -2.003383 8.000000
4.996229 -3.541456 -0.901048 30.000000
5.183576 -8.616696 -0.699635 10.000000
8.973640 2.084930 -1.941412 5.000000
10.054711 -2.001831 -1.998368 6.000000
5.000309 -3.516885 -0.905994 23.000000
5.220868 -8.610499 -0.714737 14.000000
8.990406 2.123585 -1.943343 2.000000
10.061296 -1.963008 -2.003736 7.000000
5.008460 -3.495250 -0.910591 34.000000
5.263436 -8.612748 -0.728839 6.000000
9.020907 2.167393 -1.948339 1.000000
10.029180 -1.918611 -1.999627 6.000000
5.003454 -3.465848 -0.915079 29.000000
5.303321 -8.610320 -0.746165 7.000000
9.008425 2.201015 -1.944075 5.000000
10.030963 -1.879056 -2.002228 6.000000
5.011521 -3.444323 -0.918581 29.000000
5.403859 -8.705352 -0.768618 217.000000
9.037118 2.248181 -1.952282 7.000000
9.925768 -1.821719 -1.985373 11.000000
5.015279 -3.419909 -0.922385 33.000000
5.415203 -8.656048 -0.778475 1.000000
9.006083 2.275544 -1.942289 4.000000
9.883721 -1.774801 -1.979226 36.000000
5.010469 -3.389793 -0.926772 32.000000
5.093866 -8.079537 -0.741637 5.000000
9.007416 2.312711 -1.941089 1.000000
9.894955 -1.737626 -1.981946 46.000000
5.018218 -3.368290 -0.930234 30.000000
5.327372 -8.384888 -0.783579 9.000000
9.032443 2.352775 -1.948241 1.000000
9.866395 -1.695357 -1.980414 37.000000
5.025739 -3.346684 -0.934743 29.000000
9.024000 2.387614 -1.944983 4.000000
9.833454 -1.650849 -1.976133 35.000000
5.037152 -3.327700 -0.941066 35.000000
5.730394 -8.881616 -0.863424 24.000000
9.039481 2.427195 -1.946815 1.000000
9.959805 -1.636336 -2.002195 15.000000
5.039210 -3.305109 -0.944785 30.000000
5.730626 -8.821019 -0.870369 20.000000
9.053709 2.468324 -1.951906 1.000000
9.950730 -1.593849 -2.004553 2.000000
5.039183 -3.276236 -0.948757 29.000000
5.730935 -8.747787 -0.881850 26.000000
9.054585 2.505954 -1.949024 1.000000
9.936706 -1.552493 -2.004162 3.000000
5.050459 -3.257295 -0.954002 28.000000
5.626354 -8.523099 -0.873741 9.000000
9.055422 2.541954 -1.947772 1.000000
9.932024 -1.516265 -2.003961 1.000000
5.098095 -3.264130 -0.965283 8.000000
5.444478 -8.182199 -0.852930 9.000000
9.087975 2.588778 -1.956897 6.000000
9.869097 -1.466143 -1.995494 1.000000
5.130999 -3.256231 -0.976645 7.000000
5.932666 -8.848741 -0.941428 59.000000
9.111878 2.633455 -1.959029 6.000000
9.884011 -1.429591 -1.999198 4.000000
5.129789 -3.229150 -0.978497 7.000000
5.803971 -8.591796 -0.929009 25.000000
9.073695 2.661932 -1.949660 1.000000
9.840193 -1.384700 -1.992852 4.000000
5.153422 -3.217715 -0.986189 1.000000
5.763239 -8.467628 -0.930368 39.000000
9.084105 2.699460 -1.948737 1.000000
9.853878 -1.349813 -2.000026 4.000000
5.134934 -3.180073 -0.986907 1.000000
5.575207 -8.130204 -0.909307 16.000000
9.106498 2.744212 -1.955787 1.000000
9.838749 -1.312769 -1.997816 1.000000
5.112333 -3.140211 -0.984646 1.000000
5.704789 -8.257223 -0.938102 51.000000
9.110924 2.783750 -1.953820 1.000000
9.852401 -1.276106 -2.004991 4.000000
5.127286 -3.123570 -0.990695 6.000000
5.678887 -8.158689 -0.941406 17.000000
9.124707 2.824569 -1.955509 1.000000
9.847370 -1.235283 -2.004745 4.000000
5.145132 -3.101293 -0.998849 7.000000
5.790883 -8.254896 -0.969158 22.000000
9.124119 2.862824 -1.952508 4.000000
9.774127 -1.191455 -1.987187 5.000000
5.177331 -3.094888 -1.005055 7.000000
5.830661 -8.250195 -0.979887 13.000000
9.122396 2.900805 -1.954508 5.000000
9.810969 -1.157732 -2.002732 1.000000
5.190594 -3.079499 -1.014305 7.000000
5.919113 -8.319772 -1.006547 6.000000
9.097662 2.933205 -1.946503 4.000000
5.181204 -3.045875 -1.013309 8.000000
5.903896 -8.231290 -1.011075 7.000000
9.134918 2.980458 -1.951449 4.000000
6.505137 -0.690606 -1.327356 6.000000
5.178637 -3.018881 -1.017093 9.000000
9.119604 3.012490 -1.948777 1.000000
6.409678 -0.656723 -1.309720 8.000000
5.163447 -2.984723 -1.016238 34.000000
5.937751 -8.154642 -1.031753 7.000000
8.021724 2.684031 -1.710212 1.000000
6.353413 -0.626316 -1.298882 22.000000
5.186563 -2.972777 -1.022931 7.000000
5.818354 -7.932330 -1.018335 9.000000
8.026131 2.719819 -1.708748 1.000000
6.321402 -0.598662 -1.293012 17.000000
5.205886 -2.957355 -1.028798 9.000000
5.954604 -8.058946 -1.049627 9.000000
7.877299 2.701611 -1.677646 1.000000
6.274190 -0.569892 -1.286334 13.000000
5.237213 -2.949814 -1.039327 10.000000
6.251964 -8.399885 -1.111651 161.000000
7.858158 2.728813 -1.672767 1.000000
6.276013 -0.546873 -1.287434 19.000000
5.290366 -2.954262 -1.052077 7.000000
7.608420 2.673379 -1.617287 1.000000
6.248775 -0.520331 -1.281427 32.000000
7.469553 2.656850 -1.585608 1.000000
6.235855 -0.495153 -1.279516 25.000000
5.262084 -2.890464 -1.051051 8.000000
7.358460 7.096061 -1.619097 6.000000
7.418037 2.670658 -1.575407 1.000000
6.213065 -0.469344 -1.275593 22.000000
5.271674 -2.870630 -1.057338 33.000000
7.354872 7.144811 -1.613053 1.000000
7.250948 2.660648 -1.536336 1.000000
6.195200 -0.445164 -1.271582 24.000000
5.300336 -2.857518 -1.065012 34.000000
5.157077 -6.677294 -0.947844 8.000000
7.407515 7.248910 -1.619294 1.000000
7.197966 2.679760 -1.522195 1.000000
6.186426 -0.420663 -1.272823 26.000000
5.326490 -2.848861 -1.072712 29.000000
5.115580 -6.575986 -0.946301 9.000000
7.404485 7.296718 -1.613040 1.000000
7.280804 2.725078 -1.539307 1.000000
6.178219 -0.396279 -1.270812 21.000000
5.363319 -2.840930 -1.082195 34.000000
5.114416 -6.525001 -0.951916 9.000000
7.368366 7.314549 -1.599868 6.000000
6.957235 2.655318 -1.467741 1.000000
6.164743 -0.372732 -1.268874 22.000000
5.390457 -2.830053 -1.089957 29.000000
5.130385 -6.498526 -0.959446 9.000000
6.136789 -0.347398 -1.262837 27.000000
5.412381 -2.817507 -1.098990 27.000000
5.167653 -6.498958 -0.973918 10.000000
6.137744 -0.325962 -1.263910 22.000000
5.444023 -2.808667 -1.106629 30.000000
5.197845 -6.492614 -0.984376 9.000000
6.123940 -0.299511 -1.263028 27.000000
5.488635 -2.806259 -1.118044 33.000000
5.229066 -6.485083 -0.996317 9.000000
6.115213 -0.276621 -1.261011 28.000000
5.521101 -2.794959 -1.126826 31.000000
5.263679 -6.474646 -1.008294 9.000000
6.116010 -0.253129 -1.262079 30.000000
5.552100 -2.786347 -1.135642 31.000000
5.301184 -6.474476 -1.021517 9.000000
8.889223 9.217931 -1.893280 4.000000
8.035165 3.238264 -1.682377 1.000000
6.102695 -0.229109 -1.256919 35.000000
5.580145 -2.772436 -1.143589 33.000000
5.332541 -6.466589 -1.032112 9.000000
8.961004 9.357517 -1.901652 5.000000
8.037152 3.273358 -1.683722 1.000000
6.093741 -0.205344 -1.254903 33.000000
5.610826 -2.764518 -1.151377 34.000000
5.383933 -6.480375 -1.047906 10.000000
8.951878 9.416840 -1.893129 4.000000
7.930015 3.265278 -1.659233 1.000000
6.088900 -0.182842 -1.257084 27.000000
5.634891 -2.747103 -1.158469 30.000000
5.412181 -6.468306 -1.057973 10.000000
8.952847 9.487251 -1.884403 3.000000
8.164114 3.396721 -1.702804 1.000000
6.085044 -0.161468 -1.253949 30.000000
5.669796 -2.740887 -1.168318 32.000000
5.448864 -6.468441 -1.069942 9.000000
9.009012 9.613778 -1.889194 4.000000
8.264712 3.475863 -1.723312 1.000000
6.075875 -0.135759 -1.251932 31.000000
5.697753 -2.726239 -1.176376 25.000000
5.485649 -6.461594 -1.082808 9.000000
9.059347 9.738787 -1.893008 4.000000
6.070979 -0.114449 -1.253042 28.000000
5.746646 -2.725022 -1.187945 25.000000
5.524547 -6.459277 -1.096361 10.000000
9.018213 9.766102 -1.877679 5.000000
8.018929 3.443546 -1.667929 1.000000
6.066509 -0.088946 -1.252032 25.000000
5.889865 -2.764031 -1.222300 10.000000
5.562235 -6.457571 -1.111461 9.000000
9.092704 9.915994 -1.883622 5.000000
8.025877 3.481426 -1.662523 1.000000
6.067230 -0.066715 -1.249914 31.000000
5.598224 -6.451382 -1.121502 9.000000
9.117627 10.016629 -1.881918 5.000000
7.990222 3.502474 -1.656333 1.000000
6.062109 -0.043380 -1.251021 26.000000
6.235297 -2.869235 -1.295683 7.000000
5.626458 -6.438378 -1.131758 11.000000
9.163853 10.131167 -1.883440 5.000000
6.057108 -0.022201 -1.251068 31.000000
6.212460 -2.833800 -1.295150 6.000000
5.673048 -6.448410 -1.147501 9.000000
9.210659 10.265447 -1.884347 4.000000
6.057367 0.000000 -1.250011 27.000000
6.194839 -2.799681 -1.293119 6.000000
5.724162 -6.460894 -1.164007 9.000000
9.281549 10.417382 -1.891396 4.000000
6.052433 0.021127 -1.249000 31.000000
6.083196 -2.722420 -1.272545 9.000000
5.766784 -6.461136 -1.177086 9.000000
9.195369 10.397130 -1.866787 3.000000
6.052308 0.044367 -1.249000 32.000000
6.123952 -2.713762 -1.282617 17.000000
5.802848 -6.453771 -1.188868 9.000000
9.338760 10.630088 -1.887960 4.000000
6.052104 0.066549 -1.249000 32.000000
6.182969 -2.711560 -1.297675 10.000000
5.828902 -6.441926 -1.199324 9.000000
9.348726 10.716646 -1.879845 4.000000
6.046908 0.089714 -1.247990 31.000000
6.277807 -2.725761 -1.319190 15.000000
5.873747 -6.439341 -1.214076 9.000000
9.408027 10.864755 -1.884452 5.000000
5.415054 2.568941 -1.107587 1.000000
6.041624 0.112841 -1.246979 34.000000
6.332696 -2.720741 -1.332262 10.000000
5.912074 -6.436092 -1.226677 9.000000
9.481450 11.027095 -1.888787 5.000000
5.388558 2.580608 -1.099782 1.000000
6.031354 0.135817 -1.244958 32.000000
6.373387 -2.710595 -1.343740 10.000000
5.961352 -6.442184 -1.244494 8.000000
9.513073 11.146255 -1.887610 5.000000
5.353187 2.587832 -1.090201 1.000000
6.050368 0.159491 -1.249000 27.000000
6.455040 -2.716101 -1.365089 10.000000
5.999784 -6.438484 -1.257220 9.000000
9.582215 11.310961 -1.896393 5.000000
5.387751 2.630110 -1.097125 6.000000
6.039737 0.181365 -1.248034 36.000000
6.532242 -2.720448 -1.383144 10.000000
6.046148 -6.440746 -1.271422 9.000000
9.605040 11.418481 -1.887616 5.000000
5.392169 2.656784 -1.094580 6.000000
6.044325 0.204735 -1.246934 32.000000
6.583249 -2.712075 -1.393019 10.000000
6.075595 -6.424762 -1.282107 9.000000
9.658826 11.564126 -1.887408 5.000000
5.383078 2.676869 -1.090383 5.000000
6.048388 0.228127 -1.247944 35.000000
6.655621 -2.713399 -1.412732 10.000000
6.131018 -6.438203 -1.300144 9.000000
9.659490 11.643180 -1.881664 5.000000
5.374211 2.695899 -1.087235 4.000000
6.042357 0.251137 -1.247990 35.000000
6.710096 -2.706969 -1.427427 10.000000
6.172086 -6.438441 -1.312269 8.000000
9.688497 11.769817 -1.879895 6.000000
6.036504 0.273060 -1.246979 37.000000
6.756192 -2.695447 -1.438978 16.000000
6.220822 -6.437352 -1.328301 8.000000
9.819659 12.018663 -1.891884 6.000000
6.050519 0.296978 -1.247896 32.000000
6.856563 -2.706403 -1.462244 22.000000
6.252627 -6.425229 -1.339892 9.000000
9.811048 12.085414 -1.883746 6.000000
4.946640 2.553151 -0.995585 1.000000
6.049117 0.320197 -1.248954 32.000000
6.930146 -2.704738 -1.479760 19.000000
6.305968 -6.432702 -1.359123 9.000000
9.866841 12.254347 -1.881603 5.000000
5.047170 2.628510 -1.012626 1.000000
6.047843 0.343421 -1.248954 32.000000
6.971310 -2.691402 -1.490501 22.000000
6.342729 -6.422939 -1.368409 9.000000
9.947594 12.434407 -1.884712 3.000000
4.846364 2.546556 -0.970262 1.000000
6.047195 0.365625 -1.245782 33.000000
7.031249 -2.683567 -1.505200 9.000000
6.403558 -6.437175 -1.386161 9.000000
10.051191 12.658739 -1.898816 1.000000
6.059974 0.389757 -1.250923 34.000000
7.114152 -2.683958 -1.524871 9.000000
6.436532 -6.429795 -1.400296 9.000000
10.112914 12.828171 -1.898695 2.000000
6.043993 0.412038 -1.246839 29.000000
7.172525 -2.678844 -1.541031 9.000000
6.483569 -6.429478 -1.415183 9.000000
10.149300 12.967171 -1.890714 3.000000
6.052352 0.435962 -1.247796 28.000000
7.239480 -2.680838 -1.555204 9.000000
6.547184 -6.440642 -1.431622 8.000000
10.145580 13.060766 -1.881381 1.000000
6.061076 0.456798 -1.247689 32.000000
7.286901 -2.678170 -1.566801 9.000000
6.578027 -6.428200 -1.443564 9.000000
10.222698 13.255290 -1.883537 1.000000
6.059494 0.480085 -1.246628 29.000000
7.340352 -2.673120 -1.579419 8.000000
6.621726 -6.423625 -1.457878 9.000000
10.292556 13.442643 -1.884099 1.000000
6.076736 0.507074 -1.251710 31.000000
7.412733 -2.673133 -1.596042 9.000000
6.659467 -6.410788 -1.470680 7.000000
10.403769 13.691567 -1.895402 1.000000
6.070484 0.527896 -1.248578 28.000000
7.555541 -2.693379 -1.629027 9.000000
6.693846 -6.401250 -1.483523 8.000000
10.378649 13.757937 -1.872169 5.000000
6.073604 0.550604 -1.248517 35.000000
7.625639 -2.685411 -1.643374 9.000000
6.748353 -6.406186 -1.500385 8.000000
10.417954 13.910776 -1.872663 3.000000
6.076338 0.576523 -1.248455 26.000000
7.736331 -2.691048 -1.672435 12.000000
6.798018 -6.401649 -1.515736 8.000000
10.514464 14.152577 -1.871754 1.000000
6.089355 0.601359 -1.248257 33.000000
7.838520 -2.694429 -1.693887 18.000000
6.856710 -6.409665 -1.530300 8.000000
10.654625 14.441025 -1.886216 1.000000
6.087328 0.621549 -1.248257 33.000000
7.899270 -2.681441 -1.707811 12.000000
6.905674 -6.412658 -1.546606 7.000000
10.629013 14.512074 -1.868422 5.000000
6.094856 0.645973 -1.249186 31.000000
7.982496 -2.677104 -1.728265 15.000000
6.965328 -6.418422 -1.564623 8.000000
10.682000 14.691726 -1.864311 4.000000
6.102288 0.670465 -1.250112 27.000000
8.089487 -2.678475 -1.753840 10.000000
6.971011 -6.381044 -1.569611 8.000000
10.812963 14.987028 -1.870670 6.000000
6.095017 0.693362 -1.248043 29.000000
8.173899 -2.671642 -1.771468 9.000000
7.044230 -6.400772 -1.591048 8.000000
10.819843 15.107425 -1.858040 6.000000
6.107251 0.717437 -1.249961 28.000000
8.247693 -2.662343 -1.791642 1.000000
7.097926 -6.397734 -1.607651 7.000000
10.785648 15.171274 -1.838284 6.000000
6.124558 0.743322 -1.250714 29.000000
8.485518 -2.706443 -1.841241 1.000000
7.147437 -6.399531 -1.622660 8.000000
10.762604 15.251311 -1.820394 6.000000
6.136029 0.768633 -1.254774 28.000000
8.444483 -2.654436 -1.834742 1.000000
7.184309 -6.385258 -1.636062 7.000000
10.790505 15.410439 -1.814768 6.000000
6.147967 0.793027 -1.256675 32.000000
8.503436 -2.642015 -1.852122 1.000000
7.265503 -6.409912 -1.659633 8.000000
10.970843 15.784975 -1.830652 6.000000
4.492063 2.776521 -0.857208 1.000000
6.155245 0.818005 -1.255411 26.000000
8.589010 -2.629203 -1.869981 7.000000
7.291563 -6.385529 -1.668936 8.000000
11.052623 16.021688 -1.829626 6.000000
4.428029 2.759423 -0.842240 1.000000
6.162204 0.843021 -1.255221 26.000000
8.569397 -2.590518 -1.866992 13.000000
7.350777 -6.389933 -1.687621 8.000000
11.127629 16.251493 -1.820215 6.000000
4.460184 2.802209 -0.846531 5.000000
6.188411 0.869725 -1.260066 26.000000
8.649147 -2.576779 -1.887029 10.000000
7.408824 -6.388359 -1.703841 8.000000
11.301216 16.629234 -1.840399 6.000000
6.199361 0.895551 -1.264124 26.000000
8.817343 -2.590069 -1.928238 1.000000
7.443572 -6.375406 -1.717537 7.000000
11.344445 16.825167 -1.832472 6.000000
6.211076 0.921603 -1.263803 32.000000
11.367207 16.986544 -1.820544 6.000000
4.410065 2.838826 -0.829752 1.000000
