VERSION .7
FIELDS x y z intensity
SIZE 4 4 4 4
TYPE F F F F
COUNT 1 1 1 1
WIDTH 1237
HEIGHT 1
VIEWPOINT 0 0 0 1 0 0 0
POINTS 1237
DATA ascii
6.941153 -4.337314 -0.759286 1.000000
6.190257 -9.044028 -0.476592 59.000000
4.332650 3.600869 -0.683743 1.000000
10.648513 3.015233 -1.474711 253.000000
15.559772 -2.261605 -1.919434 1.000000
6.184192 -9.103179 -0.467023 23.000000
4.298177 3.548186 -0.681378 4.000000
10.663770 2.977378 -1.479236 249.000000
15.134444 -2.256457 -1.865263 6.000000
5.839849 -8.661194 -0.432340 64.000000
4.285046 3.508518 -0.681964 10.000000
10.665068 2.933644 -1.481773 250.000000
14.992883 -2.294234 -1.851575 5.000000
5.738910 -8.579158 -0.414561 22.000000
4.265397 3.468867 -0.681874 39.000000
10.674747 2.894264 -1.489495 247.000000
14.764041 -2.314627 -1.821702 2.000000
5.703638 -8.591170 -0.403361 33.000000
4.263190 3.438732 -0.686104 139.000000
10.689569 2.856264 -1.494025 231.000000
14.544736 -2.334897 -1.795686 2.000000
5.723287 -8.686417 -0.397802 56.000000
4.258708 3.411869 -0.687428 143.000000
10.689862 2.812411 -1.500404 1.000000
14.208652 -2.331849 -1.752638 3.000000
5.642466 -8.632452 -0.381763 32.000000
4.252292 3.378792 -0.690939 129.000000
10.838156 2.808993 -1.527724 1.000000
13.900311 -2.338586 -1.718245 1.000000
5.563531 -8.576915 -0.369512 35.000000
4.255702 3.357335 -0.695354 158.000000
10.790742 2.752532 -1.523499 1.000000
13.588089 -2.337302 -1.683140 1.000000
5.513303 -8.568102 -0.359357 38.000000
4.255787 3.332168 -0.698163 148.000000
10.809851 2.715247 -1.528746 1.000000
13.472621 -2.370738 -1.660261 1.000000
4.250578 3.305412 -0.701240 129.000000
10.915120 2.699198 -1.548222 1.000000
13.214413 -2.375267 -1.631881 4.000000
4.254330 3.283378 -0.704638 163.000000
10.982631 2.671185 -1.560352 1.000000
12.858727 -2.360018 -1.591330 5.000000
6.156352 -9.795067 -0.369637 6.000000
4.257876 3.261284 -0.708955 143.000000
10.962385 2.623743 -1.564119 1.000000
12.611066 -2.364653 -1.557247 6.000000
5.909376 -4.085745 -0.608333 1.000000
6.098522 -9.778654 -0.356132 17.000000
4.328393 3.290194 -0.724477 7.000000
11.139570 2.623021 -1.596162 1.000000
12.450921 -2.381897 -1.540785 1.000000
6.058134 -4.221499 -0.621342 4.000000
12.576173 -20.322868 -0.713491 35.000000
11.206909 2.593500 -1.608465 1.000000
12.247816 -2.385171 -1.518832 1.000000
6.023324 -4.228553 -0.614108 7.000000
12.447943 -20.273464 -0.689448 32.000000
11.389326 2.591773 -1.639508 1.000000
12.014633 -2.387679 -1.491041 1.000000
9.709082 -6.826189 -0.992460 39.000000
5.456457 -8.960198 -0.294869 1.000000
11.475381 2.565052 -1.658838 1.000000
11.962273 -2.422883 -1.483473 1.000000
9.733208 -6.896597 -0.991214 15.000000
5.146180 -8.517469 -0.267539 2.000000
11.566628 2.540972 -1.672778 1.000000
11.890621 -2.453773 -1.471393 1.000000
17.535185 -12.521584 -1.775271 6.000000
5.144850 -8.582814 -0.256792 9.000000
12.015061 2.593359 -1.744998 1.000000
11.788573 -2.479945 -1.462066 1.000000
17.473747 -12.574668 -1.762357 7.000000
5.174770 -8.704920 -0.251033 8.000000
12.009209 2.543875 -1.751460 1.000000
11.750283 -2.516898 -1.458451 1.000000
17.436848 -12.645377 -1.744377 7.000000
11.975018 -20.305225 -0.559654 24.000000
14.333838 2.981443 -2.096706 6.000000
11.716732 -2.554661 -1.455439 1.000000
17.435135 -12.741907 -1.741279 6.000000
11.924500 -20.381830 -0.539996 31.000000
14.203117 2.897402 -2.086271 6.000000
11.658133 -2.588816 -1.451499 1.000000
17.385036 -12.803308 -1.729572 8.000000
4.828798 -8.323416 -0.209968 7.000000
14.143922 2.831369 -2.088887 6.000000
11.657754 -2.633603 -1.456878 1.000000
17.354002 -12.878822 -1.731169 6.000000
13.917540 2.786052 -2.078222 5.000000
11.616076 -2.626319 -1.472826 1.000000
17.397564 -12.915861 -1.769998 7.000000
13.877301 2.833460 -2.076347 5.000000
11.712056 -2.602935 -1.490154 1.000000
17.419214 -12.833168 -1.790214 8.000000
4.858706 -8.374969 -0.228176 6.000000
13.847450 2.880274 -2.073447 5.000000
11.687014 -2.550318 -1.494191 1.000000
17.388187 -12.712254 -1.804937 7.000000
11.867408 -20.292370 -0.582728 27.000000
12.016616 2.547635 -1.800758 1.000000
11.704962 -2.509326 -1.503788 1.000000
9.725363 -7.058113 -1.021739 1.000000
11.973280 -20.310381 -0.617383 24.000000
11.939496 2.577048 -1.790605 1.000000
11.771559 -2.478511 -1.517566 1.000000
9.697742 -6.983946 -1.028748 12.000000
5.154999 -8.675108 -0.278346 4.000000
11.537848 2.536761 -1.733923 1.000000
11.837813 -2.447184 -1.533515 1.000000
5.928629 -4.228850 -0.635837 4.000000
5.074616 -8.472353 -0.286208 3.000000
11.432506 2.557563 -1.715312 1.000000
11.967861 -2.426189 -1.555640 1.000000
5.963727 -4.203830 -0.646057 3.000000
12.248505 -20.288565 -0.715796 26.000000
11.432702 2.601643 -1.716760 1.000000
12.072887 -2.401447 -1.576872 1.000000
5.528066 -9.084926 -0.337923 6.000000
4.316635 3.300317 -0.748194 1.000000
11.408170 2.642174 -1.714587 1.000000
12.144616 -2.369474 -1.587291 1.000000
12.464589 -20.324432 -0.782594 102.000000
4.247098 3.269526 -0.735157 39.000000
11.341201 2.670498 -1.701828 1.000000
12.488761 -2.389136 -1.635626 3.000000
6.152294 -9.949757 -0.398290 9.000000
4.239507 3.288498 -0.731154 202.000000
11.355211 2.719857 -1.703403 1.000000
12.696834 -2.378442 -1.668545 4.000000
5.976785 -4.084733 -0.667744 1.000000
6.096910 -9.783671 -0.404578 19.000000
4.243442 3.316533 -0.730095 172.000000
12.807601 -2.350635 -1.684268 5.000000
12.798237 -20.378426 -0.878181 24.000000
4.238377 3.340067 -0.726729 168.000000
13.240134 -2.379890 -1.744764 4.000000
6.298079 -9.951035 -0.444179 6.000000
4.243202 3.366740 -0.725617 172.000000
11.199934 2.815307 -1.680606 1.000000
13.565684 -2.384673 -1.793779 5.000000
5.795146 -9.086055 -0.419655 25.000000
4.239069 3.388853 -0.722209 187.000000
11.012223 2.813122 -1.649996 5.000000
13.876973 -2.386994 -1.836270 2.000000
5.817319 -9.047505 -0.432019 16.000000
4.237997 3.414750 -0.720389 158.000000
10.873069 2.820067 -1.626681 39.000000
14.196413 -2.393498 -1.887702 6.000000
5.639365 -8.703801 -0.431049 30.000000
4.241139 3.442995 -0.720153 143.000000
10.890872 2.869360 -1.630980 27.000000
14.651149 -2.407095 -1.949447 6.000000
5.694041 -8.721327 -0.443825 25.000000
4.240489 3.468329 -0.717333 130.000000
10.914296 2.918352 -1.632053 6.000000
14.776180 -2.377342 -1.967681 3.000000
5.682922 -8.638274 -0.455070 24.000000
4.232057 3.487398 -0.713197 125.000000
10.803775 2.931271 -1.613133 11.000000
15.117592 -2.370055 -2.020013 3.000000
5.726783 -8.632570 -0.468606 31.000000
4.238896 3.519199 -0.710652 130.000000
10.811796 2.978065 -1.614029 29.000000
15.100926 -2.313464 -2.019408 4.000000
5.763427 -8.625578 -0.480148 33.000000
4.237665 3.544495 -0.709678 95.000000
10.882384 3.040464 -1.622193 37.000000
15.122962 -2.260142 -2.029380 5.000000
5.943736 -8.828560 -0.507492 24.000000
4.236496 3.569989 -0.706755 87.000000
10.899745 3.090482 -1.622502 1.000000
6.172234 -3.864333 -0.743545 1.000000
5.873290 -8.658527 -0.509875 32.000000
4.269229 3.624414 -0.709461 8.000000
10.988238 3.159130 -1.637387 1.000000
6.181018 -3.839865 -0.748118 1.000000
6.155471 -9.003316 -0.544861 34.000000
10.863085 3.166301 -1.616426 1.000000
15.936289 -2.200004 -2.146521 6.000000
6.300458 -3.882134 -0.766068 1.000000
6.240627 -9.053063 -0.562786 11.000000
10.875393 3.215245 -1.614024 1.000000
15.781785 -2.119759 -2.127478 6.000000
6.292741 -3.845629 -0.771217 1.000000
10.873558 3.258087 -1.611470 1.000000
15.764867 -2.055893 -2.126942 6.000000
6.259554 -3.793908 -0.770607 1.000000
5.884968 -8.410852 -0.550555 9.000000
10.847294 3.295660 -1.605405 1.000000
15.751525 -1.995467 -2.132604 6.000000
6.289577 -3.771693 -0.778578 1.000000
5.955684 -8.452112 -0.563595 166.000000
10.811752 3.328195 -1.599925 1.000000
15.689841 -1.926470 -2.126044 6.000000
5.909628 -8.318728 -0.568715 37.000000
10.837825 3.379757 -1.601564 1.000000
15.632462 -1.861291 -2.120128 6.000000
6.176339 -8.636568 -0.604781 13.000000
10.839463 3.425991 -1.599691 1.000000
15.570263 -1.796033 -2.110785 6.000000
6.362192 -8.827890 -0.633146 31.000000
10.813483 3.461423 -1.591656 1.000000
6.140391 -8.457730 -0.619114 27.000000
10.818952 3.509028 -1.594433 1.000000
4.343406 3.977210 -0.693913 1.000000
10.792695 3.544283 -1.586403 1.000000
5.563753 -3.174796 -0.709474 1.000000
6.655797 -9.031004 -0.692060 33.000000
4.282654 3.949152 -0.679190 8.000000
10.822452 3.598053 -1.588646 1.000000
5.750523 -0.552699 -0.784164 7.000000
5.561944 -3.146797 -0.712284 8.000000
6.612481 -8.906960 -0.695981 5.000000
4.272223 3.968605 -0.674681 21.000000
5.752466 -0.530602 -0.785173 6.000000
5.556758 -3.114483 -0.714516 10.000000
6.566853 -8.778093 -0.701234 22.000000
4.294346 4.018578 -0.675296 21.000000
7.875831 2.684220 -1.151630 1.000000
5.768765 -0.510789 -0.790225 5.000000
5.572042 -3.096266 -0.719524 29.000000
6.591003 -8.746556 -0.712065 37.000000
4.294390 4.048244 -0.673457 28.000000
7.898905 2.724438 -1.154970 1.000000
5.716299 -0.485035 -0.782789 5.000000
5.595205 -3.083625 -0.727897 27.000000
4.298046 4.081545 -0.670085 14.000000
7.800106 2.723919 -1.137636 1.000000
5.693294 -0.461072 -0.780406 5.000000
5.611029 -3.064316 -0.731810 26.000000
7.556918 2.670109 -1.100737 1.000000
5.709628 -0.441337 -0.783436 5.000000
5.634876 -3.050580 -0.737990 29.000000
6.255991 -8.120638 -0.702435 33.000000
5.676425 -0.416851 -0.780679 5.000000
5.670874 -3.045795 -0.744793 17.000000
12.789371 12.316089 -1.975899 6.000000
5.697545 -0.397412 -0.784394 7.000000
5.700134 -3.032091 -0.751599 9.000000
5.938234 -7.595126 -0.680927 255.000000
12.623851 12.246186 -1.944818 1.000000
5.674249 -0.374894 -0.780992 8.000000
5.744710 -3.031405 -0.761893 4.000000
5.961030 -7.569679 -0.694029 180.000000
12.838465 12.541663 -1.965592 5.000000
5.675511 -0.353095 -0.781985 7.000000
5.938198 -7.478725 -0.697922 127.000000
12.878658 12.673508 -1.962888 1.000000
5.666489 -0.333674 -0.782604 7.000000
6.029688 -7.545154 -0.716055 30.000000
12.978327 12.865561 -1.965892 1.000000
12.915377 4.890621 -1.859867 1.000000
5.613190 -0.308913 -0.776073 9.000000
13.074052 13.046698 -1.970631 3.000000
12.777644 4.892089 -1.837740 1.000000
5.579659 -0.286559 -0.771287 10.000000
6.415429 -7.911096 -0.776574 30.000000
13.155989 13.234290 -1.974505 1.000000
12.612040 4.881761 -1.814080 106.000000
5.551126 -0.261784 -0.767184 23.000000
6.165612 -7.540959 -0.756345 34.000000
13.135373 13.306127 -1.961872 5.000000
12.552550 4.914237 -1.801040 228.000000
5.546613 -0.243140 -0.769408 34.000000
6.188851 -7.521039 -0.764845 15.000000
13.176178 13.436292 -1.954689 3.000000
12.531302 4.958964 -1.788617 145.000000
5.542786 -0.222621 -0.766785 29.000000
6.257128 -7.547462 -0.781912 8.000000
13.338582 13.711576 -1.966685 6.000000
12.504128 5.001295 -1.784951 1.000000
5.523604 -0.198680 -0.765976 22.000000
6.445218 -7.713864 -0.814070 14.000000
13.360947 13.830833 -1.960131 6.000000
12.735333 5.147995 -1.808440 1.000000
5.524429 -0.178438 -0.765011 36.000000
6.358027 -7.558428 -0.808563 6.000000
13.492090 14.059593 -1.965584 6.000000
5.515117 -0.158868 -0.763640 33.000000
6.187656 -2.979248 -0.850528 1.000000
6.361274 -7.508924 -0.816013 7.000000
13.605044 14.291698 -1.969511 6.000000
5.510445 -0.138522 -0.764879 30.000000
6.417305 -7.519012 -0.830084 21.000000
13.565591 14.345210 -1.953275 6.000000
5.501298 -0.117157 -0.761584 25.000000
6.397478 -7.443008 -0.834505 9.000000
13.584956 14.466508 -1.942339 6.000000
5.491787 -0.096818 -0.760213 31.000000
6.652509 -7.682575 -0.873026 29.000000
13.769001 14.780954 -1.955767 6.000000
5.492105 -0.076689 -0.760213 30.000000
6.519566 -7.473519 -0.862443 28.000000
13.881167 15.006051 -1.953922 6.000000
5.482473 -0.053587 -0.758842 33.000000
6.524494 -7.421449 -0.871484 10.000000
13.924859 15.164405 -1.949753 9.000000
5.477403 -0.035372 -0.760068 28.000000
6.865427 -7.757225 -0.922693 26.000000
13.889054 15.226459 -1.933654 9.000000
9.558926 4.198065 -1.333711 1.000000
5.472414 -0.014327 -0.760336 34.000000
6.832067 -7.665451 -0.927253 14.000000
13.863911 15.305861 -1.915766 10.000000
9.387291 4.159875 -1.302575 1.000000
5.467875 0.003817 -0.756785 30.000000
6.499246 -2.899089 -0.914173 1.000000
7.009986 -7.812757 -0.955267 31.000000
13.805723 15.354353 -1.893682 6.000000
9.302709 4.169099 -1.286020 1.000000
5.462872 0.023836 -0.756100 32.000000
6.468564 -2.857023 -0.912142 4.000000
14.058815 15.751572 -1.917726 6.000000
5.472645 0.044893 -0.757471 39.000000
6.533920 -2.854599 -0.924796 5.000000
14.223074 16.048019 -1.925122 6.000000
5.457323 0.064772 -0.757319 31.000000
6.557742 -2.835071 -0.932960 8.000000
6.771428 -7.379367 -0.946730 24.000000
14.289579 16.231176 -1.918573 6.000000
5.466938 0.085882 -0.758694 38.000000
6.585036 -2.820990 -0.938051 9.000000
6.771657 -7.330668 -0.952145 31.000000
14.330463 16.409966 -1.909899 6.000000
5.466586 0.105918 -0.758694 36.000000
6.632219 -2.809747 -0.948273 9.000000
6.863502 -7.373094 -0.971717 39.000000
14.456440 16.659571 -1.910380 6.000000
5.456523 0.125732 -0.755414 34.000000
6.668771 -2.799185 -0.953451 10.000000
6.829599 -7.288063 -0.970529 27.000000
14.429093 16.751699 -1.891543 6.000000
5.460951 0.146815 -0.756100 34.000000
6.710898 -2.786608 -0.963099 13.000000
6.992077 -7.406851 -1.002317 10.000000
14.676000 17.159115 -1.911904 6.000000
5.440442 0.166221 -0.754308 39.000000
6.784779 -2.788176 -0.976137 24.000000
7.133715 -7.504241 -1.029808 1.000000
14.685240 17.297873 -1.897424 6.000000
5.439828 0.185210 -0.754308 69.000000
6.826615 -2.776165 -0.984613 18.000000
7.088164 -7.401806 -1.030148 30.000000
14.834802 17.598185 -1.900404 8.000000
5.458838 0.207799 -0.757053 35.000000
6.891433 -2.773133 -0.996448 32.000000
7.073174 -7.332165 -1.033038 90.000000
14.806859 17.696249 -1.876741 8.000000
5.463081 0.228971 -0.756785 36.000000
6.957759 -2.766016 -1.008345 27.000000
6.739944 -6.933257 -0.990706 10.000000
14.765022 17.778242 -1.863446 10.000000
5.466887 0.249206 -0.759381 40.000000
6.990084 -2.749240 -1.018237 12.000000
6.660069 -6.801038 -0.987047 86.000000
14.672805 17.793209 -1.827227 10.000000
5.461349 0.267105 -0.756785 35.000000
7.040547 -2.742164 -1.025601 36.000000
6.591329 -6.686344 -0.980194 25.000000
14.570807 17.802046 -1.798399 9.000000
5.460314 0.289986 -0.755831 38.000000
7.109978 -2.739236 -1.039663 9.000000
6.515695 -6.563633 -0.976957 9.000000
14.462597 17.796221 -1.768540 16.000000
5.459214 0.309997 -0.755831 38.000000
7.170856 -2.731116 -1.051117 9.000000
6.500309 -6.500309 -0.980807 9.000000
14.345026 17.784336 -1.742066 10.000000
5.458231 0.329059 -0.754877 31.000000
7.235928 -2.725573 -1.063309 9.000000
6.519952 -6.472332 -0.988294 9.000000
14.327626 17.890198 -1.723386 9.000000
5.461667 0.349361 -0.757471 28.000000
7.284448 -2.722095 -1.072154 9.000000
6.567674 -6.472085 -1.001694 10.000000
14.241586 17.904125 -1.692063 8.000000
5.465622 0.370692 -0.755288 29.000000
7.333822 -2.717230 -1.078300 9.000000
6.582493 -6.441554 -1.008652 10.000000
14.402432 18.249737 -1.695010 7.000000
5.464227 0.390722 -0.755288 33.000000
7.386689 -2.714845 -1.090623 9.000000
6.633815 -6.444348 -1.022692 12.000000
14.469096 18.466394 -1.681620 7.000000
5.467829 0.411128 -0.755014 36.000000
7.445429 -2.712858 -1.098173 10.000000
6.674760 -6.436741 -1.031914 9.000000
14.671823 18.867159 -1.688051 7.000000
5.476086 0.432901 -0.756378 36.000000
7.478076 -2.693747 -1.105767 13.000000
6.712011 -6.425353 -1.042234 13.000000
14.564448 18.864601 -1.654004 7.000000
5.464824 0.454092 -0.752143 36.000000
7.571977 -2.694771 -1.120974 11.000000
6.769378 -6.428392 -1.057027 10.000000
14.517319 18.946711 -1.635598 7.000000
5.463075 0.473154 -0.753100 38.000000
7.660658 -2.694738 -1.136968 9.000000
6.806932 -6.423506 -1.068008 11.000000
14.412859 18.947006 -1.606225 7.000000
5.466238 0.493619 -0.753780 40.000000
7.712201 -2.681145 -1.146057 15.000000
6.844110 -6.411329 -1.080096 10.000000
14.245458 18.870075 -1.562107 7.000000
5.474648 0.514615 -0.752262 40.000000
7.792111 -2.675435 -1.160796 16.000000
6.914153 -6.429526 -1.095773 13.000000
14.153544 18.885054 -1.534427 7.000000
5.482624 0.536610 -0.752656 58.000000
7.885872 -2.675358 -1.176260 13.000000
6.947913 -6.413595 -1.105755 10.000000
13.975459 18.783705 -1.493497 8.000000
5.485679 0.557215 -0.752370 40.000000
7.961146 -2.668398 -1.187516 9.000000
6.999804 -6.414138 -1.120343 10.000000
13.901513 18.828020 -1.468353 9.000000
5.493352 0.579313 -0.753722 44.000000
8.036539 -2.659387 -1.201751 15.000000
7.051923 -6.414506 -1.133350 13.000000
13.792355 18.817286 -1.439226 8.000000
5.520873 0.602684 -0.756809 32.000000
8.130120 -2.657333 -1.220372 14.000000
7.104126 -6.414567 -1.146426 17.000000
13.721946 18.852020 -1.413885 8.000000
5.528604 0.624041 -0.757188 25.000000
8.205344 -2.648673 -1.233270 10.000000
7.132968 -6.395553 -1.157648 13.000000
13.568651 18.792650 -1.377094 8.000000
5.550904 0.648153 -0.759584 22.000000
8.290706 -2.641119 -1.246116 6.000000
7.211217 -6.418190 -1.175071 9.000000
13.513288 18.840403 -1.353112 8.000000
5.592893 0.673843 -0.764661 9.000000
8.370731 -2.632858 -1.259811 20.000000
7.233922 -6.391036 -1.183495 10.000000
13.361016 18.773006 -1.320535 9.000000
5.610308 0.695818 -0.766365 9.000000
8.397478 -2.610700 -1.268793 30.000000
7.275173 -6.380156 -1.194982 15.000000
13.229296 18.739832 -1.286503 9.000000
5.627260 0.720869 -0.768061 7.000000
8.464480 -2.592698 -1.281996 14.000000
7.357437 -6.404746 -1.215003 12.000000
13.156791 18.761953 -1.261107 8.000000
5.659100 0.746039 -0.771760 7.000000
8.634974 -2.610342 -1.306361 1.000000
7.413843 -6.406235 -1.229116 10.000000
13.051614 18.757845 -1.233605 10.000000
4.566140 2.820105 -0.550819 1.000000
5.656327 0.767781 -0.770764 7.000000
8.886333 -2.649131 -1.346144 1.000000
7.447751 -6.388006 -1.239546 11.000000
12.972836 18.784147 -1.200384 9.000000
4.556098 2.837025 -0.547072 1.000000
5.668597 0.790617 -0.769775 7.000000
7.519552 -6.401904 -1.254587 16.000000
12.857073 18.756207 -1.171846 9.000000
4.470154 2.806297 -0.534261 1.000000
5.680511 0.813515 -0.770773 4.000000
9.023169 -2.618058 -1.372302 7.000000
7.561067 -6.389597 -1.266377 10.000000
12.746913 18.742437 -1.140295 9.000000
5.677212 0.835301 -0.771774 5.000000
9.051721 -2.588702 -1.378479 1.000000
7.606382 -6.380250 -1.278848 10.000000
12.662516 18.758823 -1.114836 8.000000
5.690405 0.850437 -0.770761 5.000000
11.541302 -3.254984 -1.760062 1.000000
7.666962 -6.383339 -1.293942 15.000000
12.547672 18.729342 -1.082866 9.000000
5.706825 0.875306 -0.772409 4.000000
11.581718 -3.218426 -1.768615 1.000000
7.708542 -6.370265 -1.305885 10.000000
12.440856 18.717905 -1.055973 9.000000
5.728191 0.900084 -0.774712 5.000000
11.572652 -3.174605 -1.769893 1.000000
12.343140 18.712248 -1.025770 9.000000
5.725120 0.921116 -0.772688 5.000000
11.570379 -3.124094 -1.771888 1.000000
12.232012 18.685352 -0.990703 8.000000
5.770844 0.951218 -0.776230 4.000000
11.620530 -3.089812 -1.777738 1.000000
12.104679 18.632450 -0.962339 8.000000
11.635961 -3.048296 -1.782668 1.000000
5.071993 -4.043125 -0.874676 17.000000
12.064646 18.713491 -0.933199 9.000000
5.959373 1.027220 -0.800432 4.000000
11.700262 -3.017180 -1.790731 1.000000
5.051327 -3.996460 -0.873159 16.000000
11.964110 18.707758 -0.911308 6.000000
11.671680 -2.964229 -1.793275 1.000000
5.034288 -3.953065 -0.872254 17.000000
21.169819 33.358295 -1.573020 9.000000
14.653019 2.594272 -1.964393 2.000000
11.792715 -2.946813 -1.814456 1.000000
5.028363 -3.918704 -0.876668 23.000000
21.022306 33.382858 -1.522436 10.000000
14.224242 2.572162 -1.905595 5.000000
11.822028 -2.908145 -1.821659 1.000000
5.022739 -3.884815 -0.876587 20.000000
20.943689 33.516911 -1.476851 10.000000
14.376904 2.654222 -1.916954 4.000000
11.822497 -2.864532 -1.820179 1.000000
5.020621 -3.853850 -0.879375 23.000000
20.874283 33.679897 -1.432176 9.000000
11.890326 -2.834868 -1.831191 1.000000
5.023195 -3.825264 -0.880617 32.000000
20.781179 33.792538 -1.378412 6.000000
11.914943 -2.792431 -1.837685 1.000000
5.024716 -3.797406 -0.884042 30.000000
13.525441 2.653586 -1.797476 2.000000
11.972651 -2.759703 -1.849400 1.000000
5.018178 -3.763648 -0.886041 24.000000
13.005868 2.603550 -1.720326 3.000000
11.987982 -2.714803 -1.850144 1.000000
5.019403 -3.735900 -0.889404 28.000000
21.630318 36.013130 -1.305530 10.000000
12.748750 2.600714 -1.685256 1.000000
12.021667 -2.676148 -1.856014 1.000000
5.016761 -3.705437 -0.889855 27.000000
21.469461 36.029655 -1.252116 7.000000
12.337290 2.563914 -1.623153 1.000000
12.060834 -2.636303 -1.860485 1.000000
5.004574 -3.670848 -0.889951 31.000000
21.867008 37.004566 -1.223136 3.000000
12.056395 2.551671 -1.585231 1.000000
11.997274 -2.576373 -1.853592 1.000000
4.998755 -3.635808 -0.890718 29.000000
11.959785 2.579243 -1.569477 1.000000
11.947956 -2.520007 -1.848893 1.000000
5.004146 -3.610432 -0.893599 28.000000
11.713940 2.571190 -1.529932 1.000000
12.058888 -2.495081 -1.866761 1.000000
5.000618 -3.580091 -0.896100 31.000000
11.506742 2.569953 -1.497817 1.000000
12.121243 -2.461689 -1.875005 1.000000
4.992908 -3.565353 -0.893938 28.000000
11.134531 2.531747 -1.446571 1.000000
12.135775 -2.416158 -1.873594 1.000000
5.005923 -3.545703 -0.899291 30.000000
47.046612 82.884361 -2.146149 1.000000
11.159500 2.580477 -1.446972 1.000000
12.197276 -2.381959 -1.886167 1.000000
5.006229 -3.518436 -0.901388 35.000000
46.697117 82.941711 -2.010436 1.000000
11.116898 2.613587 -1.436606 1.000000
12.216043 -2.336965 -1.887667 1.000000
5.006532 -3.491306 -0.902398 36.000000
23.607693 42.275639 -0.955085 1.000000
10.988496 2.621883 -1.413118 1.000000
12.502213 -2.341984 -1.928212 1.000000
5.014708 -3.469759 -0.905924 31.000000
23.392780 42.236458 -0.884911 15.000000
10.926727 2.649510 -1.398442 1.000000
12.802113 -2.349627 -1.975448 5.000000
5.015370 -3.441815 -0.906905 31.000000
23.436672 42.315708 -0.852790 14.000000
10.957079 2.656870 -1.390339 1.000000
5.010995 -3.450404 -0.898411 33.000000
46.285416 82.885925 -1.756521 1.000000
11.001005 2.624867 -1.390675 4.000000
12.549572 -2.350856 -1.910448 3.000000
5.003149 -3.472102 -0.892764 29.000000
46.668926 82.857819 -1.859160 1.000000
11.088306 2.600739 -1.400438 1.000000
12.216315 -2.337017 -1.852191 1.000000
4.995461 -3.493963 -0.884978 32.000000
47.143822 82.954422 -1.965334 1.000000
11.199312 2.583506 -1.413253 1.000000
12.155220 -2.371543 -1.837606 1.000000
4.995259 -3.521157 -0.882867 29.000000
47.528790 82.956367 -2.086157 1.000000
11.266540 2.555560 -1.422592 1.000000
12.122086 -2.413432 -1.831779 1.000000
4.998466 -3.552225 -0.880376 38.000000
11.508771 2.564080 -1.451924 1.000000
12.016835 -2.438301 -1.812839 1.000000
4.994208 -3.576821 -0.875364 31.000000
11.755121 2.573779 -1.486067 1.000000
11.974403 -2.477600 -1.801318 1.000000
4.986026 -3.615916 -0.867807 26.000000
11.978191 2.576650 -1.510892 1.000000
11.903541 -2.508469 -1.783353 1.000000
4.986492 -3.641548 -0.865589 27.000000
21.845860 36.939331 -1.108796 2.000000
12.142323 2.563216 -1.539139 1.000000
11.821266 -2.538576 -1.772474 1.000000
5.000353 -3.682539 -0.865029 23.000000
21.490255 36.050236 -1.135665 9.000000
11.720955 -2.562011 -1.752413 1.000000
4.987547 -3.701379 -0.858525 29.000000
21.658691 36.017632 -1.188636 10.000000
11.716911 -2.606160 -1.748946 1.000000
4.994380 -3.734915 -0.856507 30.000000
12.923265 2.582323 -1.636827 3.000000
11.693232 -2.648054 -1.740506 1.000000
4.993659 -3.761626 -0.854183 20.000000
13.346237 2.616009 -1.691585 1.000000
11.635818 -2.679924 -1.729154 1.000000
5.001062 -3.794637 -0.849898 23.000000
21.020638 34.155197 -1.253357 3.000000
11.650707 -2.730503 -1.724384 1.000000
5.002119 -3.827176 -0.847085 21.000000
20.920277 33.727806 -1.288884 10.000000
11.607212 -2.765228 -1.717309 1.000000
5.004342 -3.858038 -0.844237 12.000000
20.928972 33.467358 -1.330132 10.000000
14.344704 2.645688 -1.822034 4.000000
11.601901 -2.811082 -1.713855 1.000000
5.006520 -3.889056 -0.840248 11.000000
21.007612 33.333714 -1.369036 10.000000
14.300285 2.583335 -1.817753 3.000000
11.582489 -2.851363 -1.708270 1.000000
5.024038 -3.932274 -0.839936 9.000000
21.155075 33.309357 -1.419329 10.000000
11.573114 -2.894085 -1.699942 1.000000
5.061354 -3.990049 -0.843921 9.000000
21.316755 33.293663 -1.456525 10.000000
11.586479 -2.944744 -1.699296 1.000000
5.120328 -4.068517 -0.850548 8.000000
5.975710 0.991416 -0.760931 3.000000
11.619323 -2.998471 -1.701440 1.000000
5.156515 -4.128193 -0.850862 6.000000
5.822469 0.944077 -0.742018 5.000000
11.550831 -3.028149 -1.688849 1.000000
5.737727 0.907740 -0.731798 8.000000
11.559361 -3.075708 -1.687474 1.000000
7.884382 -6.364167 -1.296197 20.000000
12.363544 18.721848 -0.928571 6.000000
5.706445 0.881365 -0.729439 10.000000
11.529459 -3.113046 -1.680512 1.000000
7.834940 -6.371825 -1.282943 22.000000
12.494599 18.777430 -0.961089 8.000000
5.694796 0.858207 -0.728565 11.000000
11.570514 -3.171847 -1.683988 1.000000
7.752621 -6.356752 -1.264742 13.000000
12.573412 18.753603 -0.985798 8.000000
5.663569 0.831274 -0.725171 13.000000
11.535523 -3.207758 -1.676334 1.000000
7.718645 -6.376347 -1.254129 12.000000
12.697411 18.789297 -1.013908 9.000000
5.651721 0.808385 -0.724282 20.000000
11.548075 -3.259070 -1.671424 1.000000
7.654109 -6.370377 -1.238603 15.000000
12.748159 18.723181 -1.040466 9.000000
5.640477 0.779671 -0.724382 23.000000
11.608030 -3.321972 -1.677556 1.000000
7.593510 -6.367196 -1.223784 16.000000
12.886272 18.784740 -1.070287 9.000000
4.538689 2.795497 -0.511393 1.000000
5.618843 0.755703 -0.720238 21.000000
8.908918 -2.584908 -1.285549 7.000000
7.551979 -6.379658 -1.212093 14.000000
12.980063 18.773582 -1.092317 9.000000
4.515661 2.756371 -0.510344 1.000000
5.601905 0.731538 -0.718703 25.000000
8.818583 -2.595450 -1.270672 10.000000
7.499429 -6.382514 -1.195195 13.000000
13.121811 18.837688 -1.126819 8.000000
5.589663 0.709112 -0.717794 24.000000
8.667043 -2.585405 -1.246976 25.000000
7.442857 -6.381554 -1.181218 23.000000
13.198690 18.800755 -1.151610 9.000000
4.576755 2.749991 -0.523532 1.000000
5.572529 0.685208 -0.716246 24.000000
8.591543 -2.597213 -1.234283 20.000000
7.399882 -6.387407 -1.169099 11.000000
13.283716 18.782110 -1.177454 9.000000
5.560228 0.663017 -0.714348 20.000000
8.530025 -2.614404 -1.222119 24.000000
7.344985 -6.391653 -1.155853 14.000000
13.417890 18.832037 -1.211839 9.000000
5.542789 0.640342 -0.712791 20.000000
8.454556 -2.625210 -1.209528 21.000000
7.278570 -6.378641 -1.140335 12.000000
13.512285 18.818192 -1.238455 10.000000
5.535472 0.617968 -0.710551 24.000000
8.393694 -2.640081 -1.195941 16.000000
7.248735 -6.399619 -1.127352 16.000000
13.582974 18.777941 -1.263259 8.000000
5.537329 0.597635 -0.713468 24.000000
8.322523 -2.652855 -1.184137 19.000000
7.188705 -6.393658 -1.114845 14.000000
13.735721 18.850193 -1.299919 9.000000
5.514696 0.574753 -0.711259 29.000000
8.261463 -2.666788 -1.172204 18.000000
7.143748 -6.400721 -1.103022 12.000000
13.824587 18.826780 -1.326328 9.000000
5.492066 0.551085 -0.709041 52.000000
8.176661 -2.672545 -1.158496 15.000000
7.113718 -6.420975 -1.091845 10.000000
13.942818 18.849518 -1.355983 8.000000
5.488990 0.530463 -0.709367 58.000000
8.081855 -2.675948 -1.144998 14.000000
7.046588 -6.407407 -1.078404 14.000000
14.082546 18.893187 -1.387589 7.000000
5.485959 0.509883 -0.708729 58.000000
8.011662 -2.685330 -1.130435 14.000000
6.983581 -6.397031 -1.062299 16.000000
14.153376 18.850525 -1.416977 7.000000
5.478120 0.487945 -0.706493 47.000000
7.941126 -2.694103 -1.118889 20.000000
6.958369 -6.418750 -1.051829 12.000000
14.296458 18.903305 -1.449598 7.000000
5.469621 0.466989 -0.708093 54.000000
7.860964 -2.700610 -1.104618 13.000000
6.884630 -6.397593 -1.034257 13.000000
14.442793 18.965742 -1.483109 6.000000
5.471218 0.447893 -0.708093 40.000000
7.790513 -2.708371 -1.093176 9.000000
6.853014 -6.410693 -1.026065 10.000000
14.490248 18.877237 -1.505547 6.000000
5.487926 0.427091 -0.709052 27.000000
7.729636 -2.719002 -1.081659 15.000000
6.828002 -6.438885 -1.016238 9.000000
14.631632 18.917469 -1.538169 7.000000
5.484386 0.406598 -0.709373 26.000000
7.649443 -2.723844 -1.069009 10.000000
6.787102 -6.447477 -1.003744 10.000000
14.772745 18.976427 -1.572018 7.000000
5.475879 0.386753 -0.708093 31.000000
7.569972 -2.726850 -1.055007 12.000000
6.746095 -6.455725 -0.992931 9.000000
14.896596 18.991507 -1.603166 7.000000
5.472188 0.366340 -0.708411 33.000000
7.505327 -2.731716 -1.044419 10.000000
6.772964 -6.522324 -0.991599 10.000000
14.964842 18.941980 -1.628777 7.000000
5.473247 0.346266 -0.710325 33.000000
7.409332 -2.736386 -1.027235 9.000000
6.829537 -6.629849 -0.993693 255.000000
15.098336 18.967617 -1.661234 7.000000
5.469710 0.324961 -0.708727 29.000000
7.311528 -2.745310 -1.010176 8.000000
6.850816 -6.694776 -0.991564 90.000000
15.194559 18.952349 -1.690091 7.000000
5.470865 0.304911 -0.708727 33.000000
7.261929 -2.765802 -1.000977 6.000000
6.838796 -6.736909 -0.983571 31.000000
15.287683 18.925947 -1.722592 8.000000
5.471995 0.283902 -0.708727 29.000000
7.205303 -2.777406 -0.987850 2.000000
6.990099 -6.931783 -0.999952 9.000000
15.085161 18.529226 -1.716892 7.000000
5.467675 0.263588 -0.710952 28.000000
7.073639 -2.760741 -0.970029 1.000000
7.252730 -7.247668 -1.030648 5.000000
14.898801 18.176872 -1.713552 7.000000
5.468852 0.243557 -0.709041 30.000000
7.271379 -7.314657 -1.027649 9.000000
14.837128 17.960522 -1.723042 8.000000
5.469700 0.220642 -0.709996 31.000000
7.095620 -2.829430 -0.967732 1.000000
7.239215 -7.341007 -1.016357 255.000000
14.888936 17.889296 -1.745941 9.000000
5.480312 0.202870 -0.711282 22.000000
7.172384 -7.324197 -1.001526 30.000000
14.934277 17.829554 -1.769176 10.000000
5.466183 0.181332 -0.709353 22.000000
6.828152 -2.779568 -0.924793 1.000000
7.086199 -7.284354 -0.983906 27.000000
15.085128 17.876139 -1.803911 11.000000
5.486388 0.161874 -0.713842 16.000000
7.047244 -7.302734 -0.971834 18.000000
15.165665 17.838512 -1.826266 13.000000
5.476907 0.141505 -0.713508 26.000000
7.017920 -2.919841 -0.948114 1.000000
7.065895 -7.375974 -0.967334 17.000000
15.268310 17.832731 -1.864102 21.000000
5.477410 0.120474 -0.713508 29.000000
6.943589 -2.918816 -0.935506 5.000000
6.920708 -7.275083 -0.940320 39.000000
15.342200 17.792936 -1.890289 19.000000
5.477815 0.100397 -0.713508 28.000000
6.911482 -2.932327 -0.928494 1.000000
6.931301 -7.334772 -0.936176 31.000000
15.412542 17.742605 -1.915703 9.000000
5.473202 0.079292 -0.712862 29.000000
6.871820 -7.330554 -0.921498 33.000000
15.292808 17.474985 -1.909167 9.000000
5.473456 0.059231 -0.712862 28.000000
6.808573 -7.308969 -0.907301 35.000000
15.252995 17.295042 -1.920207 7.000000
5.473636 0.039169 -0.712862 34.000000
6.762920 -7.318648 -0.894605 25.000000
15.106916 17.015331 -1.922698 6.000000
5.473746 0.018152 -0.712862 28.000000
6.759451 -7.363735 -0.886821 32.000000
15.002163 16.779007 -1.925640 6.000000
5.473776 0.000000 -0.712862 31.000000
6.791265 -7.450431 -0.885535 183.000000
14.946616 16.605726 -1.931072 6.000000
5.473615 -0.020062 -0.713818 31.000000
14.815301 16.339001 -1.929628 6.000000
5.488496 -0.041191 -0.714800 25.000000
6.939408 -7.728668 -0.890471 23.000000
14.844008 16.256264 -1.949196 6.000000
5.483371 -0.059338 -0.714154 32.000000
6.913643 -7.746083 -0.880984 6.000000
14.625864 15.899937 -1.931888 6.000000
5.497990 -0.079651 -0.716091 33.000000
7.140232 -8.059220 -0.902260 29.000000
14.526964 15.676715 -1.933785 6.000000
5.492401 -0.102583 -0.717363 30.000000
7.032684 -8.002319 -0.883360 30.000000
14.352376 15.380271 -1.929300 9.000000
5.501944 -0.121014 -0.718658 28.000000
6.663842 -7.630836 -0.831137 52.000000
14.363161 15.279173 -1.941665 13.000000
5.511577 -0.143363 -0.718028 30.000000
6.506647 -7.511479 -0.801318 255.000000
14.434538 15.242766 -1.969618 13.000000
5.505836 -0.162448 -0.719305 26.000000
6.460621 -7.505863 -0.791591 9.000000
14.462419 15.165820 -1.984637 8.000000
5.525025 -0.183284 -0.721895 33.000000
6.194862 -3.013410 -0.798292 1.000000
14.250957 14.834824 -1.969882 6.000000
5.544225 -0.205235 -0.723516 29.000000
14.213809 14.688018 -1.978895 6.000000
12.837747 5.178969 -1.724241 1.000000
5.538481 -0.225353 -0.722870 29.000000
6.361326 -7.554318 -0.758178 16.000000
14.142225 14.512332 -1.979715 6.000000
12.736000 5.083726 -1.715353 1.000000
5.547482 -0.247059 -0.724163 24.000000
13.998661 14.260068 -1.973416 6.000000
12.619343 4.983617 -1.709196 5.000000
5.546665 -0.267396 -0.723194 25.000000
6.190287 -7.458885 -0.723718 30.000000
13.941164 14.097765 -1.975485 6.000000
12.595106 4.920759 -1.710652 1.000000
5.560502 -0.288494 -0.725131 24.000000
6.144928 -7.465006 -0.711732 64.000000
13.974535 14.033195 -1.997700 6.000000
5.569001 -0.310380 -0.728369 26.000000
6.286484 -7.691533 -0.722518 33.000000
13.753129 13.709991 -1.979398 6.000000
5.577851 -0.331385 -0.728689 28.000000
6.409618 -7.901111 -0.727498 37.000000
13.756093 13.612789 -1.989696 6.000000
5.591444 -0.352764 -0.730629 21.000000
13.669584 13.428373 -1.990332 6.000000
5.605016 -0.375233 -0.731588 29.000000
13.519349 13.188375 -1.978403 6.000000
5.623386 -0.397171 -0.734171 27.000000
5.784443 -3.084714 -0.720265 8.000000
5.954306 -7.501700 -0.656290 136.000000
5.641726 -0.420243 -0.735766 29.000000
5.708626 -3.068640 -0.710943 10.000000
5.942173 -7.537611 -0.647606 23.000000
5.659663 -0.442444 -0.740327 27.000000
5.680297 -3.080300 -0.704251 10.000000
6.146863 -7.853490 -0.662408 32.000000
5.672956 -0.464408 -0.741274 21.000000
5.656316 -3.094177 -0.698125 29.000000
6.213343 -7.998657 -0.662074 25.000000
4.341972 4.081664 -0.653697 4.000000
7.621086 2.686799 -1.059557 1.000000
5.691278 -0.487915 -0.740866 25.000000
5.639924 -3.114690 -0.693089 35.000000
4.334516 4.044831 -0.657669 12.000000
7.681851 2.676607 -1.070967 1.000000
5.723764 -0.511839 -0.747373 14.000000
5.624443 -3.133097 -0.689184 27.000000
4.319727 4.001512 -0.658398 20.000000
7.719020 2.657872 -1.080583 1.000000
5.746571 -0.536128 -0.749590 10.000000
5.644578 -3.168885 -0.690649 8.000000
4.281278 3.939596 -0.656713 27.000000
7.957334 2.710447 -1.115666 1.000000
5.774047 -0.560046 -0.754467 9.000000
6.622626 -8.782143 -0.674675 58.000000
4.299531 3.926012 -0.663371 18.000000
5.870622 -0.591141 -0.767364 7.000000
6.688006 -8.940042 -0.671136 49.000000
10.634534 3.529395 -1.501025 1.000000
5.927619 -0.619880 -0.774062 1.000000
6.593062 -8.880803 -0.655184 32.000000
10.626597 3.487683 -1.504226 1.000000
10.695475 3.464854 -1.520073 1.000000
16.707092 -1.797271 -2.185374 6.000000
10.708102 3.425630 -1.520073 1.000000
16.567396 -1.846620 -2.165054 6.000000
6.132719 -8.440963 -0.585156 135.000000
10.724041 3.387451 -1.530558 1.000000
16.659033 -1.918677 -2.177933 6.000000
7.131395 -4.209100 -0.855748 1.000000
6.188203 -8.580154 -0.584044 26.000000
10.674972 3.326927 -1.525696 1.000000
16.514400 -1.963377 -2.157000 6.000000
7.116432 -4.235514 -0.849966 1.000000
10.701939 3.288257 -1.531632 1.000000
16.525341 -2.034912 -2.162478 6.000000
7.109897 -4.266992 -0.845199 1.000000
6.138965 -8.641557 -0.561096 31.000000
10.684707 3.240152 -1.533412 1.000000
16.601768 -2.106123 -2.170505 6.000000
7.009594 -4.241817 -0.829339 1.000000
5.947939 -8.441120 -0.533945 19.000000
10.666968 3.194157 -1.533217 1.000000
16.609821 -2.163135 -2.169511 6.000000
7.011480 -4.278146 -0.825619 1.000000
5.840074 -8.346689 -0.516048 21.000000
10.620575 3.137895 -1.532764 39.000000
16.582109 -2.224309 -2.164022 6.000000
6.991760 -4.301360 -0.822253 1.000000
6.423608 -9.249249 -0.560609 18.000000
10.593454 3.087710 -1.531132 81.000000
16.647905 -2.295282 -2.170709 6.000000
6.985132 -4.332654 -0.814643 1.000000
6.231307 -9.042920 -0.535187 27.000000
4.243244 3.556720 -0.693562 39.000000
10.618997 3.050966 -1.537051 41.000000
16.614044 -2.355654 -2.170436 1.000000
6.104206 -8.924988 -0.513702 36.000000
4.244344 3.531237 -0.696516 57.000000
10.634356 3.013229 -1.541598 35.000000
15.378896 -2.238056 -2.007378 3.000000
6.126612 -9.025197 -0.506787 32.000000
4.252963 3.512110 -0.700704 135.000000
10.673163 2.982009 -1.551545 49.000000
15.184562 -2.266639 -1.980359 3.000000
6.057561 -8.994241 -0.490523 51.000000
4.238293 3.473947 -0.702988 120.000000
10.702583 2.945973 -1.562068 40.000000
15.126729 -2.317417 -1.973962 6.000000
5.801520 -8.679309 -0.463111 29.000000
4.246673 3.454871 -0.707130 134.000000
10.693668 2.901397 -1.563149 32.000000
14.883987 -2.336093 -1.935371 5.000000
5.721746 -8.624978 -0.448284 29.000000
4.251110 3.432664 -0.710617 129.000000
10.814210 2.889569 -1.583121 1.000000
14.688932 -2.360675 -1.913759 6.000000
5.704125 -8.667209 -0.436690 14.000000
4.247703 3.404269 -0.712789 163.000000
10.890677 2.867276 -1.600786 13.000000
14.317981 -2.357491 -1.864021 1.000000
5.679546 -8.695809 -0.426234 25.000000
4.247927 3.378954 -0.716526 172.000000
10.886196 2.823472 -1.602601 9.000000
14.152433 -2.383543 -1.846140 2.000000
5.622223 -8.674027 -0.413359 28.000000
4.244230 3.350688 -0.718627 158.000000
10.987264 2.804703 -1.621941 1.000000
13.777264 -2.374794 -1.793416 4.000000
5.728431 -8.909261 -0.412457 30.000000
4.251987 3.331587 -0.723626 163.000000
11.183562 2.811192 -1.657602 4.000000
13.499537 -2.377903 -1.760818 2.000000
4.251934 3.306466 -0.726335 148.000000
13.164006 -2.368579 -1.715801 5.000000
6.105583 -4.161824 -0.676363 1.000000
12.872677 -20.331121 -0.886580 39.000000
4.255475 3.284261 -0.731566 139.000000
11.346891 2.761878 -1.691175 1.000000
12.842650 -2.361702 -1.675085 4.000000
6.054997 -4.156818 -0.669697 1.000000
12.777219 -20.344961 -0.864143 81.000000
4.251142 3.256126 -0.734477 148.000000
11.221628 2.687861 -1.675138 1.000000
12.717210 -2.386854 -1.657558 4.000000
5.948671 -4.119055 -0.653394 1.000000
6.126055 -9.830441 -0.402464 9.000000
4.369001 3.321062 -0.757612 8.000000
11.274067 2.654691 -1.689689 1.000000
12.484033 -2.390490 -1.630551 5.000000
6.115537 -9.890312 -0.393879 7.000000
11.360553 2.631145 -1.703273 1.000000
12.124863 -2.370014 -1.580433 1.000000
5.846984 -4.109329 -0.637817 1.000000
12.459435 -20.316029 -0.778107 76.000000
11.422016 2.601308 -1.719401 1.000000
11.965044 -2.384337 -1.562895 1.000000
5.945954 -4.211528 -0.646447 3.000000
5.499491 -9.037965 -0.336176 2.000000
11.455471 2.562701 -1.727129 1.000000
11.931500 -2.425323 -1.559718 1.000000
5.934988 -4.236512 -0.640525 8.000000
12.209632 -20.224174 -0.721778 32.000000
11.546028 2.538559 -1.745692 1.000000
11.869701 -2.453776 -1.554845 1.000000
9.736645 -6.960476 -1.053443 36.000000
5.061697 -8.450785 -0.290642 7.000000
11.955762 2.580559 -1.814856 1.000000
11.807246 -2.486025 -1.547847 1.000000
9.707473 -6.993526 -1.046740 34.000000
12.121437 -20.406713 -0.679570 28.000000
11.983560 2.540627 -1.824206 1.000000
11.743919 -2.524111 -1.536656 1.000000
9.683792 -7.035687 -1.040909 8.000000
11.989587 -20.346157 -0.651405 31.000000
13.561275 2.820750 -2.067653 5.000000
11.735746 -2.563098 -1.534559 1.000000
9.682330 -7.081206 -1.034701 1.000000
11.873425 -20.310793 -0.624287 32.000000
13.521304 2.760772 -2.072315 5.000000
11.681725 -2.598333 -1.533035 1.000000
17.392570 -12.818223 -1.852266 7.000000
4.863053 -8.389207 -0.248839 6.000000
13.403163 2.685515 -2.067326 5.000000
11.666763 -2.639919 -1.536575 1.000000
17.353729 -12.888018 -1.849347 8.000000
13.240035 2.652830 -2.063866 5.000000
11.634654 -2.634788 -1.553575 1.000000
17.404840 -12.930689 -1.893160 7.000000
13.171759 2.689402 -2.057147 5.000000
11.643623 -2.589859 -1.561903 1.000000
17.371838 -12.812304 -1.911270 7.000000
4.888952 -8.437278 -0.265568 4.000000
13.093594 2.725856 -2.046559 5.000000
11.734300 -2.564928 -1.581325 1.000000
9.648905 -7.061931 -1.071350 21.000000
4.913140 -8.411201 -0.278897 2.000000
11.981134 2.540113 -1.874122 1.000000
11.742810 -2.521728 -1.587614 1.000000
9.621432 -6.987814 -1.078002 19.000000
12.028313 -20.420023 -0.711659 36.000000
11.855348 2.561051 -1.855970 1.000000
11.775135 -2.483557 -1.599292 1.000000
5.871350 -4.226768 -0.664759 6.000000
12.121962 -20.415710 -0.746163 30.000000
11.556251 2.540807 -1.810592 1.000000
11.913940 -2.469427 -1.623447 1.000000
5.096720 -8.515997 -0.325767 5.000000
11.416493 2.556073 -1.788130 1.000000
11.893504 -2.415438 -1.627953 1.000000
5.958923 -4.203558 -0.690616 1.000000
12.227007 -20.268942 -0.805938 70.000000
11.440782 2.605582 -1.793418 1.000000
12.047797 -2.400828 -1.650039 1.000000
5.850847 -4.096807 -0.681460 1.000000
5.622895 -9.248038 -0.381740 7.000000
11.450562 2.654098 -1.792337 1.000000
12.124449 -2.367736 -1.663670 1.000000
5.573962 -9.095880 -0.389310 7.000000
4.242595 3.269598 -0.760406 44.000000
11.445569 2.697182 -1.793091 1.000000
12.524944 -2.402857 -1.728854 5.000000
5.636893 -9.126907 -0.406476 19.000000
4.238926 3.291605 -0.757128 202.000000
11.474192 2.750474 -1.795002 1.000000
12.664540 -2.381545 -1.751487 6.000000
6.106677 -9.810787 -0.454040 31.000000
4.242951 3.319730 -0.755221 124.000000
11.632129 2.833457 -1.821321 5.000000
12.843825 -2.364235 -1.777335 1.000000
4.234954 3.338569 -0.753092 114.000000
11.674562 2.891325 -1.825395 1.000000
13.442048 -2.423450 -1.861304 1.000000
4.230958 3.360636 -0.749760 153.000000
11.606972 2.919777 -1.812214 1.000000
13.942269 -2.460907 -1.939376 4.000000
5.863554 -9.200393 -0.466803 62.000000
4.238458 3.392003 -0.748459 105.000000
11.499883 2.939835 -1.797243 1.000000
14.253933 -2.459520 -1.983972 6.000000
5.663136 -8.817855 -0.463055 7.000000
4.237971 3.417170 -0.746707 100.000000
11.130148 2.888817 -1.741103 1.000000
5.614869 -8.675945 -0.469280 37.000000
4.241303 3.445585 -0.744657 100.000000
11.009608 2.902698 -1.719912 3.000000
15.173949 -2.503869 -2.123091 6.000000
5.657229 -8.671554 -0.482837 31.000000
4.232982 3.464656 -0.740559 134.000000
11.013803 2.947020 -1.718173 1.000000
15.075509 -2.428201 -2.110713 6.000000
5.689879 -8.655428 -0.495725 17.000000
4.231413 3.490589 -0.739699 110.000000
11.070309 3.005661 -1.724600 2.000000
15.127245 -2.379684 -2.124893 6.000000
5.727993 -8.647492 -0.509115 31.000000
4.230618 3.516071 -0.735943 120.000000
11.011598 3.035167 -1.713180 5.000000
15.057983 -2.306885 -2.116556 6.000000
5.738615 -8.591690 -0.519777 29.000000
4.237814 3.547134 -0.734436 140.000000
11.048019 3.088820 -1.720596 7.000000
14.997009 -2.243994 -2.109569 6.000000
6.199193 -3.917453 -0.783697 1.000000
5.855959 -8.704739 -0.538803 27.000000
4.232034 3.570020 -0.732854 90.000000
11.455287 3.250159 -1.781704 1.000000
14.989339 -2.186708 -2.115434 6.000000
6.191751 -3.881067 -0.788694 1.000000
5.728998 -8.452159 -0.538699 255.000000
4.287498 3.643789 -0.738772 8.000000
11.501222 3.308787 -1.784316 6.000000
14.904107 -2.115861 -2.104922 6.000000
6.107047 -3.799823 -0.781375 1.000000
5.682068 -8.320238 -0.543897 149.000000
11.474192 3.348768 -1.782104 7.000000
14.866889 -2.055018 -2.103930 6.000000
6.158417 -3.800547 -0.792551 1.000000
5.738994 -8.340929 -0.558962 255.000000
11.534172 3.412199 -1.784767 1.000000
14.824884 -1.993865 -2.099599 6.000000
5.857378 -8.446523 -0.578270 26.000000
11.606256 3.482044 -1.797977 1.000000
14.772427 -1.929091 -2.099060 6.000000
5.866405 -8.396796 -0.588819 10.000000
11.556456 3.513323 -1.785782 1.000000
14.813415 -1.879250 -2.106549 6.000000
5.901007 -8.383836 -0.601919 22.000000
11.531152 3.547446 -1.779377 1.000000
14.840177 -1.824774 -2.109343 6.000000
6.368195 -3.794699 -0.835440 1.000000
5.934215 -8.365704 -0.612953 8.000000
11.549541 3.606128 -1.782372 8.000000
14.659591 -1.748050 -2.085378 10.000000
11.542829 3.646086 -1.778875 6.000000
14.477937 -1.672594 -2.066435 10.000000
6.560125 -9.112589 -0.698555 185.000000
11.537467 3.697613 -1.776100 1.000000
5.506970 -3.197418 -0.733413 7.000000
6.015723 -8.292099 -0.649909 21.000000
11.524719 3.740161 -1.769756 1.000000
5.487084 -3.161588 -0.732724 9.000000
6.047170 -8.274525 -0.660958 142.000000
11.478033 3.771565 -1.764698 4.000000
5.757546 -0.575694 -0.826597 5.000000
5.494750 -3.136692 -0.738776 10.000000
4.340189 4.006413 -0.716876 1.000000
11.483119 3.822151 -1.761252 1.000000
5.754690 -0.554114 -0.825890 1.000000
5.504671 -3.118199 -0.743193 33.000000
6.405455 -8.634394 -0.719731 8.000000
4.325840 4.022634 -0.712752 1.000000
8.009037 2.698452 -1.226902 1.000000
5.731989 -0.529723 -0.823360 1.000000
5.524267 -3.102610 -0.748783 35.000000
6.497810 -8.695290 -0.738112 32.000000
4.320179 4.044166 -0.708786 6.000000
7.991283 2.722011 -1.221045 4.000000
5.748361 -0.512016 -0.826491 7.000000
5.543819 -3.086918 -0.754386 21.000000
6.512655 -8.652006 -0.747756 30.000000
4.284191 4.040041 -0.699052 22.000000
7.999888 2.759269 -1.220954 1.000000
5.750285 -0.489940 -0.826491 6.000000
5.563210 -3.071057 -0.761113 27.000000
6.390042 -8.424674 -0.743110 66.000000
4.290061 4.078237 -0.696391 34.000000
8.003366 2.796468 -1.218657 3.000000
5.742194 -0.466041 -0.826079 5.000000
5.579381 -3.050826 -0.766147 24.000000
6.415827 -8.397628 -0.755671 29.000000
7.956822 2.811409 -1.208548 1.000000
5.694298 -0.442152 -0.819979 6.000000
5.606448 -3.041520 -0.772992 25.000000
6.441493 -8.370491 -0.768219 40.000000
5.676284 -0.417836 -0.817136 3.000000
5.635624 -3.028130 -0.779865 23.000000
12.140348 11.695168 -1.953426 2.000000
5.672629 -0.397664 -0.817418 4.000000
5.662792 -3.018571 -0.785645 24.000000
12.157715 11.793996 -1.947854 6.000000
5.678701 -0.377179 -0.820116 6.000000
5.691407 -3.005818 -0.792569 24.000000
5.935113 -7.542183 -0.728371 90.000000
12.236418 11.957709 -1.952345 6.000000
5.640390 -0.353875 -0.815398 3.000000
5.727624 -2.999423 -0.801878 16.000000
12.271610 12.080346 -1.949790 6.000000
5.671062 -0.333943 -0.821665 4.000000
5.768655 -2.994020 -0.812993 10.000000
12.252675 12.158941 -1.936215 5.000000
5.642853 -0.309557 -0.816384 5.000000
5.798545 -2.978768 -0.817751 9.000000
12.455820 12.442783 -1.962381 5.000000
5.628789 -0.289082 -0.816207 4.000000
5.843112 -2.977214 -0.828453 8.000000
6.462332 -7.977468 -0.829633 25.000000
12.586728 12.666062 -1.971377 4.000000
5.610039 -0.267507 -0.813340 9.000000
5.881070 -2.966878 -0.836811 7.000000
12.579034 12.747005 -1.954985 3.000000
12.644995 4.947883 -1.893845 6.000000
5.546617 -0.243140 -0.804994 10.000000
5.908226 -2.956040 -0.842791 7.000000
6.247434 -7.597636 -0.813883 17.000000
12.714307 12.978890 -1.967346 1.000000
12.551410 4.971989 -1.875726 7.000000
5.522750 -0.221817 -0.801406 44.000000
5.946180 -2.945245 -0.851220 6.000000
12.657683 13.016181 -1.946720 1.000000
12.535763 5.013947 -1.868657 1.000000
5.508726 -0.200070 -0.799254 36.000000
5.982220 -2.938431 -0.858527 6.000000
12.806521 13.261540 -1.963701 1.000000
12.488891 5.053447 -1.857489 1.000000
5.519174 -0.180197 -0.801653 33.000000
5.993427 -2.914131 -0.863180 7.000000
6.329400 -7.532399 -0.846926 26.000000
12.838387 13.392425 -1.956454 1.000000
5.509905 -0.159680 -0.800216 37.000000
6.070154 -2.925283 -0.876342 7.000000
6.362825 -7.516073 -0.858097 30.000000
12.957276 13.625516 -1.962984 1.000000
5.495686 -0.136231 -0.798061 26.000000
6.094857 -2.907098 -0.881813 8.000000
6.365091 -7.460470 -0.866607 32.000000
12.929709 13.682347 -1.942063 1.000000
5.491160 -0.117900 -0.797343 33.000000
6.117491 -2.893031 -0.887298 9.000000
6.463935 -7.525639 -0.885387 22.000000
13.094788 13.959173 -1.961027 6.000000
5.481400 -0.096635 -0.797820 36.000000
6.168616 -2.886966 -0.900281 9.000000
6.527920 -7.541355 -0.902463 30.000000
13.129680 14.099580 -1.953593 6.000000
5.471822 -0.076406 -0.796380 27.000000
6.195712 -2.874639 -0.906478 10.000000
6.490115 -7.447627 -0.904248 30.000000
13.189851 14.263705 -1.949391 6.000000
5.462458 -0.055298 -0.793033 31.000000
6.251099 -2.872541 -0.914257 10.000000
6.587799 -7.506657 -0.922991 31.000000
13.216472 14.398002 -1.936996 6.000000
9.728503 4.234112 -1.423212 1.000000
5.472519 -0.035340 -0.794469 26.000000
6.288567 -2.860565 -0.923033 12.000000
6.746521 -7.630920 -0.952062 28.000000
13.302385 14.598642 -1.936533 6.000000
9.704527 4.266051 -1.416332 1.000000
5.462580 -0.014301 -0.793986 19.000000
6.321160 -2.847475 -0.929974 26.000000
6.846614 -7.687172 -0.973080 30.000000
13.416313 14.827305 -1.939502 6.000000
9.333084 4.139752 -1.358677 1.000000
5.462736 0.003814 -0.793033 26.000000
6.352746 -2.836400 -0.936940 21.000000
7.003045 -7.813247 -1.001058 8.000000
13.476080 15.003525 -1.938315 7.000000
