VERSION .7
FIELDS x y z intensity
SIZE 4 4 4 4
TYPE F F F F
COUNT 1 1 1 1
WIDTH 1239
HEIGHT 1
VIEWPOINT 0 0 0 1 0 0 0
POINTS 1239
DATA ascii
11.406479 2.641782 -2.011872 1.000000
12.173759 -2.397224 -1.918572 1.000000
5.952585 -9.748075 -0.548630 9.000000
4.417467 3.317933 -0.883930 110.000000
11.429234 2.600854 -2.024642 1.000000
12.207074 -2.452511 -1.931968 1.000000
4.406041 3.299739 -0.882692 120.000000
11.385113 2.546961 -2.019353 1.000000
12.193823 -2.496379 -1.926857 1.000000
4.421448 3.286052 -0.888291 105.000000
11.321943 2.487219 -2.010608 1.000000
12.165572 -2.537089 -1.921628 1.000000
4.424767 3.263412 -0.892457 3.000000
11.387389 2.457880 -2.028995 1.000000
12.194407 -2.592001 -1.927740 1.000000
5.065188 -8.564766 -0.436186 12.000000
4.443906 3.252447 -0.899827 1.000000
11.227055 2.378193 -2.004977 1.000000
12.682743 -2.742106 -2.006439 6.000000
4.671478 -7.962341 -0.394987 18.000000
11.171641 2.323705 -2.001757 1.000000
13.092099 -2.880880 -2.075253 6.000000
4.514381 -7.759598 -0.373119 11.000000
11.160153 2.276645 -2.004265 1.000000
13.124336 -2.940853 -2.082137 6.000000
4.847022 -8.398673 -0.394556 8.000000
11.084288 2.218883 -2.001373 3.000000
13.050134 -2.974500 -2.076865 6.000000
10.931578 2.188313 -1.991866 1.000000
12.882322 -2.938617 -2.073864 6.000000
10.913837 2.226397 -1.990107 1.000000
12.839082 -2.876934 -2.074522 6.000000
4.827731 -8.368621 -0.409996 9.000000
10.884803 2.268006 -1.988530 1.000000
12.665203 -2.789261 -2.051721 7.000000
4.603242 -7.909162 -0.401151 37.000000
10.900893 2.311091 -1.992931 1.000000
12.764672 -2.766817 -2.075685 6.000000
4.610133 -7.864069 -0.410755 18.000000
4.486996 3.323839 -0.924425 1.000000
10.911594 2.355184 -1.996452 1.000000
12.416407 -2.641454 -2.026475 6.000000
4.471217 3.337601 -0.920687 7.000000
10.873628 2.390722 -1.991171 1.000000
12.280876 -2.561135 -2.009398 1.000000
5.324683 -3.824764 -0.760874 1.000000
12.111212 -20.316746 -1.136122 8.000000
4.451708 3.348516 -0.914198 11.000000
10.879455 2.435834 -1.989920 1.000000
12.226181 -2.505227 -2.003474 1.000000
5.350364 -3.813561 -0.767190 1.000000
4.444887 3.383646 -0.910778 27.000000
10.875254 2.476786 -1.990798 2.000000
12.268643 -2.462653 -2.017759 1.000000
5.310892 -3.738100 -0.769828 6.000000
12.336425 -20.369860 -1.210545 32.000000
4.448624 3.412316 -0.910082 34.000000
10.884844 2.522971 -1.994313 1.000000
12.281391 -2.418418 -2.025109 1.000000
5.291331 -3.695404 -0.771879 7.000000
5.939282 -9.730106 -0.593436 14.000000
4.436714 3.429082 -0.905189 32.000000
10.942939 2.578736 -2.004650 1.000000
12.250644 -2.367973 -2.020898 1.000000
5.296124 -3.669946 -0.776314 8.000000
6.013888 -9.783086 -0.611885 2.000000
4.428632 3.448838 -0.901088 31.000000
10.924061 2.618603 -1.998974 1.000000
12.355529 -2.341302 -2.041276 1.000000
5.280236 -3.630363 -0.778839 9.000000
4.427502 3.475350 -0.899536 34.000000
10.961752 2.672187 -2.007733 1.000000
12.436157 -2.307151 -2.059916 7.000000
5.272556 -3.596694 -0.780278 9.000000
5.685049 -9.097980 -0.601674 13.000000
4.423095 3.498167 -0.896194 38.000000
10.900000 2.699496 -1.994178 1.000000
12.400126 -2.253485 -2.057082 1.000000
5.272186 -3.569538 -0.784014 10.000000
5.652535 -8.976074 -0.607915 50.000000
4.418334 3.520802 -0.894805 36.000000
10.918198 2.748540 -1.999424 1.000000
12.344470 -2.194439 -2.053177 1.000000
5.255716 -3.530364 -0.786367 10.000000
5.533599 -8.719557 -0.606315 36.000000
4.406128 3.537557 -0.888888 39.000000
10.865798 2.777737 -1.987641 1.000000
12.355875 -2.149779 -2.062741 2.000000
5.250197 -3.501446 -0.790511 10.000000
5.494931 -8.595489 -0.609672 35.000000
4.408856 3.566401 -0.889027 40.000000
10.984729 2.853120 -2.005257 1.000000
12.290727 -2.089855 -2.052744 1.000000
5.247080 -3.469017 -0.793515 9.000000
5.516670 -8.556916 -0.620918 32.000000
4.400304 3.586244 -0.883858 40.000000
10.926084 2.882716 -1.996557 1.000000
12.283351 -2.042307 -2.052481 5.000000
5.246852 -3.441297 -0.796018 10.000000
5.575654 -8.589036 -0.638869 19.000000
10.982709 2.940753 -2.004768 1.000000
12.251439 -1.988689 -2.050308 1.000000
5.233786 -3.405357 -0.798782 10.000000
5.766396 -8.815334 -0.668269 31.000000
10.967259 2.981794 -1.999933 1.000000
12.277070 -1.946694 -2.060076 7.000000
5.233144 -3.377705 -0.802314 10.000000
5.774957 -8.754856 -0.680065 30.000000
10.955873 3.025981 -1.995965 1.000000
12.215855 -1.888931 -2.050789 1.000000
5.236665 -3.352851 -0.805378 10.000000
5.838089 -8.783705 -0.698674 15.000000
10.940837 3.062972 -1.993118 1.000000
12.256482 -1.849243 -2.058681 1.000000
5.230883 -3.323462 -0.809299 18.000000
5.944480 -8.879759 -0.719119 24.000000
10.968108 3.114002 -1.996049 1.000000
12.077702 -1.774865 -2.029682 22.000000
5.226468 -3.292556 -0.809944 10.000000
5.539794 -8.213082 -0.678850 23.000000
11.004068 3.169920 -2.000674 1.000000
11.989964 -1.717101 -2.022557 46.000000
5.216191 -3.260704 -0.813136 11.000000
5.610022 -8.248701 -0.697565 88.000000
11.011958 3.215950 -2.000112 1.000000
12.044964 -1.677805 -2.032914 49.000000
5.231836 -3.243876 -0.818089 20.000000
5.632656 -8.220130 -0.709042 25.000000
11.004586 3.259707 -1.998968 1.000000
12.006700 -1.627637 -2.027610 40.000000
5.220729 -3.213070 -0.821216 16.000000
5.686275 -8.242724 -0.724825 105.000000
11.030400 3.313476 -2.001811 1.000000
12.046027 -1.585889 -2.039748 38.000000
5.241555 -3.196948 -0.826830 14.000000
5.658926 -8.133037 -0.731080 6.000000
11.028275 3.356955 -1.999500 1.000000
12.173680 -1.557325 -2.062586 1.000000
5.231421 -3.164519 -0.828829 16.000000
5.706891 -8.147259 -0.744441 27.000000
11.011596 3.398131 -1.992611 4.000000
12.164533 -1.508705 -2.062239 1.000000
5.249653 -3.141853 -0.836976 23.000000
5.987814 -8.478840 -0.789587 4.000000
11.023243 3.446025 -1.992839 1.000000
12.194816 -1.467097 -2.064243 10.000000
5.252362 -3.117385 -0.837753 22.000000
6.042820 -8.493652 -0.805736 32.000000
11.047839 3.500337 -1.997618 1.000000
12.155208 -1.415006 -2.063193 1.000000
5.267262 -3.100178 -0.844833 16.000000
6.090843 -8.495064 -0.818995 36.000000
11.063751 3.550052 -1.998659 1.000000
12.145257 -1.368748 -2.062832 6.000000
5.286633 -3.085546 -0.850476 17.000000
6.163583 -8.539733 -0.838111 26.000000
11.079153 3.601973 -1.997645 1.000000
12.096509 -1.316238 -2.053679 1.000000
5.305964 -3.070813 -0.856132 18.000000
5.315598 -3.052902 -0.860412 22.000000
5.958231 -8.131954 -0.827049 103.000000
8.065658 2.689342 -1.450253 1.000000
6.834662 -0.664123 -1.165140 5.000000
5.344235 -3.040885 -0.869631 20.000000
5.882235 -7.963909 -0.824427 72.000000
8.032635 2.711086 -1.444570 1.000000
6.733890 -0.628240 -1.148755 7.000000
5.354815 -3.020978 -0.873924 19.000000
5.882539 -7.906422 -0.834454 38.000000
10.122602 9.432876 -1.927345 4.000000
8.004223 2.735777 -1.436782 1.000000
6.696262 -0.602338 -1.144404 12.000000
5.378277 -3.008282 -0.880337 16.000000
6.060534 -8.089501 -0.866555 27.000000
10.185229 9.557879 -1.928217 5.000000
7.873485 2.723361 -1.412104 1.000000
6.654524 -0.572834 -1.135687 26.000000
5.393579 -2.989710 -0.885350 17.000000
6.433251 -8.524823 -0.926854 10.000000
10.191182 9.640692 -1.924181 4.000000
7.636133 2.672640 -1.366925 1.000000
6.626798 -0.542493 -1.134140 16.000000
5.421169 -2.979081 -0.893590 13.000000
10.293113 9.801999 -1.936917 5.000000
7.524245 2.665953 -1.344421 1.000000
6.608906 -0.518972 -1.130777 15.000000
5.417436 -2.953682 -0.895753 10.000000
5.941632 -7.757293 -0.870348 129.000000
10.250940 9.833734 -1.925650 5.000000
7.635323 2.736849 -1.364595 1.000000
6.605343 -0.493180 -1.133405 32.000000
5.453511 -2.947473 -0.906556 10.000000
5.925341 -7.680338 -0.877682 140.000000
10.305444 9.965765 -1.928102 5.000000
6.577577 -0.464564 -1.129496 28.000000
5.464740 -2.925258 -0.910883 10.000000
6.009143 -7.727428 -0.897752 222.000000
10.316396 10.042772 -1.921024 5.000000
6.554573 -0.439951 -1.125275 26.000000
5.478357 -2.909216 -0.914858 10.000000
6.135437 -7.836073 -0.923244 73.000000
10.392419 10.194790 -1.926941 5.000000
6.551172 -0.413313 -1.125576 21.000000
5.506935 -2.896112 -0.922120 10.000000
6.016749 -7.623996 -0.912941 25.000000
10.447931 10.317456 -1.930530 5.000000
6.537817 -0.389563 -1.123041 32.000000
5.520321 -2.879823 -0.927200 13.000000
6.022719 -7.579739 -0.921962 21.000000
10.499349 10.444517 -1.931317 5.000000
6.534344 -0.364183 -1.122196 30.000000
5.543941 -2.865118 -0.933767 18.000000
6.029876 -7.534597 -0.929225 19.000000
10.490439 10.512434 -1.920938 5.000000
10.130811 3.890882 -1.796586 1.000000
6.510832 -0.338939 -1.119109 14.000000
5.576677 -2.853730 -0.942933 25.000000
6.111158 -7.576347 -0.949264 9.000000
10.606344 10.706781 -1.938638 4.000000
10.057571 3.905114 -1.780320 1.000000
6.516617 -0.314156 -1.122232 23.000000
5.603155 -2.843873 -0.950297 31.000000
10.605056 10.788016 -1.927175 5.000000
9.979077 3.918797 -1.763311 1.000000
6.502862 -0.287333 -1.120826 24.000000
5.631599 -2.829937 -0.957688 27.000000
10.632439 10.895466 -1.925895 6.000000
9.878368 3.921098 -1.742328 1.000000
6.494070 -0.261964 -1.119129 18.000000
5.668033 -2.822272 -0.965510 28.000000
10.746368 11.085520 -1.934018 4.000000
6.485445 -0.240077 -1.115167 15.000000
5.703343 -2.816291 -0.974474 28.000000
6.423304 -7.739655 -1.025190 18.000000
10.784478 11.202817 -1.934121 3.000000
6.471155 -0.214670 -1.114886 22.000000
5.735854 -2.805002 -0.981603 33.000000
6.240370 -7.463399 -1.001915 22.000000
10.803021 11.304717 -1.928239 5.000000
6.456961 -0.189382 -1.113468 20.000000
5.763929 -2.790116 -0.991348 27.000000
6.399460 -7.594222 -1.036784 12.000000
10.872202 11.460917 -1.931279 6.000000
6.452686 -0.165589 -1.112619 25.000000
5.804990 -2.783777 -0.998950 22.000000
6.436200 -7.581255 -1.048756 9.000000
10.887967 11.558071 -1.924360 6.000000
6.458200 -0.140918 -1.113468 30.000000
5.862796 -2.787623 -1.010782 22.000000
5.923150 -6.932666 -0.971259 20.000000
10.941843 11.700892 -1.924429 6.000000
6.443894 -0.116979 -1.110920 22.000000
5.899794 -2.777490 -1.018812 20.000000
5.886233 -6.838548 -0.970646 145.000000
10.977938 11.826080 -1.921248 5.000000
6.434442 -0.092094 -1.109222 26.000000
5.940463 -2.770083 -1.029935 29.000000
5.850683 -6.749451 -0.971933 9.000000
11.075935 12.015493 -1.928374 6.000000
6.429797 -0.069580 -1.108372 20.000000
5.990275 -2.766627 -1.041527 26.000000
11.066703 12.094127 -1.917067 5.000000
6.430024 -0.043768 -1.108372 24.000000
6.031648 -2.758958 -1.048142 26.000000
11.130509 12.253735 -1.918317 4.000000
6.439799 -0.021355 -1.111195 29.000000
6.068183 -2.747543 -1.059801 21.000000
5.749974 -6.490028 -0.971053 10.000000
11.252033 12.474739 -1.928928 6.000000
6.435101 0.002246 -1.109222 31.000000
6.122759 -2.745257 -1.071171 22.000000
5.773043 -6.468148 -0.980133 10.000000
11.240714 12.554405 -1.916985 2.000000
6.410408 0.026852 -1.104975 29.000000
6.171920 -2.742755 -1.081801 22.000000
5.801538 -6.454579 -0.990345 10.000000
11.431489 12.852987 -1.938534 2.000000
6.419734 0.050422 -1.108915 33.000000
6.228032 -2.736508 -1.093271 21.000000
5.847559 -6.458014 -1.006478 10.000000
11.440521 12.953918 -1.929396 3.000000
6.419906 0.072835 -1.106674 21.000000
6.290856 -2.739260 -1.106384 20.000000
5.875160 -6.445407 -1.013715 10.000000
11.453260 13.064540 -1.921188 2.000000
6.414282 0.096285 -1.108064 24.000000
6.318273 -2.723693 -1.114372 23.000000
5.910213 -6.438577 -1.026703 11.000000
11.542703 13.259652 -1.925311 1.000000
6.419136 0.123254 -1.106674 29.000000
6.378082 -2.720482 -1.126796 22.000000
5.965505 -6.446672 -1.042684 10.000000
11.557088 13.374851 -1.917143 3.000000
6.413689 0.147787 -1.105824 32.000000
6.483892 -2.734903 -1.147323 21.000000
5.997628 -6.436172 -1.050595 10.000000
11.615225 13.537364 -1.915717 4.000000
6.408238 0.168925 -1.104975 32.000000
6.483264 -2.709350 -1.149393 10.000000
6.028371 -6.426303 -1.061601 10.000000
11.792705 13.846584 -1.930873 3.000000
6.417518 0.196073 -1.105553 29.000000
6.553097 -2.706345 -1.164836 14.000000
6.090607 -6.440636 -1.080558 14.000000
11.803395 13.957546 -1.921233 2.000000
6.411907 0.217186 -1.104705 37.000000
6.630152 -2.712466 -1.179495 19.000000
6.120421 -6.431570 -1.090121 10.000000
11.814197 14.074622 -1.911921 1.000000
6.420403 0.244403 -1.108645 30.000000
6.663087 -2.694768 -1.188575 21.000000
6.176179 -6.438210 -1.106506 11.000000
11.989176 14.384749 -1.928533 1.000000
6.404934 0.266207 -1.104975 32.000000
6.713282 -2.687840 -1.198441 14.000000
6.227840 -6.449117 -1.119869 9.000000
12.071037 14.591377 -1.926912 4.000000
6.413761 0.290125 -1.106674 32.000000
6.781723 -2.686443 -1.215435 16.000000
6.266786 -6.444277 -1.132381 9.000000
12.005728 14.616012 -1.901274 2.000000
6.412984 0.314769 -1.104433 30.000000
6.851020 -2.684885 -1.227403 17.000000
6.293279 -6.424242 -1.139285 10.000000
12.038006 14.765314 -1.898152 6.000000
6.411595 0.338262 -1.105553 30.000000
6.925055 -2.683271 -1.242808 26.000000
6.343528 -6.428235 -1.156923 11.000000
12.275875 15.164855 -1.919923 9.000000
6.415169 0.363156 -1.106402 28.000000
6.998285 -2.682187 -1.260903 25.000000
6.387309 -6.425324 -1.168642 10.000000
12.221463 15.211305 -1.899491 10.000000
6.419291 0.386998 -1.103883 30.000000
7.049823 -2.670939 -1.269684 21.000000
6.428462 -6.417252 -1.182938 10.000000
12.141795 15.220659 -1.871345 11.000000
6.427594 0.412274 -1.105575 30.000000
7.118959 -2.667336 -1.284460 8.000000
6.477133 -6.423096 -1.196065 10.000000
12.237547 15.445477 -1.876632 8.000000
6.431073 0.437299 -1.105296 26.000000
7.224664 -2.678220 -1.305987 9.000000
6.513865 -6.412341 -1.208238 10.000000
12.308766 15.658515 -1.872208 6.000000
6.429041 0.460839 -1.107546 29.000000
7.273361 -2.671753 -1.318917 10.000000
6.574104 -6.419881 -1.224413 10.000000
12.491558 16.011494 -1.883898 6.000000
6.427801 0.485565 -1.104171 23.000000
7.335439 -2.674232 -1.328985 9.000000
6.625478 -6.429510 -1.238414 10.000000
12.555260 16.197815 -1.879526 6.000000
6.431084 0.509526 -1.103889 30.000000
7.396886 -2.677635 -1.340427 10.000000
6.669472 -6.424906 -1.252101 9.000000
12.618821 16.409559 -1.872960 6.000000
6.433991 0.534623 -1.104732 24.000000
7.451927 -2.668176 -1.352970 14.000000
6.697839 -6.400594 -1.262473 9.000000
12.744060 16.686638 -1.873892 6.000000
6.446910 0.559497 -1.106133 21.000000
7.544610 -2.670205 -1.372324 13.000000
6.750560 -6.408281 -1.276672 9.000000
12.801580 16.896057 -1.865774 6.000000
4.796846 2.691864 -0.775987 5.000000
6.449815 0.584709 -1.105845 26.000000
7.619478 -2.663825 -1.386972 18.000000
6.789839 -6.393948 -1.287530 9.000000
12.887414 17.127041 -1.863933 6.000000
4.749341 2.685954 -0.767796 7.000000
6.452430 0.609934 -1.106686 20.000000
7.814790 -2.700005 -1.425172 10.000000
6.834051 -6.395192 -1.303752 10.000000
12.957104 17.345350 -1.856110 6.000000
4.778873 2.725821 -0.768306 5.000000
6.475254 0.636045 -1.107488 26.000000
7.782896 -2.655578 -1.418963 15.000000
6.896684 -6.406551 -1.317912 10.000000
13.093459 17.668983 -1.858285 7.000000
4.716853 2.715598 -0.756208 8.000000
6.467669 0.660383 -1.107784 18.000000
8.001716 -2.697540 -1.463117 11.000000
6.937469 -6.397230 -1.329614 9.000000
12.997548 17.661692 -1.829849 9.000000
4.768255 2.766285 -0.761993 4.000000
6.485242 0.683915 -1.110005 20.000000
8.066438 -2.688039 -1.477813 13.000000
6.992529 -6.400740 -1.347475 9.000000
12.954636 17.745714 -1.802500 10.000000
4.740472 2.775661 -0.755419 1.000000
6.492698 0.712213 -1.108263 22.000000
8.044405 -2.644866 -1.471819 10.000000
7.042943 -6.395116 -1.360703 9.000000
12.893714 17.792347 -1.779491 17.000000
4.662579 2.753050 -0.739796 10.000000
6.495134 0.736582 -1.107959 23.000000
8.128234 -2.637887 -1.492977 25.000000
7.094682 -6.394809 -1.376369 9.000000
12.806610 17.796053 -1.752496 10.000000
4.598405 2.735764 -0.728195 68.000000
6.501858 0.762642 -1.110772 20.000000
8.188942 -2.624453 -1.505444 25.000000
7.137070 -6.390248 -1.389009 11.000000
12.699114 17.777235 -1.723244 10.000000
4.597280 2.757958 -0.725801 21.000000
6.523957 0.787175 -1.113808 22.000000
8.248945 -2.611966 -1.519459 18.000000
7.196332 -6.395944 -1.406266 11.000000
12.606644 17.778669 -1.688490 9.000000
4.600400 2.782810 -0.723122 9.000000
6.531249 0.813510 -1.112033 28.000000
8.334577 -2.602316 -1.533296 1.000000
7.229933 -6.378530 -1.416848 10.000000
12.527823 17.812071 -1.664142 9.000000
4.534631 2.767951 -0.710749 7.000000
6.542793 0.841633 -1.113380 28.000000
8.503220 -2.619181 -1.570464 25.000000
7.290654 -6.382485 -1.432575 9.000000
12.521229 17.928747 -1.644283 6.000000
6.544895 0.865138 -1.113060 26.000000
8.536318 -2.595159 -1.574810 6.000000
7.351883 -6.393148 -1.449121 9.000000
12.604585 18.182983 -1.636374 8.000000
4.537100 2.813121 -0.706611 6.000000
6.566145 0.893613 -1.116060 26.000000
8.805081 -2.639976 -1.625819 36.000000
7.389087 -6.378089 -1.462286 9.000000
12.810700 18.618793 -1.643800 8.000000
4.535687 2.835313 -0.703255 6.000000
6.567902 0.918383 -1.115733 21.000000
8.794453 -2.601697 -1.630340 27.000000
7.437724 -6.372649 -1.476020 10.000000
12.726625 18.642551 -1.614048 8.000000
4.504913 2.839091 -0.694421 22.000000
6.598684 0.948534 -1.120376 24.000000
8.865815 -2.585828 -1.641716 22.000000
7.482642 -6.363724 -1.489062 3.000000
12.662256 18.688021 -1.594349 8.000000
4.511421 2.866350 -0.695141 34.000000
6.600235 0.973461 -1.120040 27.000000
8.935622 -2.570689 -1.659584 10.000000
12.511889 18.605623 -1.552124 9.000000
4.501394 2.883192 -0.690476 26.000000
6.631819 0.997049 -1.124665 10.000000
5.156404 -4.294629 -1.035260 1.000000
12.420217 18.609255 -1.521338 9.000000
4.490166 2.892606 -0.685175 39.000000
6.677052 1.028890 -1.131755 14.000000
5.144615 -4.252972 -1.036914 1.000000
12.314876 18.591642 -1.489006 9.000000
4.492413 2.917407 -0.683344 40.000000
6.761122 1.068437 -1.144236 8.000000
11.106365 -3.063374 -2.066745 4.000000
5.128915 -4.208442 -1.036564 1.000000
12.214901 18.588339 -1.453954 8.000000
4.482187 2.934179 -0.678670 28.000000
6.850256 1.108272 -1.156266 7.000000
11.027118 -2.996001 -2.053959 1.000000
5.155092 -4.198401 -1.044682 1.000000
12.104565 18.561285 -1.421337 9.000000
4.525823 2.986498 -0.681161 13.000000
11.038363 -2.951526 -2.057948 1.000000
5.074570 -4.100514 -1.029834 4.000000
12.029658 18.587908 -1.396872 9.000000
4.498717 2.992337 -0.674896 8.000000
11.929503 1.985614 -2.012931 13.000000
11.000323 -2.900250 -2.053056 1.000000
5.061755 -4.059583 -1.031172 26.000000
11.922467 18.564022 -1.364881 9.000000
4.504498 3.020054 -0.674536 9.000000
11.976324 2.038546 -2.017720 9.000000
11.063571 -2.869476 -2.066814 1.000000
5.033262 -4.006506 -1.029277 21.000000
11.842511 18.581861 -1.332264 8.000000
4.489870 3.034159 -0.668244 12.000000
11.998606 2.089776 -2.016259 1.000000
11.021083 -2.817434 -2.057027 1.000000
5.035868 -3.978516 -1.030268 19.000000
11.759064 18.600998 -1.307409 10.000000
4.462791 3.039747 -0.661084 7.000000
12.029718 2.140653 -2.022792 1.000000
11.025169 -2.775469 -2.064075 2.000000
5.010580 -3.928796 -1.030122 27.000000
11.618096 18.520832 -1.268284 9.000000
12.032158 2.188783 -2.018022 1.000000
11.022372 -2.725720 -2.061396 1.000000
5.001008 -3.891777 -1.029755 20.000000
11.543634 18.545624 -1.240438 9.000000
12.019551 2.232032 -2.015074 1.000000
10.997664 -2.678908 -2.059095 2.000000
4.998903 -3.860805 -1.032060 26.000000
11.456005 18.548853 -1.211252 9.000000
12.089139 2.293009 -2.023790 1.000000
10.993057 -2.635141 -2.056410 1.000000
4.989094 -3.824118 -1.030513 21.000000
11.356680 18.517904 -1.180276 8.000000
12.116420 2.339835 -2.023010 1.000000
10.997607 -2.591619 -2.059460 1.000000
4.994506 -3.799287 -1.034372 25.000000
11.268283 18.533070 -1.144308 9.000000
12.200298 2.406874 -2.029697 1.000000
10.988309 -2.544932 -2.055873 1.000000
4.996667 -3.770731 -1.036303 22.000000
11.161584 18.488174 -1.116688 9.000000
12.211522 2.453404 -2.030745 1.000000
10.977678 -2.500113 -2.056217 1.000000
4.989990 -3.737066 -1.037661 21.000000
11.083610 18.519361 -1.085780 9.000000
12.261161 2.510165 -2.036031 1.000000
11.000896 -2.461008 -2.062847 1.000000
4.987092 -3.706443 -1.039800 18.000000
10.999169 18.524712 -1.057450 9.000000
12.270557 2.565688 -2.034867 1.000000
10.980669 -2.414257 -2.059409 3.000000
5.000058 -3.687708 -1.044137 24.000000
10.922504 18.542732 -1.026177 9.000000
12.325785 2.619926 -2.038684 1.000000
10.970628 -2.367926 -2.055806 7.000000
4.985102 -3.648543 -1.042650 31.000000
10.806123 18.485056 -0.994779 8.000000
12.306681 2.665296 -2.032692 1.000000
10.964503 -2.322578 -2.057016 2.000000
4.998336 -3.628839 -1.048041 21.000000
10.719583 18.484814 -0.966585 9.000000
12.374653 2.727537 -2.041018 6.000000
10.895555 -2.266279 -2.044516 3.000000
4.990863 -3.595553 -1.049227 28.000000
10.645693 18.505951 -0.935872 10.000000
12.389560 2.780749 -2.036129 6.000000
10.947544 -2.233273 -2.052648 1.000000
4.995879 -3.588581 -1.049227 27.000000
10.537024 18.465881 -0.905957 9.000000
12.422951 2.836109 -2.041030 6.000000
10.926405 -2.185294 -2.051116 6.000000
4.992199 -3.558272 -1.051214 31.000000
10.463272 18.486242 -0.875447 8.000000
12.470880 2.895182 -2.046051 6.000000
10.871261 -2.132857 -2.041283 1.000000
4.992537 -3.530990 -1.052948 30.000000
10.379701 18.488848 -0.844195 5.000000
12.499502 2.952454 -2.043397 6.000000
10.869713 -2.089242 -2.039471 2.000000
5.004843 -3.512245 -1.057217 24.000000
10.398305 18.674397 -0.821115 1.000000
4.455853 3.412922 -0.602800 1.000000
12.509189 3.003191 -2.037559 6.000000
10.911482 -2.053857 -2.045813 2.000000
5.005707 -3.484242 -1.057855 29.000000
12.571451 3.066914 -2.040258 6.000000
10.938629 -2.017483 -2.047496 1.000000
5.013934 -3.462757 -1.060191 27.000000
12.698989 3.098028 -2.042256 6.000000
10.998422 -2.028511 -2.048599 5.000000
5.001600 -3.465856 -1.049982 27.000000
12.734810 3.055007 -2.046115 6.000000
11.084866 -2.086493 -2.053905 7.000000
4.993803 -3.487613 -1.044454 29.000000
12.813232 3.024198 -2.056920 6.000000
11.130969 -2.139457 -2.057823 3.000000
4.981878 -3.506521 -1.038075 25.000000
10.716709 18.918600 -0.858088 2.000000
12.699630 2.945952 -2.036853 6.000000
11.196884 -2.194712 -2.063255 3.000000
4.977919 -3.531088 -1.033364 25.000000
10.532000 18.442118 -0.860415 6.000000
12.806670 2.921359 -2.052289 6.000000
11.179783 -2.235970 -2.055506 3.000000
4.973989 -3.555776 -1.027564 27.000000
10.630672 18.464928 -0.889280 8.000000
12.802632 2.868767 -2.054554 6.000000
11.263430 -2.297713 -2.068350 4.000000
4.965505 -3.577284 -1.024120 26.000000
10.719666 18.470098 -0.913729 9.000000
12.803411 2.819698 -2.053007 6.000000
11.308994 -2.350215 -2.072042 7.000000
4.958070 -3.615487 -1.016958 24.000000
10.833950 18.517820 -0.944215 9.000000
12.784825 2.764177 -2.050648 6.000000
11.358374 -2.406010 -2.078583 1.000000
4.965375 -3.648765 -1.015669 20.000000
10.903864 18.481571 -0.963162 9.000000
12.814198 2.721404 -2.053746 6.000000
11.312047 -2.439552 -2.065475 1.000000
4.976614 -3.685189 -1.014064 27.000000
11.002087 18.514898 -0.993062 9.000000
12.794838 2.665990 -2.053662 6.000000
11.365803 -2.496854 -2.072835 1.000000
4.971690 -3.709835 -1.010267 22.000000
11.087873 18.497168 -1.020792 9.000000
12.755781 2.609107 -2.048173 6.000000
11.381302 -2.544022 -2.073148 1.000000
4.977321 -3.745235 -1.007763 36.000000
11.182709 18.508562 -1.050049 9.000000
12.769399 2.563168 -2.053496 6.000000
11.381755 -2.590050 -2.070824 1.000000
4.977237 -3.771087 -1.005800 29.000000
11.311604 18.575096 -1.078887 9.000000
12.696763 2.497910 -2.040258 6.000000
11.396765 -2.639532 -2.069066 3.000000
4.990495 -3.812762 -1.003693 30.000000
11.386126 18.551384 -1.106472 9.000000
12.705482 2.451290 -2.042516 6.000000
11.450022 -2.696122 -2.076281 1.000000
4.985005 -3.837585 -0.999782 22.000000
11.475853 18.559248 -1.132116 9.000000
12.748068 2.408772 -2.052502 6.000000
11.492967 -2.752853 -2.081716 1.000000
4.996360 -3.872781 -0.998974 23.000000
11.579436 18.581448 -1.162751 8.000000
12.664198 2.344884 -2.039905 6.000000
11.440441 -2.784649 -2.069799 1.000000
5.010204 -3.912993 -0.997780 23.000000
11.627532 18.514332 -1.187871 9.000000
12.672655 2.300727 -2.037657 6.000000
11.517119 -2.850199 -2.077099 4.000000
5.019804 -3.950197 -0.996858 23.000000
11.742258 18.552898 -1.212187 10.000000
4.485390 3.011785 -0.635632 1.000000
12.656775 2.245400 -2.038238 6.000000
11.464308 -2.881762 -2.065212 3.000000
5.033073 -3.990596 -0.996650 20.000000
11.888254 18.617769 -1.250473 9.000000
4.434042 2.953786 -0.630588 1.000000
12.630896 2.190817 -2.034994 6.000000
11.506351 -2.939349 -2.070533 1.000000
5.048841 -4.036211 -0.994887 16.000000
11.987448 18.629427 -1.281212 9.000000
4.576923 3.024806 -0.654182 1.000000
12.647876 2.146041 -2.041040 6.000000
11.496200 -2.981683 -2.066387 1.000000
5.061632 -4.076934 -0.994540 16.000000
12.075984 18.623837 -1.310929 9.000000
4.508713 2.956042 -0.646698 2.000000
11.485712 -3.026079 -2.060168 1.000000
5.085710 -4.127152 -0.996388 9.000000
12.133675 18.584646 -1.334172 9.000000
4.618911 3.004143 -0.665798 5.000000
6.938766 1.103959 -1.121616 6.000000
11.494276 -3.073432 -2.059433 1.000000
12.261295 18.630587 -1.364130 10.000000
4.629499 2.986940 -0.669644 2.000000
6.772002 1.051992 -1.094029 5.000000
11.549999 -3.135900 -2.065105 4.000000
12.347386 18.619541 -1.393868 9.000000
4.555908 2.916987 -0.661355 6.000000
6.672914 1.010375 -1.081010 11.000000
11.524872 -3.174479 -2.058382 4.000000
5.191923 -4.305827 -1.008060 7.000000
12.488974 18.691071 -1.430050 9.000000
4.536756 2.881335 -0.661799 6.000000
6.652338 0.982332 -1.075883 22.000000
12.550370 18.641758 -1.457190 10.000000
4.499380 2.827930 -0.659103 53.000000
6.621296 0.951784 -1.073856 25.000000
12.673923 18.677145 -1.483358 8.000000
4.513631 2.813862 -0.662504 87.000000
6.596368 0.916495 -1.069101 34.000000
8.952077 -2.575423 -1.590599 22.000000
12.760385 18.664009 -1.517551 9.000000
4.582395 2.833461 -0.676798 9.000000
6.590180 0.887514 -1.068676 27.000000
8.871153 -2.589065 -1.577975 29.000000
7.517089 -6.388501 -1.442675 10.000000
12.855522 18.663002 -1.548923 9.000000
4.613489 2.829365 -0.683693 84.000000
6.573324 0.863060 -1.066660 27.000000
8.800949 -2.603619 -1.562229 12.000000
7.466550 -6.388313 -1.430027 10.000000
12.936720 18.641256 -1.574730 9.000000
4.555615 2.770947 -0.677389 46.000000
6.561714 0.835919 -1.065432 33.000000
8.673371 -2.602136 -1.538093 7.000000
7.399422 -6.378000 -1.409453 9.000000
13.055300 18.665691 -1.608792 8.000000
4.607802 2.779604 -0.687447 26.000000
6.554752 0.810629 -1.064994 27.000000
8.532731 -2.594069 -1.508423 19.000000
7.358236 -6.389656 -1.397379 9.000000
13.159780 18.675930 -1.633661 8.000000
4.613394 2.759966 -0.689628 7.000000
6.533126 0.782498 -1.062163 33.000000
8.585174 -2.644425 -1.514560 3.000000
7.306060 -6.391469 -1.381537 11.000000
13.249705 18.664835 -1.664837 9.000000
4.644387 2.755443 -0.696580 8.000000
6.525959 0.757388 -1.061716 28.000000
8.311891 -2.595233 -1.464970 27.000000
7.247459 -6.385000 -1.366063 10.000000
13.009298 18.184603 -1.653708 7.000000
4.683951 2.755756 -0.704851 29.000000
6.518825 0.731203 -1.061266 29.000000
8.269899 -2.615426 -1.456135 30.000000
7.191745 -6.382886 -1.349693 9.000000
12.923001 17.931374 -1.658046 6.000000
4.724533 2.754161 -0.713171 8.000000
6.506924 0.705729 -1.057728 23.000000
8.204167 -2.629332 -1.441691 25.000000
7.163424 -6.409341 -1.338933 9.000000
12.919877 17.795744 -1.676686 9.000000
4.741790 2.743194 -0.718289 6.000000
6.509586 0.680739 -1.057728 25.000000
8.119899 -2.635182 -1.425507 15.000000
7.095325 -6.390903 -1.319965 12.000000
13.019293 17.795124 -1.704338 14.000000
4.751376 2.725546 -0.722113 7.000000
6.497120 0.655371 -1.056474 25.000000
8.041304 -2.640736 -1.407246 13.000000
7.054363 -6.400994 -1.308230 9.000000
13.115573 17.796034 -1.735972 9.000000
4.726896 2.687433 -0.720681 21.000000
6.494492 0.629925 -1.056815 33.000000
7.965813 -2.651418 -1.391369 16.000000
7.013578 -6.411015 -1.294879 10.000000
13.185562 17.754374 -1.759915 12.000000
4.813989 2.713650 -0.736365 5.000000
6.486746 0.605183 -1.056353 26.000000
7.876339 -2.655273 -1.376021 12.000000
6.939670 -6.390300 -1.278841 10.000000
13.290939 17.766367 -1.792973 13.000000
4.772471 2.665058 -0.732256 7.000000
6.469175 0.578497 -1.054285 35.000000
7.778300 -2.654010 -1.357636 17.000000
6.905325 -6.407846 -1.265318 10.000000
13.390726 17.770092 -1.821510 11.000000
4.811176 2.665781 -0.740743 6.000000
6.471251 0.554782 -1.054285 34.000000
7.686617 -2.651217 -1.335873 13.000000
6.859489 -6.407778 -1.252468 12.000000
13.463449 17.731014 -1.849935 10.000000
6.453475 0.528304 -1.052211 32.000000
7.601361 -2.657492 -1.320093 15.000000
6.805794 -6.408972 -1.237389 10.000000
13.499862 17.650700 -1.869894 8.000000
6.460194 0.503891 -1.054144 27.000000
7.513135 -2.657589 -1.302169 18.000000
6.763854 -6.411931 -1.223693 9.000000
13.450541 17.453276 -1.881304 6.000000
6.452154 0.479478 -1.052538 33.000000
7.414312 -2.657628 -1.282726 9.000000
6.726735 -6.423717 -1.212973 9.000000
13.369659 17.223642 -1.884572 6.000000
6.448841 0.454340 -1.052864 32.000000
7.326472 -2.670963 -1.264422 9.000000
6.661174 -6.407952 -1.195536 11.000000
13.262899 16.957430 -1.879678 6.000000
6.455387 0.431030 -1.053668 35.000000
7.259280 -2.685289 -1.248065 8.000000
6.621999 -6.414923 -1.181066 13.000000
13.172438 16.721161 -1.888526 6.000000
6.446960 0.405608 -1.053187 29.000000
7.168383 -2.690135 -1.231861 9.000000
6.589832 -6.435240 -1.171757 14.000000
13.108771 16.521376 -1.893380 6.000000
6.438368 0.381382 -1.052704 35.000000
7.098601 -2.695088 -1.217561 9.000000
6.530269 -6.419518 -1.156826 9.000000
13.012320 16.276932 -1.896487 6.000000
6.434858 0.356385 -1.051899 36.000000
7.024738 -2.696544 -1.202538 9.000000
6.484161 -6.425578 -1.143507 9.000000
12.961637 16.098000 -1.902723 6.000000
6.411365 0.333761 -1.047871 36.000000
6.960155 -2.701064 -1.189160 8.000000
6.450592 -6.432604 -1.133072 15.000000
12.838124 15.836801 -1.898404 6.000000
6.397629 0.308419 -1.046573 136.000000
6.905097 -2.707468 -1.178706 9.000000
6.399798 -6.428905 -1.118636 10.000000
12.566865 15.381075 -1.870528 6.000000
6.393886 0.282517 -1.045767 141.000000
6.821487 -2.706328 -1.161027 9.000000
6.352592 -6.428438 -1.104888 10.000000
12.621694 15.333136 -1.894792 8.000000
6.394741 0.257957 -1.046884 86.000000
6.761847 -2.711393 -1.147347 8.000000
6.335754 -6.460829 -1.095047 9.000000
12.610338 15.210820 -1.905987 10.000000
6.395561 0.236750 -1.046884 153.000000
6.715321 -2.722714 -1.137330 9.000000
6.283913 -6.450617 -1.080211 11.000000
12.639196 15.132404 -1.922794 9.000000
6.396496 0.209958 -1.046884 164.000000
6.641851 -2.721313 -1.122718 20.000000
6.220798 -6.437327 -1.064287 14.000000
12.648998 15.037142 -1.937063 6.000000
6.392292 0.186369 -1.046077 147.000000
6.595678 -2.730670 -1.114045 10.000000
6.184053 -6.446418 -1.054131 15.000000
12.580256 14.844629 -1.942198 6.000000
6.397710 0.161943 -1.048001 147.000000
6.558514 -2.744831 -1.104456 18.000000
6.141844 -6.447319 -1.039737 10.000000
12.486910 14.640979 -1.937637 6.000000
6.398236 0.139610 -1.048001 90.000000
6.489602 -2.743985 -1.092019 11.000000
6.093618 -6.439317 -1.028909 10.000000
12.409046 14.442137 -1.944188 2.000000
6.398338 0.116152 -1.050235 130.000000
6.444633 -2.750199 -1.082224 19.000000
6.050304 -6.440667 -1.016197 10.000000
12.301831 14.216657 -1.939498 3.000000
6.403671 0.091654 -1.051044 158.000000
6.402781 -2.761448 -1.073231 21.000000
6.018342 -6.451623 -1.005244 10.000000
12.251432 14.053980 -1.939863 1.000000
6.394463 0.068081 -1.047193 153.000000
6.352353 -2.767356 -1.062757 16.000000
5.985240 -6.463470 -0.994322 10.000000
12.229949 13.930863 -1.951646 4.000000
6.394311 0.043525 -1.049425 130.000000
6.314561 -2.781105 -1.054596 10.000000
5.962211 -6.486127 -0.985097 10.000000
12.134637 13.720537 -1.947794 6.000000
6.443767 0.020244 -1.057522 65.000000
6.281592 -2.795432 -1.048419 9.000000
5.926595 -6.492725 -0.976737 10.000000
12.095124 13.580041 -1.953092 5.000000
6.438680 -0.002248 -1.057836 30.000000
6.191944 -2.780172 -1.028929 10.000000
5.920354 -6.533823 -0.967188 9.000000
12.012618 13.397688 -1.951648 6.000000
6.438628 -0.025846 -1.057836 37.000000
6.165166 -2.792752 -1.022388 10.000000
6.010062 -6.681883 -0.976314 69.000000
11.926776 13.204257 -1.951823 4.000000
6.438666 -0.050570 -1.056713 54.000000
6.082144 -2.784623 -1.009272 15.000000
6.026891 -6.747818 -0.976478 255.000000
11.901420 13.084077 -1.955809 3.000000
9.630659 4.235586 -1.587384 1.000000
6.448305 -0.074282 -1.058332 24.000000
6.022678 -2.785420 -0.996434 23.000000
11.793249 12.870073 -1.951859 3.000000
9.441608 4.109248 -1.562802 1.000000
6.457469 -0.099187 -1.062206 33.000000
5.999459 -2.801419 -0.990740 26.000000
11.761436 12.741282 -1.957239 5.000000
9.596578 4.134925 -1.591532 1.000000
6.447196 -0.122667 -1.060583 31.000000
5.962935 -2.811031 -0.981698 18.000000
11.638703 12.520353 -1.947661 5.000000
6.461845 -0.147768 -1.060761 34.000000
5.899465 -2.807584 -0.969440 28.000000
11.506559 12.287578 -1.935858 4.000000
9.847924 4.157901 -1.641483 1.000000
6.470755 -0.171703 -1.064640 31.000000
5.867791 -2.817673 -0.962362 28.000000
6.517533 -7.561301 -1.024554 50.000000
11.496870 12.191653 -1.944839 6.000000
6.479910 -0.196847 -1.066263 28.000000
5.821432 -2.824224 -0.951995 15.000000
6.448429 -7.536812 -1.007531 50.000000
11.522968 12.129949 -1.959478 5.000000
6.474361 -0.221564 -1.064321 31.000000
5.780534 -2.830604 -0.942407 17.000000
6.332683 -7.454047 -0.981435 21.000000
11.359942 11.870897 -1.941789 6.000000
6.493227 -0.246040 -1.067564 29.000000
5.761691 -2.847605 -0.937594 19.000000
6.268100 -7.438337 -0.965758 22.000000
11.255358 11.671561 -1.939197 6.000000
6.497164 -0.271176 -1.068374 33.000000
5.729162 -2.858952 -0.929515 10.000000
11.272071 11.611582 -1.949757 6.000000
6.505984 -0.295435 -1.069995 33.000000
5.714659 -2.877924 -0.925446 12.000000
6.330562 -7.622491 -0.961062 9.000000
11.219898 11.473395 -1.944813 6.000000
6.524812 -0.319117 -1.072098 27.000000
5.692420 -2.890429 -0.918842 10.000000
11.150016 11.322597 -1.948355 3.000000
6.532958 -0.345808 -1.076001 26.000000
5.668717 -2.904576 -0.915594 9.000000
11.074910 11.164185 -1.941999 6.000000
6.527347 -0.368364 -1.071766 29.000000
5.636897 -2.914405 -0.905392 10.000000
11.075732 11.083467 -1.951667 3.000000
6.540353 -0.393151 -1.076480 24.000000
5.625945 -2.936174 -0.903177 10.000000
11.019796 10.946952 -1.951248 3.000000
6.558679 -0.419533 -1.078576 29.000000
5.606802 -2.952381 -0.898450 10.000000
6.086107 -7.596704 -0.894428 29.000000
10.872612 10.725595 -1.937502 5.000000
7.162600 2.650947 -1.224686 1.000000
6.571709 -0.446862 -1.081005 24.000000
5.608710 -2.982204 -0.895013 10.000000
6.085455 -7.655950 -0.886598 37.000000
10.822289 10.597970 -1.932346 5.000000
7.266898 2.666500 -1.244012 1.000000
6.589984 -0.471220 -1.083091 26.000000
5.559926 -2.979957 -0.885432 20.000000
6.154541 -7.793001 -0.889742 14.000000
10.820246 10.518556 -1.943824 5.000000
7.319420 2.664051 -1.257384 1.000000
6.593046 -0.496891 -1.083899 28.000000
5.549508 -3.000608 -0.881028 11.000000
6.095785 -7.777037 -0.874933 33.000000
10.739513 10.363785 -1.938374 5.000000
6.600646 -0.524119 -1.086673 28.000000
5.534395 -3.018703 -0.878136 20.000000
6.057016 -7.783382 -0.861120 137.000000
10.702563 10.256221 -1.941018 5.000000
7.320477 2.599509 -1.260977 1.000000
6.638114 -0.550418 -1.093151 18.000000
5.502266 -3.027398 -0.869206 14.000000
5.965052 -7.723446 -0.841769 25.000000
10.648571 10.129871 -1.942747 5.000000
7.560768 2.672954 -1.306033 1.000000
6.640956 -0.577505 -1.092797 23.000000
5.465016 -3.034298 -0.861820 18.000000
6.620677 -8.640718 -0.927480 78.000000
10.659414 10.066020 -1.948396 5.000000
7.699801 2.693415 -1.329961 1.000000
6.678404 -0.604257 -1.098098 20.000000
5.449929 -3.052107 -0.857867 27.000000
6.532228 -8.584096 -0.907695 158.000000
10.578797 9.916794 -1.945034 5.000000
7.728572 2.667197 -1.340315 1.000000
6.705619 -0.631506 -1.102946 19.000000
5.409032 -3.055300 -0.848768 25.000000
6.469754 -8.563866 -0.891844 55.000000
10.495795 9.770378 -1.938780 1.000000
7.966673 2.716733 -1.382888 1.000000
6.820807 -0.668786 -1.123535 8.000000
5.394006 -3.072945 -0.843758 24.000000
6.027850 -8.037104 -0.822433 230.000000
7.942706 2.676103 -1.384528 1.000000
6.906867 -0.702792 -1.136883 7.000000
5.357313 -3.078104 -0.836482 24.000000
5.921413 -7.955771 -0.803172 255.000000
8.077904 2.690293 -1.409503 1.000000
7.007364 -0.740213 -1.152622 7.000000
5.346499 -3.098011 -0.832168 27.000000
6.036272 -8.169476 -0.811909 14.000000
8.236939 2.709761 -1.440176 1.000000
5.327176 -3.112950 -0.825450 30.000000
12.661125 -1.379910 -2.081052 6.000000
5.307562 -3.127641 -0.820898 24.000000
6.140077 -8.435600 -0.810149 33.000000
11.505586 3.689610 -2.017616 1.000000
12.503014 -1.411277 -2.060449 16.000000
5.305076 -3.152429 -0.817911 24.000000
6.096569 -8.437572 -0.795496 69.000000
11.481382 3.633289 -2.015231 1.000000
12.429243 -1.451304 -2.046952 62.000000
5.285470 -3.167049 -0.812296 14.000000
6.040017 -8.424176 -0.779404 8.000000
11.497983 3.592233 -2.024467 1.000000
12.409497 -1.495122 -2.042350 12.000000
5.282798 -3.191820 -0.809294 24.000000
5.947436 -8.356495 -0.760416 5.000000
11.407020 3.515796 -2.012486 1.000000
12.599178 -1.567078 -2.076817 80.000000
5.266510 -3.209647 -0.806491 20.000000
5.937360 -8.407395 -0.752225 8.000000
11.391392 3.460969 -2.015810 1.000000
12.456662 -1.595735 -2.052025 37.000000
5.283932 -3.239266 -0.806054 15.000000
5.862624 -8.363371 -0.735699 9.000000
11.379458 3.414001 -2.013711 1.000000
12.436122 -1.641663 -2.047417 52.000000
5.259847 -3.251085 -0.799803 10.000000
5.714263 -8.212567 -0.708389 1.000000
11.262932 3.334094 -1.999351 1.000000
12.415705 -1.685289 -2.042814 41.000000
5.265203 -3.281126 -0.798038 20.000000
5.725663 -8.290530 -0.702782 10.000000
11.378491 3.322993 -2.021947 1.000000
12.379466 -1.728805 -2.040168 14.000000
5.274374 -3.313742 -0.799053 10.000000
5.642078 -8.233880 -0.685719 92.000000
11.309973 3.255904 -2.011763 1.000000
12.540197 -1.798135 -2.060920 8.000000
5.275352 -3.341386 -0.795512 22.000000
5.605418 -8.241932 -0.670775 78.000000
11.324878 3.215294 -2.022880 1.000000
12.557612 -1.849868 -2.064934 8.000000
5.267716 -3.363666 -0.791781 23.000000
5.537862 -8.204040 -0.657437 11.000000
11.331714 3.170268 -2.026140 1.000000
12.551765 -1.891554 -2.062719 7.000000
5.255816 -3.383249 -0.787417 32.000000
5.969066 -8.913118 -0.699339 20.000000
11.277163 3.106248 -2.018345 1.000000
12.539210 -1.943413 -2.059702 7.000000
5.273088 -3.421767 -0.786307 10.000000
5.803045 -8.730980 -0.670593 26.000000
11.263484 3.060221 -2.018169 1.000000
12.590837 -1.994192 -2.071541 7.000000
5.285653 -3.457517 -0.787826 14.000000
5.775664 -8.755929 -0.659928 19.000000
4.402955 3.569261 -0.874406 46.000000
11.211398 3.001988 -2.015197 1.000000
12.568827 -2.040208 -2.066912 6.000000
5.273289 -3.477093 -0.784519 10.000000
5.724780 -8.748382 -0.646783 18.000000
4.396044 3.537038 -0.876504 39.000000
11.179293 2.947435 -2.011535 3.000000
12.547368 -2.083954 -2.060069 6.000000
5.273589 -3.505091 -0.779737 10.000000
5.564161 -8.568055 -0.619483 32.000000
4.400659 3.514257 -0.879883 120.000000
11.102847 2.883800 -2.004117 1.000000
12.592443 -2.141157 -2.071092 6.000000
5.265168 -3.527385 -0.777030 9.000000
5.515584 -8.558510 -0.608479 36.000000
4.400564 3.489094 -0.883449 90.000000
11.122704 2.843413 -2.009845 1.000000
12.614043 -2.192430 -2.073659 6.000000
5.269218 -3.558148 -0.773915 9.000000
5.510275 -8.616177 -0.598669 29.000000
4.404709 3.466164 -0.888744 95.000000
11.136463 2.803486 -2.018725 1.000000
12.508342 -2.223571 -2.057671 6.000000
5.265822 -3.581336 -0.772901 8.000000
5.513752 -8.691636 -0.591689 56.000000
4.408988 3.443440 -0.892060 70.000000
11.036527 2.733309 -2.002784 1.000000
12.563595 -2.280927 -2.065835 7.000000
5.272425 -3.616867 -0.770334 8.000000
5.659282 -8.990268 -0.597649 26.000000
4.416936 3.423658 -0.897125 37.000000
11.031228 2.687084 -2.008109 1.000000
12.637245 -2.344456 -2.079410 6.000000
5.267631 -3.642042 -0.768177 7.000000
5.665168 -9.069687 -0.592249 9.000000
4.432495 3.409785 -0.904751 31.000000
11.006124 2.638274 -2.009915 1.000000
12.317432 -2.334083 -2.030491 1.000000
5.304634 -3.693686 -0.773066 7.000000
6.004707 -9.688376 -0.617310 7.000000
4.440411 3.390041 -0.908828 35.000000
10.981950 2.587929 -2.007733 1.000000
12.236451 -2.365230 -2.016325 1.000000
5.324125 -3.736307 -0.772140 7.000000
5.995640 -9.753401 -0.608025 9.000000
4.456106 3.376243 -0.914510 30.000000
11.005064 2.550837 -2.014305 1.000000
12.227280 -2.412197 -2.016325 1.000000
5.310833 -3.756106 -0.767599 6.000000
5.946340 -9.749319 -0.592482 16.000000
4.459795 3.353381 -0.918739 22.000000
10.898570 2.482096 -1.999093 1.000000
12.262599 -2.465893 -2.019146 1.000000
5.325665 -3.795956 -0.768277 4.000000
12.308632 -20.339987 -1.208514 34.000000
4.453283 3.336333 -0.920187 9.000000
10.805380 2.419249 -1.988338 1.000000
12.262364 -2.514872 -2.022924 1.000000
5.363567 -3.837106 -0.773543 3.000000
12.274296 -20.444019 -1.182936 20.000000
4.463806 3.321163 -0.924072 8.000000
10.857167 2.387103 -2.000172 1.000000
12.239261 -2.556915 -2.016167 1.000000
5.458674 -3.935472 -0.784572 1.000000
10.821531 2.337721 -1.998001 1.000000
12.499369 -2.661383 -2.062971 7.000000
5.239622 -3.806808 -0.751651 1.000000
10.766493 2.282597 -1.994140 3.000000
12.508827 -2.711361 -2.066158 7.000000
5.458503 -3.996484 -0.780361 1.000000
4.648831 -7.933255 -0.428800 35.000000
10.701181 2.227798 -1.988400 2.000000
12.416384 -2.741280 -2.052612 7.000000
5.396984 -3.980454 -0.768804 1.000000
4.681616 -8.053518 -0.423010 60.000000
10.698996 2.184515 -1.992328 1.000000
12.334705 -2.770699 -2.036247 7.000000
4.654780 -8.075330 -0.413476 8.000000
10.628098 2.127562 -1.989321 1.000000
12.394412 -2.834146 -2.059270 6.000000
5.414989 -4.056829 -0.772095 1.000000
4.852375 -8.486457 -0.425110 1.000000
10.475210 2.098858 -1.978124 5.000000
12.227694 -2.796024 -2.051795 1.000000
5.376382 -4.014735 -0.778743 6.000000
10.452319 2.134149 -1.979117 8.000000
12.235756 -2.750715 -2.064929 6.000000
5.337843 -3.957010 -0.778208 6.000000
4.548274 -7.893742 -0.420071 24.000000
10.473266 2.180350 -1.982723 1.000000
12.167978 -2.688665 -2.056282 1.000000
5.311544 -3.907429 -0.780448 8.000000
4.806282 -8.274621 -0.454620 10.000000
10.411915 2.209322 -1.972700 5.000000
12.109317 -2.626977 -2.053537 3.000000
5.297097 -3.866960 -0.783203 8.000000
4.564849 -7.796175 -0.440269 43.000000
10.480635 2.264079 -1.987278 1.000000
12.055099 -2.568989 -2.049363 6.000000
5.265570 -3.815840 -0.784626 9.000000
4.551065 -7.710781 -0.450440 7.000000
10.419047 2.292683 -1.977255 1.000000
12.067859 -2.525504 -2.058792 4.000000
5.254672 -3.778647 -0.787811 9.000000
5.877132 -9.878570 -0.594362 10.000000
10.444425 2.340348 -1.979898 1.000000
12.062623 -2.476101 -2.058470 1.000000
5.231566 -3.733018 -0.787982 9.000000
5.957367 -9.934350 -0.615184 9.000000
4.471028 3.407243 -0.943715 1.000000
10.502888 2.393910 -1.992630 2.000000
12.002530 -2.417955 -2.055477 1.000000
5.224216 -3.681184 -0.793763 9.000000
5.952819 -9.848660 -0.627275 13.000000
4.485810 3.445816 -0.945561 1.000000
10.455302 2.425332 -1.985354 1.000000
11.966783 -2.362976 -2.056543 5.000000
5.224676 -3.652924 -0.799703 9.000000
5.947799 -9.763207 -0.637161 13.000000
4.384091 3.393302 -0.921762 1.000000
10.489655 2.475784 -1.989778 1.000000
11.926606 -2.309658 -2.050350 4.000000
5.213114 -3.616466 -0.800399 9.000000
5.999714 -9.771493 -0.653118 9.000000
4.446165 3.467481 -0.932424 1.000000
10.471623 2.512081 -1.984203 2.000000
11.943664 -2.265416 -2.060502 1.000000
5.212641 -3.589251 -0.806254 10.000000
6.097087 -9.845101 -0.677849 7.000000
4.464842 3.508440 -0.935977 5.000000
10.519226 2.566256 -1.995075 1.000000
11.907915 -2.213451 -2.055096 1.000000
5.196630 -3.550220 -0.806225 10.000000
5.640562 -9.040825 -0.634955 35.000000
4.442214 3.514548 -0.928594 7.000000
10.500423 2.604428 -1.989487 1.000000
11.857423 -2.156997 -2.049266 5.000000
5.199466 -3.526924 -0.811534 10.000000
5.573318 -8.863997 -0.638572 74.000000
4.444006 3.545064 -0.927862 9.000000
10.528956 2.652507 -1.996722 1.000000
11.820519 -2.105555 -2.048010 5.000000
5.175962 -3.480725 -0.811213 10.000000
5.601071 -8.839512 -0.652879 123.000000
4.442530 3.571886 -0.925304 15.000000
10.519368 2.693088 -1.992931 1.000000
11.833020 -2.060936 -2.050947 1.000000
5.183970 -3.458586 -0.816007 10.000000
5.561637 -8.709880 -0.657411 37.000000
4.445502 3.601181 -0.922518 23.000000
10.514860 2.733037 -1.990042 1.000000
11.815496 -2.013293 -2.050923 8.000000
5.175228 -3.425409 -0.819260 10.000000
5.556468 -8.635185 -0.665830 26.000000
4.375400 3.571033 -0.906636 1.000000
10.547085 2.784691 -1.998150 1.000000
11.788053 -1.962070 -2.051277 1.000000
5.154123 -3.384339 -0.818330 10.000000
5.762816 -8.880744 -0.703166 14.000000
10.508483 2.817705 -1.988947 1.000000
11.726716 -1.907716 -2.041508 1.000000
5.147991 -3.355933 -0.822135 10.000000
5.790281 -8.861974 -0.714252 24.000000
10.484182 2.852419 -1.984353 1.000000
11.756876 -1.866313 -2.054053 4.000000
5.156073 -3.333060 -0.826830 10.000000
5.807176 -8.813737 -0.728813 20.000000
10.540199 2.911173 -1.993112 1.000000
11.738938 -1.819381 -2.051875 9.000000
5.149930 -3.304927 -0.828433 13.000000
5.823381 -8.778183 -0.738467 31.000000
10.582233 2.964570 -1.999139 1.000000
11.545747 -1.744069 -2.019021 34.000000
5.157095 -3.282902 -0.834164 10.000000
5.910455 -8.838941 -0.758451 25.000000
10.519390 2.990573 -1.985478 1.000000
11.541965 -1.700252 -2.019353 38.000000
5.152857 -3.251211 -0.836778 10.000000
5.932391 -8.805073 -0.770356 68.000000
10.579068 3.051491 -1.996953 1.000000
11.541905 -1.659102 -2.024606 48.000000
5.158916 -3.231165 -0.840347 10.000000
5.531188 -8.148070 -0.728384 32.000000
10.582647 3.094583 -1.995782 1.000000
11.553002 -1.613389 -2.027497 37.000000
5.154264 -3.199517 -0.843966 18.000000
5.576007 -8.146603 -0.742289 25.000000
10.557203 3.131195 -1.989266 1.000000
11.616982 -1.576872 -2.041864 23.000000
5.169544 -3.182812 -0.849953 14.000000
5.595401 -8.114024 -0.753207 24.000000
10.508951 3.158835 -1.976410 1.000000
11.641154 -1.536721 -2.051444 1.000000
5.171240 -3.160256 -0.851739 16.000000
5.618904 -8.090569 -0.764861 5.000000
10.530356 3.209407 -1.978771 1.000000
11.602834 -1.490474 -2.041658 1.000000
5.186384 -3.143461 -0.857728 16.000000
5.763812 -8.237695 -0.791260 9.000000
10.580312 3.267061 -1.986406 1.000000
11.602520 -1.445170 -2.046921 4.000000
5.192005 -3.113508 -0.861611 20.000000
10.598021 3.313095 -1.985889 1.000000
11.553954 -1.396136 -2.037436 2.000000
5.211372 -3.099209 -0.867253 13.000000
6.111479 -8.606047 -0.856676 43.000000
10.599372 3.360283 -1.984649 1.000000
11.598010 -1.356297 -2.046372 1.000000
5.209123 -3.072083 -0.871463 20.000000
6.081465 -8.497633 -0.860949 10.000000
10.610153 3.408590 -1.987096 1.000000
11.539388 -1.302508 -2.037179 2.000000
5.225026 -3.053259 -0.877457 11.000000
6.253273 -8.667188 -0.895580 47.000000
10.636027 3.459960 -1.988262 1.000000
11.524367 -1.256017 -2.035746 1.000000
5.248494 -3.041222 -0.883845 15.000000
8.159198 2.688921 -1.524077 1.000000
5.263089 -3.023966 -0.890923 10.000000
8.084657 2.697246 -1.507388 1.000000
6.841291 -0.667178 -1.213264 7.000000
5.268385 -3.003815 -0.893372 12.000000
8.051167 2.720472 -1.501550 1.000000
6.720924 -0.630581 -1.192715 8.000000
5.283121 -2.986612 -0.898338 10.000000
5.936135 -7.993012 -0.879810 9.000000
8.037457 2.747136 -1.497716 1.000000
6.684064 -0.601241 -1.185755 10.000000
5.302630 -2.970831 -0.904046 13.000000
9.821693 9.229638 -1.927780 5.000000
7.818646 2.704393 -1.454313 1.000000
6.651680 -0.573759 -1.180831 24.000000
5.312930 -2.951069 -0.908289 14.000000
6.516315 -8.644303 -0.985176 22.000000
9.828806 9.304393 -1.921396 5.000000
7.632524 2.671377 -1.418595 2.000000
6.618871 -0.545333 -1.178212 31.000000
5.327206 -2.933501 -0.915397 15.000000
9.917912 9.457911 -1.930940 5.000000
7.440933 2.639358 -1.380768 1.000000
6.606192 -0.518758 -1.175592 23.000000
5.360076 -2.923622 -0.923381 10.000000
5.945734 -7.768263 -0.912663 34.000000
9.889861 9.497298 -1.917280 5.000000
7.544104 2.704151 -1.397245 1.000000
6.588207 -0.493057 -1.173252 29.000000
