VERSION .7
FIELDS x y z intensity
SIZE 4 4 4 4
TYPE F F F F
COUNT 1 1 1 1
WIDTH 1235
HEIGHT 1
VIEWPOINT 0 0 0 1 0 0 0
POINTS 1235
DATA ascii
30.282015 6.254570 5.257688 21.000000
19.644655 -4.333537 2.719919 27.000000
12.601011 -9.202298 1.206100 11.000000
35.014957 60.041134 10.028248 1.000000
10.201700 7.349581 2.174068 1.000000
29.943298 6.070266 5.189494 49.000000
19.681196 -4.413697 2.737850 35.000000
12.544211 -9.228128 1.211942 10.000000
10.211571 7.302682 2.168469 1.000000
30.161627 6.004993 5.229190 27.000000
19.693403 -4.492308 2.745411 78.000000
12.481762 -9.252886 1.217362 10.000000
34.175247 57.626389 9.582972 13.000000
10.226830 7.257089 2.161539 1.000000
30.041975 5.877667 5.199542 28.000000
18.869469 -4.377178 2.643097 206.000000
12.371207 -9.241383 1.220722 9.000000
33.830170 56.593319 9.395530 15.000000
22.688234 15.981079 4.778569 38.000000
33.135780 6.344966 5.724492 21.000000
18.741951 -4.420049 2.630911 102.000000
12.336740 -9.286278 1.228807 9.000000
22.680037 15.851254 4.749658 28.000000
32.967804 6.193582 5.697726 21.000000
18.749151 -4.490891 2.644390 133.000000
12.286051 -9.318863 1.237986 8.000000
33.681561 55.440018 9.174539 8.000000
10.183582 7.064602 2.125244 1.000000
18.857254 -4.589931 2.665443 155.000000
12.183982 -9.311988 1.239213 7.000000
22.043896 15.173018 4.579157 24.000000
32.465916 5.870794 5.603951 9.000000
18.753300 -4.637499 2.656569 9.000000
12.125564 -9.337941 1.244811 16.000000
33.183052 53.727943 8.841309 22.000000
21.991577 15.024145 4.552583 33.000000
32.215393 5.703636 5.557062 10.000000
12.082693 -9.375676 1.254677 25.000000
22.004894 14.915242 4.520119 9.000000
35.529129 6.162494 6.118449 9.000000
13.716811 -3.496371 1.956671 255.000000
12.055581 -9.425632 1.263508 7.000000
31.948126 50.909939 8.340135 7.000000
22.617140 15.215282 4.634945 39.000000
36.038548 6.114876 6.195712 21.000000
13.741932 -3.556464 1.964626 255.000000
16.607847 -13.083173 1.756776 26.000000
32.163162 50.857433 8.307061 22.000000
22.666569 15.128156 4.619001 35.000000
35.233994 5.851906 6.047431 9.000000
13.724312 -3.603066 1.966417 221.000000
16.660528 -13.223921 1.778679 29.000000
32.183918 50.479736 8.232639 19.000000
22.650040 15.003108 4.600055 27.000000
35.092545 5.696323 6.032297 16.000000
13.681305 -3.645428 1.969712 9.000000
22.632055 14.872137 4.575577 10.000000
35.093784 5.570868 6.022750 5.000000
13.710211 -3.707001 1.980870 5.000000
31.207344 48.183872 7.802569 9.000000
21.876364 14.266462 4.398638 23.000000
35.339100 5.477098 6.054944 4.000000
13.677752 -3.749508 1.980583 3.000000
31.322926 47.976025 7.767081 20.000000
21.920870 14.181246 4.392420 24.000000
35.210732 5.331409 6.036119 8.000000
13.696979 -3.808808 1.987905 5.000000
31.416182 47.753880 7.718347 20.000000
22.075262 14.172068 4.404002 10.000000
36.922291 5.452209 6.326059 15.000000
13.662861 -3.853325 1.992569 5.000000
16.921137 -13.938791 1.898731 10.000000
31.632309 47.700710 7.687757 10.000000
36.993671 5.330870 6.341774 9.000000
13.710882 -3.918587 2.004093 5.000000
16.834671 -13.971451 1.906304 9.000000
30.507212 45.640022 7.334601 19.000000
37.009178 5.194714 6.334415 26.000000
13.638689 -3.952082 2.000699 5.000000
16.798946 -14.036140 1.919068 8.000000
30.582270 45.391331 7.283432 19.000000
37.100346 5.075519 6.346949 9.000000
13.661779 -4.013109 2.008765 5.000000
21.185709 -17.833706 2.442263 10.000000
30.712751 45.243382 7.238002 19.000000
38.302391 5.097023 6.542411 10.000000
13.666332 -4.066320 2.014047 15.000000
21.184460 -17.972088 2.464716 15.000000
30.802132 45.019081 7.191072 19.000000
38.511490 4.981266 6.574965 10.000000
13.579230 -4.094639 2.010984 255.000000
21.109232 -18.041735 2.488066 22.000000
29.816961 43.270603 6.899546 10.000000
22.643711 13.859780 4.395102 30.000000
38.510216 4.844487 6.564851 57.000000
13.610801 -4.158642 2.022971 240.000000
11.282884 -9.708239 1.341515 22.000000
29.723227 42.782051 6.793553 17.000000
22.687235 13.772369 4.384204 21.000000
39.165047 4.781111 6.666365 10.000000
13.596539 -4.206232 2.020487 248.000000
29.864801 42.651356 6.762412 22.000000
22.817429 13.742637 4.385741 9.000000
13.580020 -4.255720 2.027939 128.000000
29.923058 42.434357 6.706845 17.000000
23.733059 14.175827 4.541806 31.000000
41.242722 4.750063 7.021798 10.000000
13.560439 -4.299020 2.032199 7.000000
20.960802 -18.440458 2.560375 35.000000
23.706675 14.048027 4.522406 30.000000
41.049969 4.568222 6.985943 11.000000
13.684865 -4.396364 2.055921 5.000000
20.963345 -18.585974 2.584178 33.000000
28.962612 40.454548 6.373561 16.000000
23.891243 14.039338 4.537835 8.000000
40.992580 4.424265 6.966238 8.000000
13.357006 -4.345110 2.016551 5.000000
20.919155 -18.671061 2.601156 26.000000
28.907244 40.066143 6.293962 22.000000
23.909197 13.943431 4.522518 29.000000
13.323719 -4.383193 2.013708 5.000000
20.893991 -18.786638 2.621410 34.000000
29.116573 40.060822 6.273922 28.000000
23.797974 13.756385 4.476680 27.000000
38.797318 3.906684 6.581259 10.000000
13.311152 -4.435773 2.016867 4.000000
20.850582 -18.899523 2.640326 37.000000
29.194796 39.860428 6.232971 16.000000
23.802008 13.653615 4.459065 25.000000
38.715199 3.761951 6.579027 15.000000
13.253160 -4.465332 2.017788 5.000000
20.789762 -18.970356 2.665354 34.000000
28.963224 39.241726 6.118195 12.000000
23.872772 13.572646 4.452688 21.000000
38.586136 3.593113 6.533722 16.000000
13.367058 -4.560933 2.037780 3.000000
20.774706 -19.103319 2.682748 36.000000
28.276651 38.032921 5.911478 9.000000
25.096827 14.147107 4.666132 23.000000
38.581436 3.456877 6.544749 10.000000
13.339887 -4.606317 2.043741 5.000000
20.765244 -19.235559 2.710554 34.000000
28.153542 37.578892 5.823619 11.000000
25.169018 14.072255 4.660064 28.000000
37.919762 3.270872 6.430631 10.000000
14.561881 -5.082385 2.239024 15.000000
9.886059 -9.218900 1.301585 29.000000
28.259972 37.420654 5.799250 26.000000
25.234800 13.987877 4.652386 31.000000
14.579212 -5.151318 2.247470 22.000000
9.833970 -9.244408 1.306736 178.000000
28.243107 37.114674 5.734780 11.000000
25.345457 13.933784 4.653434 31.000000
37.256248 2.932131 6.307490 17.000000
14.550176 -5.201124 2.251425 27.000000
9.886077 -9.361880 1.327805 216.000000
28.129389 36.711971 5.662358 10.000000
25.342138 13.811245 4.627997 28.000000
37.212292 2.811070 6.291824 26.000000
14.551092 -5.255935 2.257009 19.000000
9.883286 -9.421599 1.338837 211.000000
28.075073 36.364235 5.592007 27.000000
25.265656 13.655390 4.595015 32.000000
37.497738 2.694450 6.338375 18.000000
14.562590 -5.323388 2.267474 10.000000
9.875238 -9.486569 1.349911 186.000000
28.106718 36.143700 5.540711 13.000000
25.334356 13.572779 4.588142 27.000000
49.549072 3.377917 8.373305 18.000000
14.472634 -5.350718 2.262007 35.000000
9.872071 -9.553348 1.361519 211.000000
25.389708 13.482899 4.578896 25.000000
49.518852 3.184883 8.357163 22.000000
14.415485 -5.389729 2.258892 46.000000
9.854121 -9.606166 1.373592 205.000000
25.573477 13.466257 4.593188 9.000000
49.491779 3.018377 8.368659 27.000000
14.409730 -5.444983 2.266448 43.000000
9.857378 -9.680057 1.386289 194.000000
27.628143 34.733337 5.284319 10.000000
26.586760 13.887407 4.756150 37.000000
49.347408 2.836712 8.324778 26.000000
14.395844 -5.494360 2.269865 38.000000
9.870699 -9.757647 1.400046 201.000000
27.235035 33.994881 5.170983 8.000000
26.675713 13.803758 4.757172 12.000000
49.354568 2.655670 8.342031 29.000000
14.363932 -5.545460 2.279157 40.000000
9.843211 -9.805489 1.408826 198.000000
27.100286 33.573757 5.083821 7.000000
14.366548 -5.607061 2.282818 38.000000
9.834599 -9.868988 1.422589 206.000000
27.002924 33.203403 5.012403 8.000000
29.725645 15.126372 5.258726 8.000000
14.347504 -5.654525 2.285509 38.000000
9.839784 -9.939898 1.435499 209.000000
26.975561 32.934231 4.963359 10.000000
29.819439 15.036762 5.241642 17.000000
55.955853 2.413732 9.422758 10.000000
14.317748 -5.700619 2.289423 37.000000
9.813216 -9.986002 1.444361 198.000000
26.848005 32.534512 4.895531 10.000000
29.856676 14.918536 5.238541 8.000000
56.340382 2.223468 9.506316 8.000000
14.309406 -5.758147 2.299704 38.000000
9.814221 -10.060518 1.457365 125.000000
26.790882 32.223972 4.841310 10.000000
30.030489 14.861563 5.247003 9.000000
55.738461 2.004873 9.393504 6.000000
14.287191 -5.813049 2.299704 55.000000
9.781727 -10.104541 1.468215 1.000000
26.671749 31.842545 4.769276 10.000000
30.209856 14.825816 5.257689 12.000000
56.060825 1.810754 9.446651 19.000000
14.280069 -5.865420 2.312694 37.000000
20.232513 -21.039387 3.067910 25.000000
26.577581 31.517206 4.704563 10.000000
30.343039 14.759975 5.259804 21.000000
56.286392 1.641044 9.463532 12.000000
14.277118 -5.925457 2.312959 39.000000
20.154522 -21.112623 3.078099 15.000000
26.616343 31.318371 4.668304 35.000000
30.043127 14.465240 5.185787 10.000000
14.235276 -5.972268 2.315388 39.000000
20.170691 -21.300100 3.114311 23.000000
26.764853 31.260201 4.652400 36.000000
29.909750 14.279037 5.142715 20.000000
58.649628 1.289981 9.880120 19.000000
14.227560 -6.024593 2.328400 43.000000
20.112076 -21.379766 3.136915 23.000000
26.914856 31.214190 4.630367 26.000000
29.823029 14.097281 5.106668 23.000000
56.297909 1.012170 9.483188 8.000000
14.223565 -6.084477 2.331381 38.000000
20.082993 -21.513777 3.160827 28.000000
27.082811 31.177181 4.617676 27.000000
29.929392 14.026322 5.105073 10.000000
56.404633 0.817148 9.500627 5.000000
14.196578 -6.131644 2.338733 46.000000
20.074635 -21.648296 3.186430 43.000000
27.280830 31.173618 4.602647 26.000000
30.696896 14.255537 5.215373 31.000000
58.699821 0.635218 9.886764 12.000000
14.183072 -6.187590 2.340228 39.000000
19.994020 -21.720497 3.201889 35.000000
27.411922 31.114613 4.585353 33.000000
30.606918 14.077609 5.179245 33.000000
58.676952 0.440374 9.882611 4.000000
14.183259 -6.246694 2.349376 37.000000
19.997433 -21.876968 3.230347 37.000000
27.589407 31.074697 4.565685 34.000000
30.316050 13.803042 5.109118 25.000000
60.877228 0.223128 10.252971 5.000000
14.166350 -6.307266 2.356288 37.000000
19.947994 -21.999575 3.257581 39.000000
27.737844 31.012196 4.549361 28.000000
30.192089 13.625909 5.068750 17.000000
60.724785 0.021197 10.227228 21.000000
14.139344 -6.351508 2.366359 38.000000
19.897072 -22.090183 3.276964 40.000000
27.871225 30.975868 4.534066 30.000000
30.201820 13.509928 5.056925 17.000000
60.174103 -0.168038 10.123720 14.000000
14.137708 -6.404225 2.366669 39.000000
19.860815 -22.213114 3.305437 40.000000
28.030861 30.902893 4.510348 33.000000
30.182625 13.375099 5.034070 10.000000
60.054810 -0.377340 10.103811 8.000000
14.104399 -6.451543 2.370575 43.000000
19.832092 -22.329573 3.328792 38.000000
28.229364 30.893435 4.501872 32.000000
32.297176 14.170746 5.365453 25.000000
59.661766 -0.593557 10.048692 10.000000
14.090014 -6.504533 2.377504 24.000000
19.826796 -22.497002 3.363575 37.000000
28.386812 30.848806 4.472776 30.000000
32.393131 14.071491 5.347566 22.000000
59.603668 -0.801064 10.017920 3.000000
14.106397 -6.574924 2.384318 36.000000
19.785963 -22.617249 3.381310 32.000000
28.548067 30.796747 4.465545 33.000000
38.858711 16.719128 6.405253 9.000000
14.062808 -6.617455 2.392140 46.000000
19.750635 -22.744547 3.405469 34.000000
28.668585 30.721786 4.446187 30.000000
38.829788 16.538284 6.382916 9.000000
14.043331 -6.668264 2.398328 40.000000
19.729845 -22.865313 3.430270 18.000000
28.841547 30.680918 4.418386 33.000000
38.939804 16.416792 6.360892 12.000000
60.537956 -1.468944 10.177027 9.000000
14.027709 -6.723963 2.399852 38.000000
19.686354 -22.984695 3.458734 18.000000
29.032017 30.646879 4.414608 29.000000
39.005997 16.284575 6.362381 9.000000
60.326538 -1.685073 10.164117 25.000000
14.015986 -6.778611 2.413009 49.000000
19.762814 -23.262325 3.510135 9.000000
29.183655 30.603046 4.392367 30.000000
39.273109 16.227316 6.381037 9.000000
60.192158 -1.891615 10.142528 10.000000
13.990290 -6.829566 2.418444 49.000000
19.674765 -23.314938 3.524395 8.000000
29.373016 30.576441 4.381532 33.000000
39.148514 16.016079 6.336574 9.000000
13.986564 -6.891341 2.427724 39.000000
19.660036 -23.479811 3.559547 5.000000
29.483019 30.466648 4.358819 32.000000
38.983376 15.781974 6.292935 9.000000
59.643547 -2.301699 10.031178 10.000000
13.953575 -6.935724 2.426186 34.000000
19.723774 -23.715260 3.601676 5.000000
29.673519 30.439455 4.332974 29.000000
38.939442 15.598322 6.246634 9.000000
60.156918 -2.542358 10.119020 7.000000
13.936134 -6.990870 2.433167 34.000000
19.578213 -23.716518 3.612709 9.000000
29.843904 30.401201 4.319795 34.000000
38.853153 15.406590 6.209215 9.000000
13.919703 -7.043550 2.440154 39.000000
30.230984 -36.895615 5.628671 9.000000
30.048191 30.385723 4.303077 35.000000
13.888635 -7.091887 2.444825 58.000000
30.130857 -37.036373 5.667864 17.000000
30.196056 30.312225 4.285685 25.000000
39.099140 15.181260 6.208561 9.000000
62.453640 -3.305848 10.521900 7.000000
13.871819 -7.144456 2.451821 39.000000
29.900093 -37.029133 5.666796 31.000000
30.347307 30.241560 4.268734 30.000000
38.796379 14.900303 6.136948 9.000000
62.544483 -3.540582 10.539320 14.000000
13.844779 -7.194856 2.457268 37.000000
30.566174 30.237192 4.253591 30.000000
38.343075 14.565167 6.049444 9.000000
62.684322 -3.768053 10.565036 13.000000
13.823194 -7.245033 2.463493 38.000000
19.547281 -24.565498 3.776811 25.000000
30.666021 30.124895 4.230099 29.000000
38.266006 14.383247 6.014747 10.000000
50.419014 -3.216271 8.490662 7.000000
13.813629 -7.304682 2.469339 32.000000
19.504698 -24.697231 3.808338 16.000000
30.888252 30.121540 4.222689 26.000000
38.185963 14.193645 5.979420 20.000000
50.434036 -3.394034 8.513279 12.000000
13.828808 -7.377694 2.488086 35.000000
19.452621 -24.817764 3.832658 14.000000
31.057240 30.065041 4.207849 31.000000
38.264107 14.070869 5.976660 26.000000
50.426178 -3.579210 8.514110 11.000000
13.802205 -7.425508 2.493557 34.000000
19.251446 -24.738478 3.832222 37.000000
31.208809 29.990973 4.182961 34.000000
38.470821 13.987028 5.986305 13.000000
13.805277 -7.492534 2.499057 35.000000
31.417858 29.971148 4.165635 28.000000
38.305931 13.768332 5.930987 15.000000
50.440083 -3.943148 8.511922 7.000000
13.804261 -7.554481 2.509263 37.000000
31.611116 29.945446 4.146697 29.000000
38.420979 13.658431 5.926847 11.000000
50.613476 -4.125613 8.543445 5.000000
13.805968 -7.621305 2.520280 38.000000
31.740368 29.847918 4.126255 32.000000
38.742523 13.613002 5.961393 10.000000
50.720104 -4.312579 8.573068 8.000000
13.796154 -7.678841 2.526192 39.000000
31.942099 29.817774 4.115161 27.000000
38.649208 13.421271 5.924844 9.000000
13.797280 -7.745840 2.537245 37.000000
32.089268 29.735800 4.096943 26.000000
38.623863 13.261572 5.891997 9.000000
50.180275 -4.628584 8.469115 18.000000
13.790868 -7.805676 2.546735 36.000000
18.810509 -25.282248 3.958585 11.000000
30.169729 27.752209 3.817206 10.000000
39.281441 13.326608 5.984818 8.000000
49.891556 -4.786434 8.432286 20.000000
13.787117 -7.870412 2.557037 35.000000
18.686193 -25.308325 3.979807 16.000000
30.174425 27.553036 3.769032 17.000000
20.581543 6.898473 3.120275 6.000000
50.113220 -5.001964 8.472934 18.000000
13.797678 -7.940427 2.566971 35.000000
30.286631 27.462238 3.749464 10.000000
20.592432 6.822260 3.110569 4.000000
13.767707 -7.990494 2.572528 38.000000
17.568193 -24.153936 3.815490 67.000000
30.181278 27.165808 3.702631 10.000000
45.264709 -4.829412 7.650380 14.000000
13.794336 -8.070451 2.588477 37.000000
17.466766 -24.200457 3.828583 89.000000
30.205820 27.007120 3.673243 10.000000
38.841797 12.568021 5.839269 9.000000
45.235577 -4.994054 7.656664 14.000000
13.804591 -8.138018 2.604062 36.000000
18.410494 -25.706024 4.072895 20.000000
30.279968 26.874365 3.648885 10.000000
45.306049 -5.161972 7.671597 14.000000
13.790856 -8.198181 2.612870 34.000000
18.405191 -25.889051 4.114235 17.000000
30.333443 26.704914 3.613940 20.000000
28.670694 -3.373106 4.862002 23.000000
13.779653 -8.263293 2.622498 37.000000
18.351805 -26.015343 4.140539 28.000000
30.404978 26.589437 3.583515 10.000000
38.438782 11.979707 5.708668 9.000000
28.645742 -3.471589 4.849439 30.000000
13.785573 -8.329121 2.631752 34.000000
18.081663 -25.832884 4.117715 11.000000
22.326710 19.380964 2.607423 7.000000
13.777487 -8.390023 2.635784 21.000000
22.477472 19.360994 2.600676 18.000000
38.647945 11.727409 5.712119 9.000000
13.792175 -8.475052 2.659587 31.000000
19.066679 -27.659374 4.428743 14.000000
22.678724 19.390009 2.589484 24.000000
31.973457 9.574252 4.696654 8.000000
13.812844 -8.554317 2.669314 38.000000
19.117769 -27.952181 4.482418 21.000000
21.968685 18.657183 2.496265 19.000000
31.893402 9.441201 4.686435 18.000000
23.261087 -3.157425 3.953543 31.000000
13.791981 -8.604804 2.676610 38.000000
19.051277 -28.064701 4.519893 10.000000
21.802420 18.378862 2.444632 24.000000
31.919136 9.309625 4.666934 10.000000
23.054703 -3.215511 3.916264 37.000000
13.806610 -8.681031 2.694085 38.000000
21.706316 18.162176 2.411449 16.000000
31.883226 9.172487 4.644928 17.000000
22.915188 -3.281719 3.898736 20.000000
13.761803 -8.723402 2.694484 34.000000
18.946579 -28.355556 4.586658 8.000000
21.861860 18.156513 2.406332 144.000000
32.036503 9.107705 4.657141 15.000000
22.786512 -3.344504 3.878807 29.000000
13.688906 -8.744325 2.691997 31.000000
22.932989 18.904499 2.495692 17.000000
31.913012 8.934294 4.616247 10.000000
22.667503 -3.411952 3.856537 65.000000
13.603543 -8.766886 2.685012 33.000000
27.209455 -41.359482 6.711231 7.000000
22.501808 18.410959 2.426078 22.000000
31.844542 8.801353 4.584463 8.000000
22.367281 -3.446650 3.811544 31.000000
13.537910 -8.784905 2.683280 39.000000
22.207241 18.040901 2.372430 30.000000
31.702059 8.631085 4.553301 18.000000
21.156414 -3.339492 3.607265 252.000000
13.467299 -8.809397 2.684326 37.000000
22.317490 17.995087 2.351958 25.000000
32.009468 8.600866 4.581540 9.000000
21.047895 -3.397706 3.586936 106.000000
13.402743 -8.834126 2.683348 33.000000
22.504551 18.010208 2.354570 11.000000
31.701601 8.393683 4.527208 9.000000
21.059008 -3.478744 3.594809 158.000000
13.332917 -8.858369 2.678722 34.000000
16.852739 -26.433136 4.322077 14.000000
24.893993 19.773218 2.569042 8.000000
31.767994 8.286785 4.514805 8.000000
21.029760 -3.541818 3.584044 135.000000
13.219568 -8.849730 2.664994 36.000000
16.732950 -26.458683 4.338471 25.000000
25.272644 19.923346 2.583606 22.000000
31.682352 8.146434 4.492747 8.000000
20.491226 -3.528401 3.498175 144.000000
13.153572 -8.875537 2.663925 37.000000
16.683626 -26.585669 4.372052 11.000000
25.374390 19.853189 2.563915 8.000000
30.869068 7.816809 4.356340 8.000000
20.425966 -3.590622 3.485430 28.000000
13.097658 -8.904502 2.661722 34.000000
17.110823 -27.489687 4.527660 8.000000
25.589769 19.870930 2.561230 8.000000
30.883829 7.700203 4.348752 9.000000
20.421774 -3.667098 3.490709 101.000000
13.023111 -8.923789 2.661702 33.000000
16.829193 -27.248789 4.489679 20.000000
25.505907 19.656382 2.522989 29.000000
30.898293 7.589348 4.330063 31.000000
20.366394 -3.730585 3.476016 40.000000
12.967537 -8.952387 2.656714 34.000000
16.766361 -27.370937 4.522501 11.000000
25.559717 19.548950 2.492955 21.000000
31.385616 7.587182 4.377211 9.000000
20.328945 -3.800786 3.468267 32.000000
12.919639 -8.986073 2.656136 33.000000
18.564316 -30.556957 5.056744 18.000000
25.592524 19.425785 2.472271 32.000000
31.462160 7.483739 4.378284 8.000000
20.421524 -3.891920 3.490089 31.000000
12.845106 -9.004267 2.656029 38.000000
9.959345 7.502180 0.950667 1.000000
30.503950 7.137789 4.213433 8.000000
20.528734 -3.990382 3.507135 49.000000
12.772951 -9.020345 2.650411 33.000000
14.146700 -23.665524 3.928911 28.000000
20.543592 -4.071467 3.508441 84.000000
12.699265 -9.038247 2.644776 28.000000
14.068002 -23.721500 3.944763 9.000000
9.947182 7.379351 0.924751 35.000000
29.793423 6.747030 4.086805 26.000000
20.404173 -4.117909 3.483330 33.000000
12.627202 -9.053529 2.639123 32.000000
17.692730 -30.084303 5.016913 22.000000
9.946569 7.322531 0.913522 255.000000
29.892601 6.654404 4.080716 17.000000
19.940302 -4.100410 3.403029 131.000000
12.569588 -9.082158 2.636806 35.000000
17.472448 -29.948488 4.990240 22.000000
9.977880 7.289341 0.905265 254.000000
30.127079 6.590802 4.092967 14.000000
19.858868 -4.155969 3.387947 38.000000
12.517510 -9.111204 2.635318 33.000000
17.388510 -30.057177 5.016257 24.000000
9.993179 7.244493 0.891244 243.000000
19.840410 -4.228068 3.376502 32.000000
12.443012 -9.123594 2.618010 31.000000
17.368816 -30.266388 5.053459 15.000000
9.987487 7.237707 0.871150 237.000000
19.827982 -4.225420 3.330766 28.000000
12.461854 -9.137409 2.599782 34.000000
17.404264 -30.315901 5.018638 15.000000
9.965043 7.277297 0.869349 247.000000
30.152372 6.590821 3.981186 10.000000
19.861792 -4.156581 3.308409 67.000000
12.526098 -9.114112 2.583962 34.000000
17.414150 -30.077271 4.946338 21.000000
9.967581 7.332634 0.873968 245.000000
29.830395 6.629628 3.930861 17.000000
19.951519 -4.102717 3.302704 135.000000
12.577602 -9.081268 2.571008 31.000000
17.506903 -29.983494 4.904345 20.000000
9.932624 7.363178 0.873264 1.000000
29.846437 6.742608 3.930624 28.000000
20.412529 -4.123303 3.365424 28.000000
12.647134 -9.064478 2.564788 36.000000
17.694647 -30.051540 4.888808 24.000000
29.981695 6.888757 3.946278 7.000000
20.545443 -4.071834 3.373603 102.000000
12.697811 -9.030537 2.557163 33.000000
17.813812 -30.013811 4.867913 14.000000
9.963004 7.496763 0.887190 1.000000
30.512300 7.128509 4.013971 35.000000
20.503107 -3.989114 3.353125 43.000000
12.781025 -9.019362 2.553230 34.000000
14.161988 -23.662956 3.816830 17.000000
25.609320 19.417404 2.292429 32.000000
30.642332 7.271780 4.028805 8.000000
20.470818 -3.905017 3.334289 30.000000
12.846225 -8.998365 2.548725 31.000000
14.130387 -23.414970 3.755975 18.000000
25.719643 19.649931 2.320092 19.000000
31.372423 7.566607 4.128415 8.000000
20.398108 -3.817402 3.312826 38.000000
12.937321 -8.991672 2.548954 36.000000
25.531883 19.655100 2.326596 32.000000
31.842703 7.797750 4.188042 8.000000
20.320255 -3.725799 3.294245 37.000000
12.987541 -8.956160 2.543888 36.000000
14.009345 -22.834328 3.636344 16.000000
25.620440 19.866089 2.346659 8.000000
33.776863 8.402735 4.452622 8.000000
20.350050 -3.654219 3.285781 32.000000
13.040556 -8.925713 2.536836 33.000000
16.847378 -27.246309 4.325512 17.000000
33.826626 26.428259 3.122204 8.000000
33.882721 8.554771 4.464288 20.000000
20.442192 -3.597153 3.287470 131.000000
13.115857 -8.906837 2.530927 36.000000
16.962227 -27.208597 4.300879 8.000000
36.063522 28.389387 3.362411 28.000000
33.826363 8.672548 4.467215 21.000000
20.358465 -3.505541 3.268221 30.000000
13.176261 -8.880810 2.530898 33.000000
16.678383 -26.536148 4.181947 9.000000
35.856262 28.439707 3.376876 19.000000
33.901482 8.818039 4.481173 8.000000
20.454494 -3.448604 3.274263 191.000000
13.272132 -8.874858 2.528763 38.000000
16.769518 -26.465355 4.152624 36.000000
24.442871 19.533453 2.319693 33.000000
42.331627 11.176594 5.608632 9.000000
21.096207 -3.477324 3.371098 99.000000
13.346460 -8.853943 2.530994 34.000000
16.906038 -26.475943 4.141205 9.000000
22.400394 18.029699 2.146956 18.000000
21.050283 -3.394322 3.358032 95.000000
13.432017 -8.843336 2.532720 33.000000
22.262714 18.040863 2.144511 21.000000
42.382854 11.499281 5.633450 9.000000
21.047943 -3.322370 3.348261 155.000000
13.494769 -8.813920 2.526913 37.000000
22.361935 18.257454 2.170634 24.000000
42.642612 11.737725 5.665811 9.000000
21.246660 -3.277766 3.366498 56.000000
13.568385 -8.794587 2.523370 33.000000
22.545488 18.558647 2.211042 8.000000
39.660542 11.080883 5.267900 9.000000
22.447323 -3.370798 3.550509 29.000000
13.622416 -8.758871 2.518745 34.000000
22.787262 18.898203 2.257121 102.000000
22.687510 -3.334017 3.586826 30.000000
13.712331 -8.749183 2.520986 35.000000
21.763977 18.178154 2.171991 37.000000
39.570824 11.369177 5.288824 9.000000
22.829725 -3.261348 3.594841 29.000000
13.774275 -8.717834 2.520656 39.000000
22.142082 18.618959 2.220953 36.000000
39.231014 11.405089 5.240921 23.000000
23.042345 -3.217887 3.614234 35.000000
13.782512 -8.652458 2.504712 38.000000
19.178534 -28.411945 4.318297 10.000000
22.019550 18.654125 2.230706 11.000000
38.987408 11.489408 5.228390 9.000000
23.220436 -3.156035 3.640330 36.000000
13.772161 -8.579085 2.485778 37.000000
19.382515 -28.499102 4.317360 15.000000
22.803747 19.476240 2.339114 11.000000
38.921089 11.639874 5.232929 9.000000
23.339699 -3.089308 3.653106 36.000000
13.774447 -8.510593 2.477652 36.000000
19.252472 -28.085970 4.247328 14.000000
22.900970 19.697943 2.372038 12.000000
38.847000 11.765601 5.228457 9.000000
23.426058 -3.005103 3.660484 29.000000
13.780258 -8.447862 2.461831 39.000000
19.243782 -27.843433 4.191800 14.000000
39.134590 12.009472 5.280317 9.000000
28.427971 -3.556008 4.430059 163.000000
13.778437 -8.377420 2.447365 38.000000
17.852947 -25.629713 3.840680 10.000000
38.882313 12.080720 5.266386 9.000000
28.727306 -3.476386 4.469324 37.000000
13.785106 -8.312427 2.431626 36.000000
18.244875 -25.988747 3.881975 19.000000
30.527830 26.828794 3.234245 10.000000
38.942261 12.241096 5.272729 9.000000
45.505363 -5.353703 7.060437 15.000000
13.780824 -8.244387 2.420046 39.000000
18.251898 -25.816278 3.848432 53.000000
30.430351 26.950918 3.263417 19.000000
39.391834 12.556389 5.355056 9.000000
45.428600 -5.167904 7.037228 14.000000
13.782268 -8.176806 2.406440 40.000000
30.421371 27.123508 3.293561 10.000000
39.394058 12.708750 5.368703 9.000000
45.720558 -5.047596 7.079822 15.000000
13.777357 -8.109007 2.394919 39.000000
17.426651 -24.260685 3.583038 34.000000
30.509552 27.403505 3.335574 10.000000
38.993446 12.722428 5.319828 15.000000
45.704727 -4.884427 7.066475 15.000000
13.757173 -8.029383 2.374910 49.000000
18.506155 -25.584049 3.770757 20.000000
20.569830 6.794857 2.813540 6.000000
46.169670 -4.763027 7.135613 12.000000
13.779024 -7.974574 2.365100 37.000000
18.651068 -25.586380 3.758733 17.000000
32.426983 29.558054 3.607342 14.000000
20.569500 6.874475 2.816760 6.000000
46.263493 -4.609555 7.122667 10.000000
13.773889 -7.907547 2.348135 52.000000
32.333691 29.680321 3.623893 31.000000
39.002029 13.193872 5.354779 9.000000
50.179199 -4.814030 7.704748 18.000000
13.777696 -7.842732 2.338214 40.000000
12.979752 -17.528328 2.554476 7.000000
32.201344 29.777040 3.644389 12.000000
39.043098 13.359827 5.381435 9.000000
47.998085 -4.435750 7.384647 8.000000
13.784162 -7.782832 2.329041 38.000000
13.003243 -17.438835 2.532311 7.000000
38.988297 13.500908 5.387991 9.000000
47.988327 -4.257518 7.354879 16.000000
13.783439 -7.715936 2.315675 37.000000
12.999509 -17.301140 2.503906 7.000000
31.771841 29.814882 3.674023 7.000000
38.877720 13.622403 5.379574 11.000000
48.234364 -4.109704 7.390344 9.000000
13.784409 -7.656556 2.300316 39.000000
13.031158 -17.217783 2.479316 7.000000
31.570436 29.844242 3.686267 43.000000
38.884235 13.777268 5.401743 9.000000
13.798052 -7.601231 2.298151 37.000000
13.067851 -17.135387 2.462900 8.000000
31.421837 29.912153 3.696338 27.000000
38.860596 13.929413 5.412844 9.000000
13.790767 -7.525216 2.280687 39.000000
13.152802 -17.116310 2.451805 8.000000
31.252592 29.970160 3.719777 34.000000
38.632851 14.000151 5.402486 9.000000
13.787533 -7.461112 2.267451 46.000000
13.207431 -17.063784 2.435613 6.000000
31.094555 30.038155 3.736851 30.000000
38.667934 14.173417 5.429246 9.000000
13.811122 -7.408563 2.261265 36.000000
13.289260 -17.040108 2.423892 6.000000
30.907879 30.077597 3.750391 38.000000
47.634804 -3.197304 7.254394 16.000000
13.805727 -7.346818 2.250808 36.000000
13.376971 -17.023540 2.417015 5.000000
30.762629 30.146034 3.760661 34.000000
47.461254 -3.010959 7.209250 16.000000
13.817710 -7.285252 2.237054 36.000000
13.493021 -17.042278 2.407477 5.000000
30.585783 30.193285 3.790340 33.000000
36.335537 13.780808 5.143758 12.000000
47.582451 -2.851921 7.243127 16.000000
13.822386 -7.223097 2.233510 26.000000
13.602543 -17.045712 2.403764 4.000000
30.463348 30.272541 3.802696 11.000000
36.430931 13.948061 5.163440 9.000000
48.005093 -2.717521 7.280295 16.000000
13.877150 -7.196304 2.227559 33.000000
13.666529 -17.009888 2.385819 5.000000
30.293961 30.346880 3.826900 16.000000
36.266949 14.037901 5.161270 12.000000
48.285805 -2.564355 7.321465 16.000000
13.899721 -7.143486 2.221398 72.000000
13.679785 -16.899158 2.361946 1.000000
30.119900 30.362696 3.839515 22.000000
36.032726 14.099312 5.155875 9.000000
48.477577 -2.396393 7.349162 16.000000
13.917676 -7.088350 2.214539 39.000000
13.918355 -17.065590 2.380656 4.000000
29.892046 30.375917 3.840979 31.000000
48.436642 -2.216438 7.341676 9.000000
13.930109 -7.033553 2.204263 40.000000
29.733397 30.437044 3.864851 27.000000
59.922691 -2.532459 9.049130 7.000000
13.956825 -6.982965 2.196092 39.000000
19.520002 -23.587246 3.261184 9.000000
29.553421 30.475471 3.893305 37.000000
59.809845 -2.308117 9.052122 9.000000
13.977023 -6.932174 2.192672 49.000000
19.527811 -23.421379 3.231978 35.000000
29.380297 30.509323 3.899414 31.000000
59.980579 -2.105049 9.076795 8.000000
13.998578 -6.879053 2.186532 49.000000
19.570194 -23.298067 3.203359 37.000000
29.277550 30.605106 3.921591 27.000000
36.198265 14.919847 5.265791 9.000000
60.417789 -1.898705 9.141843 4.000000
14.011026 -6.821530 2.179010 9.000000
19.607878 -23.178162 3.174836 40.000000
29.047201 30.587973 3.928005 23.000000
35.977345 14.961190 5.240466 9.000000
59.824299 -1.671044 9.029736 8.000000
14.053960 -6.781849 2.170886 21.000000
19.658646 -23.066183 3.147958 38.000000
28.872015 30.627523 3.941699 34.000000
35.887905 15.093257 5.250058 9.000000
59.464272 -1.442891 8.974536 6.000000
14.057063 -6.719940 2.162003 35.000000
19.711727 -22.957491 3.126949 38.000000
28.711979 30.693027 3.958112 30.000000
32.581539 13.836756 4.785986 16.000000
59.300884 -1.231822 8.949173 9.000000
14.070014 -6.659880 2.154507 35.000000
19.709305 -22.785168 3.092040 38.000000
28.591209 30.767803 3.985091 27.000000
32.524834 13.940162 4.796999 24.000000
14.101669 -6.617714 2.150441 33.000000
19.751276 -22.673244 3.059675 36.000000
28.381241 30.788786 4.002519 33.000000
32.439800 14.058125 4.805311 29.000000
14.110831 -6.553023 2.142275 35.000000
19.802135 -22.564114 3.044134 35.000000
28.223106 30.843317 4.018225 29.000000
30.242126 13.231322 4.498320 21.000000
14.129798 -6.501969 2.136164 32.000000
19.847809 -22.433867 3.016161 33.000000
28.067730 30.867672 4.031938 29.000000
30.179237 13.323215 4.501378 22.000000
14.160974 -6.459498 2.132092 35.000000
19.853415 -22.298651 2.985300 33.000000
27.915838 30.927608 4.055735 30.000000
30.209309 13.481651 4.531543 26.000000
60.682781 -0.169459 9.123283 12.000000
14.176201 -6.403780 2.125305 22.000000
19.921995 -22.226828 2.963468 45.000000
27.775158 30.977667 4.072191 27.000000
30.644909 13.791659 4.609337 8.000000
60.396420 0.021082 9.112536 25.000000
14.192066 -6.357337 2.121914 31.000000
19.927324 -22.069489 2.941727 37.000000
27.557457 30.962435 4.078797 34.000000
60.339787 0.242221 9.082524 1.000000
14.225680 -6.309896 2.112402 28.000000
19.956224 -21.939297 2.907970 34.000000
27.460497 31.071211 4.109705 32.000000
29.864117 13.698088 4.518211 17.000000
58.721748 0.450960 8.839162 8.000000
14.226704 -6.248048 2.103615 27.000000
20.034508 -21.863829 2.886780 43.000000
27.282669 31.098969 4.121998 31.000000
29.794617 13.785981 4.526265 29.000000
14.253642 -6.200619 2.098860 32.000000
20.037477 -21.714407 2.860652 33.000000
27.107321 31.128502 4.149097 28.000000
29.921555 13.990815 4.565794 36.000000
56.235256 0.834328 8.465561 17.000000
14.280824 -6.150294 2.099529 25.000000
20.084061 -21.605459 2.840389 34.000000
26.969322 31.200199 4.159993 34.000000
56.691742 1.039047 8.534774 15.000000
14.280760 -6.091260 2.085346 20.000000
20.130444 -21.496815 2.815037 29.000000
26.819475 31.246643 4.182720 33.000000
58.645023 1.289879 8.829487 8.000000
14.312455 -6.042874 2.083965 29.000000
20.128466 -21.337412 2.783141 36.000000
26.645283 31.274906 4.195138 30.000000
30.627277 14.720167 4.739446 8.000000
54.987511 1.401484 8.279505 22.000000
14.339750 -5.992567 2.079205 22.000000
20.152399 -21.213940 2.760736 9.000000
26.592808 31.446068 4.234048 14.000000
29.587587 14.341442 4.597594 9.000000
56.297199 1.621691 8.477468 23.000000
14.365830 -5.944647 2.074441 30.000000
20.241671 -21.152113 2.741707 36.000000
26.768808 31.879219 4.309133 10.000000
29.614275 14.501474 4.610749 19.000000
56.263859 1.836973 8.453353 7.000000
14.351499 -5.877202 2.063738 36.000000
9.771316 -10.136180 1.311035 220.000000
26.758110 32.104687 4.355816 10.000000
29.562687 14.591535 4.621565 26.000000
56.157154 2.019933 8.448311 17.000000
14.410358 -5.839724 2.063587 35.000000
9.802100 -10.093810 1.300285 212.000000
26.882875 32.495811 4.417808 11.000000
29.408613 14.649778 4.629233 33.000000
55.810490 2.212312 8.417260 10.000000
14.412254 -5.782005 2.060956 34.000000
9.813223 -10.034939 1.292165 206.000000
26.995054 32.864315 4.477583 11.000000
29.122829 14.634522 4.592260 8.000000
54.955704 2.370589 8.269904 6.000000
14.425138 -5.725883 2.051514 37.000000
9.808792 -9.957136 1.274468 209.000000
27.035315 33.160385 4.542143 11.000000
54.756084 2.563076 8.260791 13.000000
14.431860 -5.670318 2.044136 55.000000
9.824643 -9.900382 1.264441 206.000000
27.152405 33.554367 4.612923 11.000000
29.837301 15.281663 4.765065 10.000000
14.462451 -5.621234 2.040027 38.000000
9.843882 -9.847320 1.252463 190.000000
27.267431 33.950230 4.676635 11.000000
49.257587 2.659073 7.425134 33.000000
14.474034 -5.564758 2.036017 104.000000
9.837969 -9.769525 1.239828 175.000000
27.407057 34.369118 4.752175 12.000000
26.740847 13.938204 4.297114 27.000000
49.363873 2.837659 7.460255 31.000000
14.512569 -5.521505 2.033200 137.000000
9.844102 -9.707603 1.229027 189.000000
27.420738 34.646023 4.807743 6.000000
26.632919 13.988524 4.308242 28.000000
49.417297 3.022491 7.469953 31.000000
14.533374 -5.468527 2.027780 32.000000
9.858871 -9.651151 1.216739 189.000000
25.422520 13.471894 4.120403 10.000000
14.497889 -5.394597 2.017311 9.000000
9.851769 -9.573738 1.204275 194.000000
27.679514 35.479191 4.944111 7.000000
25.318691 13.535963 4.126931 28.000000
14.512638 -5.342487 2.011266 8.000000
9.854980 -9.506877 1.193176 203.000000
27.929779 36.084820 5.053831 13.000000
25.261305 13.618878 4.135526 29.000000
14.695860 -5.348856 2.028377 38.000000
9.807609 -9.392024 1.173713 135.000000
28.001631 36.426575 5.121134 13.000000
25.405579 13.817078 4.177712 39.000000
14.832343 -5.337048 2.041703 6.000000
9.761357 -9.282629 1.157188 118.000000
28.147146 36.894947 5.188843 13.000000
25.247442 13.845489 4.169892 31.000000
9.737790 -9.192487 1.143329 90.000000
28.264984 37.318825 5.267643 14.000000
25.190285 13.934480 4.184249 28.000000
38.742611 3.205646 5.865412 10.000000
13.257273 -4.663422 1.812770 5.000000
9.742914 -9.130024 1.130605 6.000000
28.130634 37.452873 5.303699 14.000000
25.088358 13.992692 4.185647 33.000000
13.325588 -4.635246 1.814882 5.000000
20.698973 -19.254879 2.378874 9.000000
28.393171 38.064625 5.410547 8.000000
25.048567 14.091111 4.197842 21.000000
38.249878 3.440629 5.801250 15.000000
13.328718 -4.581641 1.810508 5.000000
28.925964 39.062675 5.572402 14.000000
23.790058 13.498162 4.009823 7.000000
39.064213 3.644508 5.933562 10.000000
13.278699 -4.515266 1.796694 9.000000
29.136183 39.649601 5.675662 11.000000
23.668581 13.538672 4.007013 26.000000
38.449615 3.736145 5.842346 4.000000
13.310340 -4.469082 1.796149 1.000000
29.186722 40.024986 5.757854 15.000000
23.667788 13.653590 4.034813 39.000000
38.703129 3.904024 5.903836 10.000000
13.514927 -4.482722 1.821527 2.000000
28.970501 40.035885 5.779078 19.000000
23.887512 13.891703 4.095299 7.000000
38.678730 4.044824 5.902336 10.000000
13.315059 -4.362323 1.787452 6.000000
29.072756 40.473923 5.845257 9.000000
23.648716 13.869072 4.063046 36.000000
39.781075 4.300534 6.065662 9.000000
13.614231 -4.407775 1.817922 7.000000
29.241753 41.025707 5.945086 9.000000
23.666441 13.990720 4.089170 30.000000
39.679424 4.436736 6.066860 9.000000
13.578626 -4.341328 1.808503 120.000000
17.888966 -15.815691 1.921165 12.000000
29.856525 42.214733 6.147246 9.000000
23.608299 14.073371 4.107624 34.000000
35.509735 4.083496 5.437644 9.000000
13.555110 -4.284316 1.803469 248.000000
18.037724 -15.829802 1.914035 16.000000
29.957539 42.672745 6.235592 17.000000
23.581375 14.174722 4.116860 38.000000
35.419422 4.217241 5.426364 15.000000
13.581234 -4.235284 1.802245 255.000000
18.062548 -15.734774 1.897915 9.000000
29.744528 42.701279 6.260643 17.000000
23.618092 14.309260 4.151678 25.000000
35.203899 4.303786 5.401723 16.000000
13.600243 -4.191777 1.800389 214.000000
29.791351 43.104500 6.340822 17.000000
35.143749 4.427225 5.394948 9.000000
13.588362 -4.131051 1.791666 9.000000
12.418089 -10.658637 1.279338 8.000000
30.839895 44.956322 6.635977 5.000000
22.514265 13.861703 3.998575 8.000000
13.654548 -4.101757 1.796062 5.000000
12.408354 -10.579022 1.266124 8.000000
30.658340 45.044704 6.670998 19.000000
22.340319 13.867784 3.986071 9.000000
38.759377 5.164720 5.969473 9.000000
13.676260 -4.048496 1.791708 5.000000
12.377072 -10.470551 1.250281 7.000000
30.645945 45.383202 6.743257 19.000000
24.171600 15.121695 4.337482 37.000000
13.632770 -3.986501 1.781751 5.000000
12.362251 -10.380516 1.239264 7.000000
30.468136 45.461250 6.777799 17.000000
22.760159 14.355036 4.103230 8.000000
36.855583 5.179715 5.688474 25.000000
13.627236 -3.933300 1.781737 5.000000
12.285817 -10.239791 1.219408 4.000000
30.543179 45.936386 6.871006 5.000000
22.609648 14.376210 4.099925 21.000000
36.637741 5.286107 5.677639 35.000000
13.629198 -3.874665 1.774921 5.000000
21.232357 -17.564934 2.086466 15.000000
31.461943 47.696423 7.157483 20.000000
22.607449 14.485881 4.123059 31.000000
36.878185 5.452273 5.717815 9.000000
13.617718 -3.825203 1.769345 5.000000
21.259706 -17.462919 2.068663 20.000000
31.444672 48.034191 7.232367 21.000000
22.594507 14.594678 4.140038 31.000000
31.692204 4.804311 4.922173 9.000000
13.584129 -3.762107 1.760679 5.000000
21.312813 -17.376112 2.053140 35.000000
31.251448 48.123005 7.279320 17.000000
22.429787 14.599490 4.133514 33.000000
31.732988 4.923869 4.936884 9.000000
13.650773 -3.726748 1.765027 5.000000
22.402626 14.698989 4.157564 11.000000
32.025375 5.089511 4.996828 9.000000
13.697236 -3.688105 1.769359 33.000000
32.200172 50.388744 7.681600 21.000000
22.411179 14.816766 4.183132 35.000000
31.855349 5.176559 4.978855 9.000000
13.686980 -3.631594 1.763793 255.000000
16.681332 -13.297475 1.562842 9.000000
32.159126 50.674671 7.741693 21.000000
22.414160 14.925789 4.202532 29.000000
13.719700 -3.586502 1.763790 233.000000
31.901672 50.717873 7.781829 8.000000
22.565464 15.157647 4.256856 10.000000
13.732433 -3.538666 1.761315 176.000000
35.562962 6.174756 5.587808 8.000000
13.717048 -3.481138 1.752677 8.000000
33.230152 53.678387 8.300237 18.000000
21.844193 14.901097 4.173905 26.000000
32.308868 5.726001 5.091349 10.000000
18.850649 -4.713976 2.409943 10.000000
21.948967 15.085107 4.218255 9.000000
32.009670 5.794061 5.053327 8.000000
18.757391 -4.617672 2.392417 9.000000
15.055777 -11.561057 1.344032 1.000000
33.479347 54.977356 8.554365 9.000000
10.213437 7.074757 1.972283 1.000000
32.255600 5.954933 5.101265 9.000000
19.473879 -4.718423 2.478029 29.000000
15.150180 -11.545523 1.338649 1.000000
33.729053 55.781136 8.709219 18.000000
22.486732 15.681128 4.366546 16.000000
33.040794 6.213265 5.234684 31.000000
19.534090 -4.660883 2.480047 78.000000
15.252201 -11.543521 1.340919 1.000000
33.839699 56.474892 8.854741 16.000000
22.466152 15.801195 4.389579 33.000000
32.836281 6.305442 5.212058 19.000000
19.918629 -4.675540 2.523050 22.000000
15.404669 -11.566153 1.340273 7.000000
34.155602 57.433216 9.034689 4.000000
22.527952 15.956584 4.431736 16.000000
30.082983 5.880239 4.794540 28.000000
19.959379 -4.607985 2.529685 22.000000
15.375520 -11.464734 1.324332 7.000000
34.246933 58.116554 9.192425 3.000000
10.207334 7.288887 2.024723 4.000000
30.064203 5.996508 4.800663 24.000000
19.733391 -4.483317 2.499044 98.000000
15.525886 -11.480166 1.329917 8.000000
10.207731 7.345809 2.036886 1.000000
30.057035 6.098785 4.813690 31.000000
19.648413 -4.388340 2.482661 35.000000
15.528200 -11.394083 1.316397 8.000000
35.226078 60.719315 9.665815 6.000000
10.193439 7.389670 2.043679 1.000000
30.483507 6.301734 4.891223 21.000000
19.630856 -4.308940 2.474870 31.000000
15.610739 -11.366860 1.309695 8.000000
34.854431 60.638199 9.692753 23.000000
10.212657 7.460857 2.064331 5.000000
29.071148 6.126252 4.673657 8.000000
19.606548 -4.231923 2.473482 26.000000
15.739637 -11.376861 1.310360 8.000000
34.805202 60.995277 9.782278 6.000000
10.153887 7.472422 2.064489 1.000000
28.903397 6.191075 4.665825 35.000000
19.573805 -4.149830 2.463871 15.000000
15.805739 -11.336674 1.308984 9.000000
10.168113 7.534999 2.076987 5.000000
19.578033 -4.079367 2.466139 117.000000
15.802981 -11.255520 1.298855 10.000000
10.076306 7.524335 2.070616 1.000000
29.676418 6.579104 4.808966 8.000000
20.361446 -4.164793 2.559199 98.000000
15.812089 -11.174880 1.286045 8.000000
10.052184 7.561120 2.084601 1.000000
29.562460 6.662188 4.821349 9.000000
20.252920 -4.068993 2.554738 40.000000
15.840479 -11.099864 1.284719 8.000000
20.277872 -3.996741 2.552359 32.000000
15.728130 -10.939479 1.262428 8.000000
29.635767 6.901912 4.863019 9.000000
20.306566 -3.925133 2.557807 63.000000
15.715238 -10.853365 1.255149 6.000000
29.462843 6.975581 4.860486 29.000000
20.329453 -3.855992 2.562646 92.000000
15.648083 -10.722491 1.243313 7.000000
29.374945 6.949357 4.894435 12.000000
20.338978 -3.861475 2.600626 103.000000
15.644947 -10.724355 1.266488 6.000000
22.081284 16.864103 4.704393 9.000000
20.334225 -3.934160 2.609102 110.000000
15.727933 -10.866188 1.289827 4.000000
10.002096 7.583752 2.120775 1.000000
20.231615 -3.991292 2.601452 27.000000
21.475824 -14.953898 1.784041 8.000000
10.105268 7.603811 2.132188 6.000000
29.533094 6.655571 4.914124 11.000000
20.239826 -4.070038 2.615391 38.000000
21.493601 -15.083549 1.803911 5.000000
10.147847 7.580516 2.133302 5.000000
28.963781 6.415812 4.820763 10.000000
10.029599 7.435067 2.098219 1.000000
28.956245 6.308189 4.821123 8.000000
19.572329 -4.081743 2.547029 97.000000
15.864893 -11.307965 1.362344 20.000000
34.722069 60.898956 9.952042 9.000000
10.139483 7.461823 2.111227 1.000000
29.404680 6.293082 4.886526 22.000000
19.585035 -4.159355 2.561305 15.000000
34.912350 60.738964 9.908334 21.000000
10.139185 7.404469 2.103247 1.000000
29.778179 6.264391 4.950382 17.000000
19.612850 -4.240448 2.570517 26.000000
34.934586 60.265320 9.802290 7.000000
10.197803 7.392833 2.103261 1.000000
30.434940 6.286156 5.050132 18.000000
19.605547 -4.314147 2.582299 28.000000
16.418159 -11.976717 1.463854 1.000000
10.205111 7.341221 2.096950 3.000000
30.302782 6.148649 5.019072 23.000000
19.638321 -4.393284 2.592191 36.000000
16.343691 -12.010027 1.468060 1.000000
34.126507 57.912193 9.375291 8.000000
10.227552 7.303325 2.089547 9.000000
29.999958 5.972806 4.970735 31.000000
19.708683 -4.484938 2.607216 93.000000
16.402723 -12.146239 1.495257 4.000000
34.014679 57.241718 9.251331 5.000000
22.613937 16.023415 4.603155 12.000000
30.073051 5.878298 4.984905 28.000000
19.961761 -4.619546 2.650189 24.000000
16.489559 -12.304375 1.514495 4.000000
33.815479 56.456821 9.096671 22.000000
22.550653 15.860628 4.564144 38.000000
32.950153 6.315383 5.451929 25.000000
18.920540 -4.451711 2.521001 232.000000
16.583204 -12.469135 1.538206 4.000000
33.687431 55.778236 8.960813 17.000000
22.552656 15.738802 4.547911 23.000000
18.971542 -4.533658 2.536814 97.000000
16.627720 -12.598270 1.564914 7.000000
33.482536 55.004204 8.820833 15.000000
10.227675 7.084620 2.053026 1.000000
32.149067 5.923661 5.318088 9.000000
19.087221 -4.642376 2.561726 109.000000
16.616444 -12.685859 1.579226 7.000000
33.116997 53.957432 8.627350 1.000000
21.972675 15.101401 4.385149 33.000000
18.734337 -4.622402 2.519834 9.000000
16.675652 -12.828077 1.604084 8.000000
33.273628 53.790562 8.585457 4.000000
21.891386 14.933290 4.353746 32.000000
32.265358 5.706674 5.318694 10.000000
18.938023 -4.742849 2.559839 25.000000
12.100509 -9.379353 1.175349 31.000000
22.011490 14.908503 4.358247 9.000000
35.664761 6.186018 5.869161 9.000000
13.692795 -3.482615 1.855067 244.000000
12.018417 -9.386439 1.178741 7.000000
31.956926 50.864784 8.068484 22.000000
22.528053 15.143931 4.435438 40.000000
13.718023 -3.542614 1.862747 255.000000
12.085300 -9.510193 1.196812 7.000000
32.103973 50.705055 8.039548 22.000000
22.511288 15.001811 4.415397 27.000000
31.997147 5.314308 5.265018 10.000000
13.723181 -3.597649 1.872782 210.000000
12.131728 -9.618937 1.215768 8.000000
32.247280 50.520748 7.986422 22.000000
21.769468 14.408895 4.251641 10.000000
32.068180 5.211144 5.279501 13.000000
13.647948 -3.628888 1.866740 23.000000
12.132634 -9.688822 1.227420 7.000000
21.783600 14.292829 4.229158 38.000000
31.560200 4.998644 5.175354 30.000000
13.662955 -3.686548 1.873141 5.000000
12.143137 -9.770314 1.240310 7.000000
31.218328 48.108765 7.550287 20.000000
22.017206 14.336413 4.250652 9.000000
13.653500 -3.737736 1.878739 5.000000
12.265479 -9.943027 1.264839 7.000000
31.400829 48.040375 7.535475 20.000000
22.653236 14.643821 4.364046 34.000000
13.668073 -3.793061 1.890113 5.000000
12.239474 -9.989388 1.276668 7.000000
31.454103 47.738903 7.465624 18.000000
22.669661 14.531325 4.341962 33.000000
13.649627 -3.841878 1.886978 3.000000
17.524651 -14.420540 1.845935 22.000000
30.403025 45.794907 7.139140 5.000000
22.673189 14.427732 4.323825 18.000000
37.097313 5.345804 6.077230 21.000000
13.801299 -3.939218 1.917578 4.000000
17.591114 -14.573333 1.870057 10.000000
30.432783 45.477119 7.068096 19.000000
22.822187 14.399729 4.327170 8.000000
36.945587 5.185788 6.049221 18.000000
13.634799 -3.943217 1.898866 5.000000
17.531466 -14.642989 1.886004 19.000000
30.598551 45.364216 7.038806 19.000000
24.315107 15.217380 4.594491 25.000000
13.671927 -4.008315 1.911133 5.000000
17.464233 -14.690628 1.896308 26.000000
30.595678 45.020176 6.953670 19.000000
24.145864 15.000257 4.532736 19.000000
13.614073 -4.045599 1.907629 8.000000
29.867725 43.604385 6.733105 6.000000
22.516781 13.879516 4.217799 31.000000
38.674862 5.009260 6.309300 22.000000
13.590059 -4.090143 1.908774 191.000000
29.722832 43.053535 6.627710 17.000000
22.548317 13.785167 4.200025 13.000000
38.686974 4.866723 6.315307 26.000000
13.588237 -4.143970 1.918213 255.000000
11.165104 -9.603504 1.249611 26.000000
29.708445 42.713032 6.554313 17.000000
22.656662 13.742990 4.201762 8.000000
39.095657 4.779566 6.379259 10.000000
13.586519 -4.197936 1.925184 255.000000
11.133100 -9.647195 1.257747 5.000000
29.889544 42.639156 6.532049 17.000000
39.118923 4.636953 6.373184 10.000000
13.552547 -4.239319 1.924979 203.000000
29.717402 42.080311 6.425762 13.000000
23.672329 14.128345 4.356463 28.000000
38.959446 4.480201 6.337591 9.000000
13.517385 -4.282774 1.927242 9.000000
20.958519 -18.431963 2.417312 16.000000
29.125324 40.922783 6.238556 14.000000
23.666409 14.007427 4.331138 21.000000
38.960888 4.335739 6.335198 10.000000
13.652232 -4.380624 1.951293 5.000000
20.971409 -18.573519 2.441041 14.000000
28.901669 40.295082 6.123823 14.000000
23.784613 13.965511 4.333956 70.000000
39.654144 4.272809 6.438317 10.000000
13.532870 -4.394485 1.938943 4.000000
20.909670 -18.656038 2.456582 10.000000
28.967350 40.075695 6.071530 25.000000
23.836945 13.879004 4.324328 114.000000
38.690342 4.025559 6.293329 25.000000
13.538914 -4.451368 1.952268 1.000000
20.873207 -18.761364 2.480106 10.000000
29.112473 39.981770 6.037613 20.000000
23.728922 13.705422 4.281327 35.000000
38.764191 3.896514 6.296112 8.000000
13.382598 -4.451798 1.929450 5.000000
20.866425 -18.893991 2.497414 22.000000
29.028097 39.560364 5.972621 15.000000
23.744703 13.598720 4.275153 31.000000
38.675041 3.744422 6.279361 15.000000
13.256941 -4.464030 1.923628 6.000000
20.810131 -18.982288 2.523763 15.000000
28.891136 39.086914 5.881900 10.000000
23.824039 13.533938 4.266210 8.000000
