VERSION .7
FIELDS x y z intensity
SIZE 4 4 4 4
TYPE F F F F
COUNT 1 1 1 1
WIDTH 1227
HEIGHT 1
VIEWPOINT 0 0 0 1 0 0 0
POINTS 1227
DATA ascii
12.062521 -2.436613 -1.152440 1.000000
11.544318 2.599507 -0.794270 1.000000
12.154186 -2.408798 -1.162528 1.000000
11.554569 2.646350 -0.789403 1.000000
12.309951 -2.390582 -1.176540 1.000000
23.666615 41.915905 0.638534 33.000000
5.074558 3.821178 -0.182986 1.000000
11.360679 2.645803 -0.768634 1.000000
12.382407 -2.357591 -1.180412 1.000000
23.483181 41.949409 0.688083 251.000000
5.018199 3.804881 -0.174807 1.000000
11.190820 2.649523 -0.755778 1.000000
12.542260 -2.340424 -1.199318 1.000000
23.338610 42.034729 0.746895 255.000000
11.137884 2.680138 -0.744830 1.000000
23.338352 42.034267 0.780460 255.000000
11.206805 2.696723 -0.733278 1.000000
12.924601 -2.362782 -1.216537 1.000000
23.485189 41.935825 0.746662 247.000000
11.338006 2.684370 -0.741214 1.000000
12.716010 -2.372846 -1.188606 1.000000
23.663694 41.910732 0.705671 53.000000
5.178824 3.882720 -0.172885 1.000000
11.391633 2.653012 -0.742029 1.000000
12.424532 -2.365612 -1.151034 1.000000
11.619904 2.661313 -0.760436 1.000000
12.293771 -2.387440 -1.137519 1.000000
11.732068 2.641784 -0.762923 1.000000
12.197171 -2.417317 -1.122867 1.000000
46.951874 81.126709 1.079783 1.000000
11.829237 2.618147 -0.770735 1.000000
12.061698 -2.436447 -1.106880 1.000000
5.966754 -4.240351 -0.716445 1.000000
12.029105 2.613973 -0.787412 1.000000
11.989841 -2.467704 -1.094647 1.000000
5.724871 -4.118284 -0.680298 1.000000
21.750465 36.969212 0.419242 1.000000
12.282734 2.621981 -0.801179 1.000000
11.907974 -2.496383 -1.083720 1.000000
5.786686 -4.195023 -0.684430 1.000000
21.882139 36.897720 0.374368 34.000000
12.497097 2.619886 -0.819005 1.000000
11.888745 -2.540046 -1.080711 3.000000
5.763618 -4.210612 -0.678494 10.000000
19.087358 31.905289 0.279030 7.000000
12.799997 2.634447 -0.835927 1.000000
11.771941 -2.564546 -1.064663 5.000000
19.169918 31.803432 0.252768 103.000000
12.902207 2.606228 -0.846586 2.000000
11.788051 -2.609031 -1.062649 1.000000
8.787069 -6.478386 -1.024276 16.000000
19.317289 31.796356 0.214284 164.000000
4.911316 3.423634 -0.194420 1.000000
13.175828 2.611274 -0.866261 1.000000
11.759512 -2.647964 -1.054585 1.000000
8.843763 -6.570353 -1.025926 9.000000
19.462212 31.784344 0.175630 69.000000
4.758719 3.292636 -0.192978 1.000000
11.744761 -2.692067 -1.049943 1.000000
8.824463 -6.606347 -1.014847 1.000000
20.944479 33.925243 0.153089 1.000000
11.710738 -2.729484 -1.045674 1.000000
20.943983 33.661011 0.110710 9.000000
11.705856 -2.773620 -1.041908 1.000000
9.343960 -7.102738 -1.061960 27.000000
21.022095 33.512089 0.069045 9.000000
19.794275 3.622217 -1.301294 12.000000
11.686629 -2.814342 -1.032653 7.000000
9.275251 -7.104300 -1.044769 28.000000
21.149662 33.455456 0.027632 9.000000
19.748655 3.535555 -1.304425 24.000000
11.686090 -2.859568 -1.031409 1.000000
9.241840 -7.132605 -1.035729 23.000000
21.311989 33.453117 -0.020769 7.000000
19.751427 3.461387 -1.307276 51.000000
11.680206 -2.905707 -1.027635 8.000000
9.251591 -7.194389 -1.031524 1.000000
19.744085 3.385559 -1.309471 54.000000
11.607376 -2.932807 -1.013748 27.000000
17.193384 -13.471645 -1.899453 8.000000
19.820103 3.323860 -1.317219 4.000000
11.596720 -2.975374 -1.011658 4.000000
17.113907 -13.510900 -1.876961 8.000000
19.787840 3.243929 -1.314276 4.000000
11.576436 -3.015435 -1.006640 9.000000
17.061394 -13.571245 -1.861312 8.000000
19.799370 3.171345 -1.317776 10.000000
11.580095 -3.061755 -1.003717 6.000000
16.997248 -13.622234 -1.840603 8.000000
19.820492 3.100262 -1.321933 9.000000
11.587839 -3.111456 -1.001199 7.000000
17.004869 -13.726102 -1.831241 8.000000
19.870949 3.033584 -1.328071 9.000000
11.562439 -3.150115 -0.993677 6.000000
16.993378 -13.829853 -1.816714 7.000000
19.891516 2.965709 -1.325220 7.000000
11.560757 -3.195220 -0.990317 11.000000
16.983578 -13.915753 -1.797441 7.000000
19.921816 2.892076 -1.337076 9.000000
11.568492 -3.243044 -0.987769 11.000000
16.921892 -13.969185 -1.780899 8.000000
19.977465 2.821873 -1.336537 8.000000
11.571239 -3.289605 -0.984799 9.000000
16.894760 -14.051223 -1.764150 7.000000
20.086292 2.762195 -1.346686 5.000000
11.569011 -3.334849 -0.981412 6.000000
16.858488 -14.135926 -1.746952 7.000000
19.977367 2.672648 -1.342250 1.000000
11.580364 -3.386336 -0.979231 6.000000
16.812447 -14.192536 -1.731592 7.000000
27.039845 38.688713 -0.584942 1.000000
6.479174 0.816212 -0.437182 1.000000
11.563749 -3.427534 -0.970407 4.000000
16.810827 -14.297020 -1.717435 7.000000
27.209885 38.629700 -0.635042 27.000000
6.353296 0.776710 -0.429616 5.000000
11.579749 -3.478498 -0.972813 1.000000
16.765783 -14.375091 -1.699327 8.000000
27.425247 38.648182 -0.678280 7.000000
6.321085 0.751506 -0.428383 7.000000
11.605714 -3.532724 -0.967552 7.000000
16.798616 -14.500176 -1.684144 7.000000
6.323977 0.726117 -0.429494 9.000000
11.612061 -3.581213 -0.964900 6.000000
16.655945 -14.483897 -1.659654 6.000000
4.896945 2.855814 -0.264361 1.000000
11.627724 -3.632767 -0.963022 1.000000
16.666388 -14.595458 -1.646320 7.000000
23.590593 32.493511 -0.693880 4.000000
11.624155 -3.678470 -0.959555 1.000000
16.651243 -14.690379 -1.630648 8.000000
23.653259 32.341763 -0.734372 10.000000
11.686211 -3.747533 -0.961548 1.000000
16.628166 -14.778754 -1.614165 7.000000
23.736275 32.230415 -0.768570 24.000000
11.710804 -3.802811 -0.958225 1.000000
16.597223 -14.860493 -1.596895 7.000000
23.859278 32.138264 -0.817472 9.000000
11.734989 -3.858268 -0.957017 3.000000
9.195755 -8.294437 -0.878995 27.000000
24.087086 32.197872 -0.870377 3.000000
11.749466 -3.910805 -0.955012 1.000000
9.136325 -8.301764 -0.865391 21.000000
20.558887 27.282564 -0.763302 8.000000
11.810959 -3.979417 -0.956813 1.000000
9.062238 -8.295286 -0.850474 25.000000
20.606863 27.138702 -0.797087 9.000000
11.862670 -4.045315 -0.957796 1.000000
9.052108 -8.344274 -0.841457 8.000000
20.688803 27.050043 -0.832282 8.000000
17.946732 -6.193573 -1.440850 6.000000
16.391668 -15.221419 -1.509287 7.000000
20.805662 26.997202 -0.862759 8.000000
17.759638 -6.201943 -1.421040 8.000000
16.416878 -15.357268 -1.497074 7.000000
20.945045 27.002190 -0.894859 8.000000
17.587904 -6.210936 -1.402477 9.000000
16.419521 -15.472975 -1.482702 7.000000
52.418926 67.069038 -2.318240 1.000000
17.366335 -6.211210 -1.377075 10.000000
7.591973 -7.207032 -0.678771 6.000000
52.801342 67.026299 -2.413176 1.000000
17.142282 -6.202036 -1.354703 9.000000
7.339881 -7.016593 -0.651300 1.000000
53.000248 66.821747 -2.486615 28.000000
6.173221 0.389468 -0.423854 1.000000
16.965790 -6.208597 -1.329863 10.000000
16.272022 -15.669861 -1.421263 7.000000
27.059608 33.848492 -1.308870 26.000000
16.756075 -6.201585 -1.312062 9.000000
16.286648 -15.799403 -1.415662 4.000000
27.189777 33.781029 -1.347619 29.000000
16.603104 -6.214252 -1.292527 10.000000
16.243786 -15.873801 -1.397088 6.000000
25.323166 31.226904 -1.291566 10.000000
16.419563 -6.207711 -1.273674 21.000000
16.232595 -15.979596 -1.381201 7.000000
25.298378 30.974701 -1.326704 10.000000
16.232113 -6.211429 -1.251910 9.000000
7.465011 -7.400149 -0.626331 5.000000
25.337959 30.792112 -1.357691 10.000000
16.098013 -6.227851 -1.237263 8.000000
7.431158 -7.420790 -0.616571 202.000000
25.469879 30.733149 -1.400852 10.000000
15.938709 -6.227065 -1.214592 9.000000
25.555935 30.607952 -1.434247 10.000000
15.811740 -6.250736 -1.203837 8.000000
25.632700 30.482979 -1.474338 6.000000
15.664251 -6.258912 -1.185470 8.000000
7.243213 -7.391362 -0.580396 107.000000
25.549637 30.159094 -1.497734 1.000000
15.563342 -6.284839 -1.167794 6.000000
7.011103 -7.207159 -0.553348 179.000000
25.730326 30.147644 -1.543405 2.000000
15.536150 -6.340185 -1.158661 6.000000
25.697739 29.897482 -1.569638 4.000000
7.163773 -2.987860 -0.530514 1.000000
6.835536 -7.128030 -0.527945 9.000000
25.806055 29.801832 -1.610922 81.000000
7.129959 -3.004483 -0.526108 1.000000
7.078275 -7.435520 -0.538014 25.000000
16.886320 19.363974 -1.072348 7.000000
7.059647 -3.005371 -0.515003 1.000000
7.078732 -7.490785 -0.531113 22.000000
16.923332 19.263426 -1.101591 6.000000
7.076164 -3.043087 -0.515668 1.000000
7.143787 -7.615348 -0.528949 26.000000
17.059391 19.275352 -1.128346 6.000000
6.950812 -3.019415 -0.503350 1.000000
7.083435 -7.604033 -0.517351 24.000000
17.255657 19.360523 -1.154992 7.000000
7.089848 -7.667069 -0.507079 20.000000
17.382551 19.359571 -1.181479 7.000000
7.082200 -7.715337 -0.501223 19.000000
17.489496 19.349218 -1.207189 7.000000
17.626526 19.364508 -1.244036 6.000000
17.791149 19.402031 -1.273653 6.000000
17.868179 19.356781 -1.297608 6.000000
6.885104 -7.714108 -0.458679 26.000000
17.989237 19.345179 -1.324352 6.000000
7.009479 -7.911638 -0.457803 9.000000
18.164917 19.397879 -1.360193 5.000000
7.257812 -8.252675 -0.466387 28.000000
18.396061 19.487326 -1.395081 7.000000
7.107695 -8.139096 -0.447227 9.000000
18.425114 19.382116 -1.420227 6.000000
18.629662 19.454000 -1.458776 6.000000
18.748476 19.434971 -1.486128 6.000000
18.940256 19.490301 -1.524205 6.000000
6.637768 -7.826987 -0.388869 25.000000
19.153877 19.572958 -1.559863 5.000000
6.620792 -7.868016 -0.378859 36.000000
19.186382 19.476549 -1.576391 7.000000
6.498738 -7.775161 -0.364493 26.000000
19.372686 19.522032 -1.609890 7.000000
11.022806 4.297613 -0.829377 1.000000
6.677783 -8.049144 -0.367049 29.000000
19.524063 19.530882 -1.645531 8.000000
10.912433 4.208569 -0.826060 1.000000
6.633999 -8.053411 -0.355246 22.000000
19.689981 19.546171 -1.677475 9.000000
10.829388 4.131010 -0.826754 1.000000
6.319074 -0.366569 -0.440395 6.000000
6.484433 -7.930898 -0.339841 205.000000
19.859968 19.570919 -1.710257 12.000000
10.834717 4.087616 -0.832106 1.000000
6.342590 -0.392374 -0.441021 8.000000
6.428583 -7.918837 -0.327668 33.000000
19.991135 19.556271 -1.739867 8.000000
10.811974 4.033830 -0.833268 1.000000
6.365996 -0.417249 -0.442752 6.000000
6.327609 -7.853103 -0.313414 38.000000
20.143639 19.568321 -1.781630 8.000000
10.826275 3.994023 -0.839310 1.000000
6.429035 -0.445052 -0.448377 7.000000
6.433137 -8.044244 -0.312902 31.000000
20.333187 19.621817 -1.812437 9.000000
10.765609 3.926875 -0.837507 1.000000
6.613408 -8.329103 -0.313793 25.000000
20.486095 19.611172 -1.848858 10.000000
10.779238 3.887141 -0.847507 1.000000
6.583035 -8.353539 -0.302655 32.000000
20.593462 19.583492 -1.872601 7.000000
10.779322 3.842584 -0.846400 1.000000
20.369028 19.214947 -1.879526 8.000000
10.779327 3.796000 -0.853273 1.000000
33.128590 -2.648005 -2.318136 4.000000
6.118758 -7.879732 -0.266470 81.000000
19.954210 18.692427 -1.859187 7.000000
10.788035 3.754680 -0.858881 1.000000
32.806396 -2.737532 -2.290472 5.000000
6.164626 -7.996265 -0.259101 92.000000
19.438160 18.088358 -1.824130 7.000000
10.792011 3.711774 -0.862115 6.000000
29.889210 -2.604454 -2.087453 5.000000
20.600885 -11.362919 -1.249460 26.000000
6.035231 -7.888047 -0.242734 103.000000
19.543453 18.053135 -1.851118 7.000000
10.682525 3.630387 -0.856261 229.000000
20.070799 -11.166677 -1.211744 20.000000
6.077302 -8.000750 -0.238529 47.000000
19.604614 17.976913 -1.873984 9.000000
10.700058 3.592653 -0.862550 231.000000
27.516193 -2.601046 -1.913308 6.000000
6.123310 -8.122956 -0.230844 69.000000
19.672844 17.907188 -1.897551 10.000000
10.707848 3.551651 -0.870045 227.000000
26.642063 -2.616972 -1.862570 6.000000
19.070299 -10.789455 -1.129130 11.000000
6.205855 -8.292520 -0.226002 17.000000
19.814814 17.904058 -1.928327 22.000000
10.711029 3.509182 -0.873210 237.000000
22.519419 -2.295381 -1.563021 1.000000
18.558395 -10.589814 -1.089895 10.000000
10.714045 3.466738 -0.876369 223.000000
22.183193 -2.343292 -1.544182 1.000000
18.169212 -10.456202 -1.061946 12.000000
6.238564 -8.461782 -0.209201 32.000000
10.721492 3.425788 -0.881874 227.000000
18.140039 -10.528107 -1.047809 16.000000
6.195807 -8.468597 -0.199646 38.000000
10.704865 3.377285 -0.887368 230.000000
18.110422 -10.599844 -1.037321 20.000000
6.166327 -8.490338 -0.188657 33.000000
10.707939 3.333101 -0.890494 220.000000
18.059164 -10.658900 -1.021941 26.000000
6.611722 -9.174126 -0.191466 20.000000
10.734078 3.298133 -0.895602 1.000000
20.145567 -2.430747 -1.401139 1.000000
18.043768 -10.734915 -1.012165 24.000000
6.591405 -9.213572 -0.179941 7.000000
10.779182 3.268802 -0.902316 3.000000
19.948664 -2.481202 -1.384542 1.000000
18.009186 -10.803905 -0.997744 23.000000
10.781239 3.226324 -0.905446 1.000000
19.682152 -2.521342 -1.366677 5.000000
17.969763 -10.870020 -0.990413 18.000000
10.805912 3.194704 -0.910582 1.000000
19.456310 -2.558017 -1.348136 6.000000
17.964499 -10.956971 -0.977607 15.000000
10.760620 3.134397 -0.913574 1.000000
19.430820 -2.634057 -1.350530 10.000000
17.911745 -11.015071 -0.969571 19.000000
5.986025 -8.625605 -0.128279 29.000000
10.748321 3.086092 -0.915447 1.000000
19.376333 -2.702477 -1.344024 10.000000
17.867437 -11.078280 -0.958333 12.000000
5.877886 -8.536408 -0.115776 36.000000
10.763737 3.047859 -0.923665 1.000000
19.331501 -2.768494 -1.345033 10.000000
17.861160 -11.165226 -0.945450 19.000000
6.138690 -8.982135 -0.110135 13.000000
10.755326 3.002941 -0.925917 16.000000
19.291845 -2.835011 -1.339569 32.000000
17.835312 -11.235843 -0.931406 17.000000
6.124190 -9.028411 -0.100919 10.000000
10.722712 2.951513 -0.926081 176.000000
19.261826 -2.902762 -1.334798 21.000000
17.781631 -11.293276 -0.923391 14.000000
6.225099 -9.249969 -0.093409 18.000000
10.776109 2.923765 -0.937610 8.000000
17.765902 -11.374880 -0.909978 15.000000
6.101181 -9.134513 -0.080524 31.000000
4.301559 3.458542 -0.476100 1.000000
10.791248 2.885451 -0.941928 1.000000
17.745605 -11.453805 -0.896310 17.000000
5.810854 -8.769263 -0.066099 33.000000
10.840313 2.854016 -0.951158 1.000000
19.259607 -3.112477 -1.333444 9.000000
17.720518 -11.529838 -0.889779 23.000000
5.802216 -8.822960 -0.057135 133.000000
4.345593 3.441806 -0.488892 4.000000
10.850378 2.814182 -0.955071 4.000000
19.252337 -3.190656 -1.326973 8.000000
17.697390 -11.602917 -0.875846 23.000000
6.144146 -9.417913 -0.049065 1.000000
10.860296 2.774312 -0.958984 23.000000
14.543763 -2.462505 -1.005606 1.000000
17.638453 -11.656937 -0.863949 16.000000
12.912718 -19.944754 -0.078791 23.000000
10.860078 2.731893 -0.965950 28.000000
17.625088 -11.741144 -0.854290 17.000000
5.994504 -9.330235 -0.027098 6.000000
10.913372 2.702808 -0.971779 26.000000
9.946369 -6.678645 -0.474907 1.000000
12.734790 -19.981918 -0.033084 25.000000
10.937061 2.666168 -0.980930 1.000000
13.858171 -2.503468 -0.957578 1.000000
9.859897 -6.673142 -0.467781 5.000000
5.919585 -9.360239 -0.007732 10.000000
11.005010 2.638006 -0.990089 1.000000
13.623239 -2.512623 -0.941974 1.000000
9.861578 -6.724591 -0.460626 1.000000
5.646110 -9.000669 0.005563 38.000000
11.095597 2.620843 -1.003467 1.000000
13.329757 -2.509047 -0.919933 1.000000
9.853468 -6.772101 -0.457223 1.000000
11.231832 2.605464 -1.018890 1.000000
13.241930 -2.542804 -0.916873 1.000000
17.493118 -12.117327 -0.798898 10.000000
5.538455 -8.967523 0.025754 13.000000
11.312717 2.584725 -1.031568 1.000000
12.854976 -2.519716 -0.893041 1.000000
17.457010 -12.187240 -0.791842 11.000000
5.500315 -8.979217 0.033081 9.000000
11.405351 2.555669 -1.047255 1.000000
12.943795 -2.586426 -0.895235 1.000000
17.449339 -12.277255 -0.782343 12.000000
5.648103 -9.293151 0.043655 7.000000
11.568838 2.552042 -1.067736 1.000000
12.596792 -2.565136 -0.874133 1.000000
17.396521 -12.326542 -0.774351 11.000000
5.250499 -8.703852 0.049675 1.000000
11.631284 2.521148 -1.076828 1.000000
12.499386 -2.593049 -0.868028 1.000000
17.366024 -12.396214 -0.760000 10.000000
5.171269 -8.640561 0.059756 3.000000
11.868794 2.527121 -1.104358 1.000000
12.421615 -2.624438 -0.861063 1.000000
17.336826 -12.480729 -0.745977 11.000000
11.945888 2.495626 -1.119222 1.000000
12.236341 -2.632181 -0.848883 1.000000
17.311737 -12.550035 -0.739211 19.000000
12.205194 -20.745138 0.193244 57.000000
12.583555 2.580744 -1.184855 1.000000
12.129005 -2.655641 -0.844283 1.000000
17.278036 -12.622470 -0.728526 19.000000
12.309035 -21.089733 0.217364 71.000000
4.352081 3.089435 -0.545893 1.000000
12.508941 2.517701 -1.188183 1.000000
12.040242 -2.684695 -0.847468 1.000000
17.263746 -12.709337 -0.733628 14.000000
4.326040 3.082318 -0.547985 1.000000
12.589846 2.533985 -1.218480 1.000000
11.975494 -2.670257 -0.864429 1.000000
17.254749 -12.702715 -0.766943 16.000000
12.149064 -20.991999 0.203196 39.000000
4.343072 3.118516 -0.550644 2.000000
12.277746 2.518026 -1.193574 1.000000
12.023285 -2.634692 -0.880130 1.000000
17.278046 -12.627104 -0.792195 15.000000
12.196948 -20.889311 0.164655 39.000000
4.339357 3.141171 -0.548863 1.000000
12.029692 2.513134 -1.170347 1.000000
12.003156 -2.584212 -0.884419 1.000000
17.299263 -12.545600 -0.813464 19.000000
12.182207 -20.689539 0.129906 35.000000
4.352235 3.174868 -0.548160 1.000000
11.825022 2.517801 -1.153496 1.000000
12.173252 -2.574184 -0.900617 1.000000
17.336317 -12.475768 -0.835451 10.000000
12.336087 -20.784601 0.101243 42.000000
4.320683 3.176180 -0.543757 1.000000
11.630866 2.521058 -1.135451 1.000000
12.348151 -2.563923 -0.919494 1.000000
17.383102 -12.417565 -0.858018 19.000000
12.308507 -20.574165 0.071135 31.000000
4.329305 3.207026 -0.542518 1.000000
11.509756 2.539009 -1.124529 1.000000
12.303246 -2.507596 -0.922069 1.000000
17.403551 -12.336086 -0.871707 13.000000
5.168995 -8.572123 0.017471 4.000000
11.408287 2.560509 -1.113465 1.000000
12.492630 -2.498541 -0.944512 1.000000
17.431547 -12.260189 -0.893208 13.000000
11.330438 2.588773 -1.106829 1.000000
12.603967 -2.472800 -0.959001 1.000000
17.452982 -12.184427 -0.914451 10.000000
5.703070 -9.306564 -0.007620 18.000000
11.170574 2.595364 -1.092134 1.000000
12.857594 -2.473655 -0.979900 4.000000
17.484404 -12.111291 -0.936081 14.000000
5.585751 -9.044102 -0.022263 36.000000
11.074887 2.611870 -1.081616 1.000000
13.007981 -2.453181 -0.999963 3.000000
9.867294 -6.781604 -0.535317 1.000000
5.638409 -9.058483 -0.033521 20.000000
11.002219 2.639368 -1.071516 1.000000
13.212822 -2.441697 -1.017374 1.000000
9.857508 -6.724336 -0.543944 7.000000
5.700785 -9.084307 -0.044925 11.000000
10.948013 2.672887 -1.067273 4.000000
13.338897 -2.414470 -1.033532 1.000000
9.865226 -6.676749 -0.551349 4.000000
5.756479 -9.102331 -0.058271 13.000000
10.920122 2.704480 -1.061460 1.000000
13.725710 -2.430094 -1.067666 1.000000
9.918334 -6.659820 -0.561308 5.000000
5.841925 -9.166454 -0.070195 10.000000
10.899704 2.745907 -1.058559 17.000000
13.916091 -2.411231 -1.084260 1.000000
17.631870 -11.745663 -1.010221 9.000000
5.802469 -9.031339 -0.080565 3.000000
4.337513 3.455160 -0.522248 1.000000
10.865453 2.779669 -1.056215 7.000000
17.646877 -11.666929 -1.030946 10.000000
12.953034 -20.007027 -0.212157 37.000000
4.379387 3.514830 -0.525871 1.000000
10.821329 2.812695 -1.049031 1.000000
17.738718 -11.634441 -1.056082 10.000000
10.812296 2.848658 -1.045128 7.000000
17.747133 -11.547153 -1.068875 9.000000
6.106871 -9.286223 -0.124153 33.000000
10.821021 2.893412 -1.046989 4.000000
17.818411 -11.509610 -1.081999 8.000000
5.843358 -8.825004 -0.129317 51.000000
10.790101 2.931606 -1.045128 7.000000
17.890944 -11.459342 -1.106031 8.000000
6.129737 -9.180736 -0.148362 49.000000
4.305547 3.560593 -0.506499 1.000000
10.756155 2.962739 -1.038907 6.000000
17.902908 -11.383457 -1.119283 7.000000
6.154478 -9.151927 -0.159778 14.000000
10.788728 3.014297 -1.039169 4.000000
19.247091 -2.831867 -1.537920 9.000000
17.964794 -11.330557 -1.139136 7.000000
6.127399 -9.043329 -0.169696 23.000000
10.758795 3.048489 -1.033418 7.000000
19.297245 -2.760151 -1.547877 10.000000
17.975414 -11.236648 -1.155493 7.000000
6.129662 -8.968926 -0.183932 255.000000
10.752335 3.089276 -1.033878 1.000000
19.296555 -2.687917 -1.557287 9.000000
17.988554 -11.157722 -1.164944 7.000000
5.843280 -8.486152 -0.185242 23.000000
10.773650 3.142273 -1.033182 4.000000
19.360334 -2.624502 -1.565079 7.000000
18.041388 -11.099136 -1.180556 7.000000
5.921194 -8.535366 -0.197648 98.000000
10.751956 3.180793 -1.032265 2.000000
19.419235 -2.560039 -1.569072 5.000000
18.063837 -11.021887 -1.201604 8.000000
5.980940 -8.554373 -0.211352 20.000000
10.751234 3.219390 -1.029264 7.000000
19.363081 -2.487338 -1.567289 4.000000
18.069857 -10.943495 -1.210681 8.000000
5.909880 -8.390219 -0.218556 23.000000
10.763530 3.266107 -1.027621 5.000000
19.564674 -2.440377 -1.586335 1.000000
18.083443 -10.861333 -1.223691 8.000000
5.980940 -8.431574 -0.229174 24.000000
10.742479 3.302766 -1.020827 8.000000
19.647289 -2.374104 -1.602712 1.000000
18.169376 -10.822528 -1.245332 9.000000
6.030512 -8.438880 -0.242622 70.000000
10.683098 3.327415 -1.012398 241.000000
18.124649 -10.710349 -1.254446 9.000000
6.065614 -8.419471 -0.255417 15.000000
10.694322 3.376011 -1.010737 235.000000
18.166737 -10.637062 -1.269143 10.000000
6.137384 -8.453588 -0.268079 170.000000
10.686956 3.416810 -1.007269 230.000000
18.240170 -10.598991 -1.282897 7.000000
6.208009 -8.494605 -0.279185 38.000000
10.688743 3.460612 -1.006649 229.000000
22.285215 -2.361935 -1.834565 1.000000
18.217182 -10.496510 -1.300666 6.000000
6.253742 -8.485470 -0.290754 14.000000
10.690517 3.504529 -1.004061 224.000000
18.480255 -10.558057 -1.327864 10.000000
10.686148 3.550666 -1.001019 238.000000
19.055830 -10.785662 -1.381446 9.000000
6.182164 -8.263869 -0.308105 111.000000
18.377504 16.869408 -1.985209 7.000000
10.677948 3.591452 -0.999496 221.000000
27.350048 -2.580525 -2.268224 8.000000
6.108515 -8.106274 -0.313662 19.000000
18.509432 17.103952 -1.983446 7.000000
10.703398 3.641649 -0.999084 176.000000
6.095925 -8.033997 -0.320455 24.000000
18.551310 17.281225 -1.973091 7.000000
10.727983 3.693941 -0.998645 5.000000
27.788549 -2.426296 -2.312933 8.000000
6.056660 -7.918918 -0.328983 36.000000
18.649046 17.500374 -1.967843 7.000000
10.733679 3.739963 -0.994447 1.000000
28.164707 -2.355156 -2.343508 8.000000
6.213815 -8.068804 -0.344961 109.000000
18.770792 17.744452 -1.964866 9.000000
10.771900 3.797612 -0.995254 3.000000
28.505531 -2.278479 -2.376181 7.000000
6.216912 -8.009021 -0.355825 10.000000
18.746338 17.851894 -1.950966 9.000000
10.748689 3.833779 -0.992394 1.000000
18.659462 17.887531 -1.925403 23.000000
10.711461 3.864813 -0.986253 1.000000
6.323127 -0.432176 -0.529979 1.000000
6.178131 -7.848186 -0.369740 32.000000
18.509356 17.880522 -1.894403 17.000000
6.140607 -0.397095 -0.515637 6.000000
6.224831 -7.842529 -0.382898 29.000000
18.427004 17.931997 -1.870131 10.000000
6.107208 -0.372463 -0.512714 8.000000
6.270676 -7.843903 -0.392808 27.000000
18.311596 17.938301 -1.841958 9.000000
6.083571 -0.348646 -0.511690 10.000000
6.299479 -7.826577 -0.405279 28.000000
18.190062 17.950367 -1.813924 8.000000
6.104767 -0.326348 -0.513364 9.000000
6.380018 -7.870237 -0.417546 44.000000
18.214296 18.112852 -1.796229 8.000000
6.493427 -7.944727 -0.435436 38.000000
18.225298 18.244392 -1.789702 7.000000
6.505002 -7.902432 -0.443308 63.000000
18.307140 18.461159 -1.777016 7.000000
10.907971 4.257227 -0.977084 1.000000
6.508113 -7.847417 -0.452253 36.000000
19.055864 19.357569 -1.832753 7.000000
6.477523 -7.755280 -0.458847 36.000000
18.996264 19.432241 -1.809713 7.000000
6.366679 -3.098362 -0.524934 1.000000
6.496463 -7.725739 -0.468964 170.000000
18.853043 19.427671 -1.779112 7.000000
6.359778 -3.066225 -0.527153 3.000000
6.622629 -7.814664 -0.486652 161.000000
18.706833 19.418917 -1.743663 7.000000
6.379721 -3.047072 -0.531599 7.000000
6.625538 -7.765738 -0.493900 16.000000
18.619337 19.470411 -1.718541 6.000000
6.408621 -3.032079 -0.536811 21.000000
6.685627 -7.772758 -0.506811 3.000000
18.431906 19.423178 -1.689343 7.000000
6.437849 -3.015709 -0.544525 19.000000
18.217783 19.325481 -1.652315 5.000000
6.483725 -3.011020 -0.551323 18.000000
6.711411 -7.696146 -0.526224 115.000000
18.127542 19.371513 -1.622670 7.000000
6.696488 -7.622453 -0.529962 30.000000
17.979231 19.347956 -1.592296 6.000000
6.569304 -2.991035 -0.561745 8.000000
6.868253 -7.763148 -0.552293 38.000000
17.865137 19.367044 -1.565392 6.000000
6.625394 -2.987305 -0.569430 4.000000
6.853151 -7.689106 -0.557823 63.000000
17.758051 19.393099 -1.534594 7.000000
17.493008 19.238050 -1.494717 6.000000
17.456867 19.340244 -1.470304 7.000000
17.290169 19.283747 -1.438969 7.000000
17.167187 19.274801 -1.411452 7.000000
6.864285 -2.947711 -0.606306 1.000000
7.144840 -7.737369 -0.622006 25.000000
17.047731 19.289295 -1.380673 7.000000
6.819715 -2.899013 -0.605333 1.000000
7.023204 -7.549936 -0.618034 191.000000
16.855873 19.213673 -1.348461 7.000000
7.055067 -2.968575 -0.629288 1.000000
6.941180 -7.407135 -0.619092 31.000000
16.717463 19.190615 -1.316014 7.000000
7.209748 -3.011468 -0.645125 1.000000
6.970045 -7.386094 -0.628259 81.000000
16.686953 19.297949 -1.296849 6.000000
6.941678 -7.302229 -0.632112 27.000000
16.444603 19.159161 -1.256956 6.000000
6.885105 -7.189762 -0.635023 22.000000
16.394527 19.236279 -1.236143 7.000000
7.023069 -7.277683 -0.655800 26.000000
16.292482 19.259087 -1.207285 6.000000
7.198834 -7.405309 -0.678725 98.000000
16.158367 19.236330 -1.180343 6.000000
7.236892 -7.395233 -0.689066 34.000000
15.951001 19.131405 -1.144168 7.000000
7.323061 -7.428624 -0.703818 4.000000
15.859238 19.163713 -1.116514 6.000000
7.512811 -7.562804 -0.728604 17.000000
15.723091 19.134794 -1.089970 6.000000
7.749667 -2.998120 -0.713827 1.000000
7.204924 -7.199895 -0.703325 42.000000
15.663039 19.204782 -1.064678 6.000000
7.718381 -2.953539 -0.714303 1.000000
7.248354 -7.190392 -0.717521 7.000000
15.483691 19.107124 -1.035062 5.000000
7.667342 -2.904896 -0.711568 1.000000
7.204214 -7.099361 -0.719688 10.000000
15.436143 19.191830 -1.010742 3.000000
7.664598 -2.868725 -0.714556 1.000000
7.246322 -7.091169 -0.730311 10.000000
23.209642 29.084627 -1.488014 9.000000
16.662264 -6.166865 -1.557523 8.000000
7.460330 -7.242198 -0.758064 20.000000
23.253517 29.338638 -1.464335 10.000000
6.301661 0.449498 -0.531620 1.000000
16.840864 -6.169548 -1.581761 8.000000
7.340252 -7.078502 -0.752420 22.000000
23.114140 29.393940 -1.410367 19.000000
17.025286 -6.156346 -1.603015 9.000000
7.354959 -7.040843 -0.758425 10.000000
21.134928 27.061207 -1.271064 4.000000
17.206392 -6.150618 -1.627577 8.000000
7.581272 -7.206943 -0.790178 2.000000
20.906418 26.962107 -1.227198 8.000000
17.390486 -6.151463 -1.649542 8.000000
16.403557 -15.479566 -1.723575 7.000000
20.762644 26.980320 -1.182909 8.000000
17.605110 -6.154875 -1.674311 1.000000
20.626154 27.016960 -1.151338 8.000000
11.928301 -4.116560 -1.139506 1.000000
16.409946 -15.249063 -1.755157 7.000000
20.543087 27.093966 -1.122005 8.000000
11.777973 -4.016432 -1.128110 1.000000
9.068485 -8.371088 -0.975632 25.000000
20.541737 27.309357 -1.091827 8.000000
11.763741 -3.963509 -1.131902 1.000000
9.070401 -8.308579 -0.985361 29.000000
24.004917 32.134785 -1.239512 7.000000
11.674556 -3.883608 -1.126208 1.000000
9.107527 -8.281403 -0.996902 23.000000
23.833822 32.139118 -1.194523 10.000000
11.682266 -3.843193 -1.130045 1.000000
9.175100 -8.287431 -1.009974 10.000000
23.752262 32.275715 -1.147355 10.000000
11.692299 -3.794547 -1.136024 1.000000
16.637575 -14.907088 -1.844450 7.000000
23.566439 32.258484 -1.101943 9.000000
11.648858 -3.733312 -1.134773 5.000000
16.629879 -14.801069 -1.857707 6.000000
23.480984 32.390076 -1.061566 8.000000
5.094175 3.005491 -0.349326 1.000000
11.646558 -3.690032 -1.137652 1.000000
16.712664 -14.765329 -1.880495 7.000000
23.266123 32.330585 -1.022165 1.000000
6.046113 0.725237 -0.500644 1.000000
11.646386 -3.640829 -1.136261 6.000000
16.672283 -14.621201 -1.881603 6.000000
4.750931 2.851263 -0.318513 1.000000
6.053566 0.748647 -0.498270 8.000000
11.608195 -3.577801 -1.135402 4.000000
16.819805 -14.631544 -1.911204 7.000000
27.391529 38.643528 -1.116262 1.000000
6.065697 0.772730 -0.498424 7.000000
11.638663 -3.544973 -1.141510 10.000000
16.780273 -14.499683 -1.920735 7.000000
27.216860 38.682606 -1.065083 14.000000
6.102441 0.800151 -0.500600 8.000000
11.560619 -3.474951 -1.136850 243.000000
16.814384 -14.426950 -1.938344 7.000000
27.049768 38.746105 -1.014586 8.000000
6.553747 0.883772 -0.539045 5.000000
11.563352 -3.429612 -1.140122 216.000000
16.797861 -14.306215 -1.945904 7.000000
19.909679 2.677742 -1.630434 6.000000
11.566306 -3.382225 -1.145491 223.000000
16.837471 -14.233804 -1.963827 7.000000
19.830618 2.741143 -1.624772 36.000000
11.560273 -3.330145 -1.147798 216.000000
16.969471 -14.228986 -1.992025 7.000000
19.840244 2.820152 -1.619395 30.000000
11.542143 -3.283510 -1.149137 223.000000
16.911915 -14.085476 -1.999139 7.000000
19.899096 2.902964 -1.621523 7.000000
11.549308 -3.239840 -1.148661 204.000000
16.954941 -14.016382 -2.009753 7.000000
19.795507 2.961991 -1.603408 1.000000
11.527138 -3.188094 -1.149499 210.000000
16.939404 -13.899335 -2.021142 7.000000
19.685713 3.019370 -1.598898 1.000000
11.524307 -3.139726 -1.154318 17.000000
17.016159 -13.858270 -2.039678 7.000000
19.646873 3.080132 -1.586085 8.000000
11.593415 -3.112953 -1.160090 8.000000
8.281076 -6.693927 -0.999055 1.000000
19.788280 3.176654 -1.594910 1.000000
11.580300 -3.063972 -1.161867 8.000000
8.238869 -6.610027 -1.000333 6.000000
19.707924 3.237893 -1.585872 1.000000
11.576612 -3.017639 -1.164595 6.000000
8.254705 -6.573149 -1.006757 7.000000
19.760065 3.324430 -1.580525 3.000000
11.583294 -2.971930 -1.164110 10.000000
8.254897 -6.524005 -1.009417 10.000000
19.851177 3.414623 -1.585266 3.000000
11.593714 -2.929355 -1.168284 18.000000
8.223236 -6.450159 -1.011853 17.000000
21.385513 33.594402 -0.326683 9.000000
11.570372 -2.878384 -1.166962 20.000000
8.273749 -6.440938 -1.022546 20.000000
21.136969 33.474171 -0.276388 9.000000
11.585280 -2.837043 -1.171613 24.000000
8.308406 -6.419149 -1.033165 10.000000
21.049339 33.594585 -0.235257 10.000000
11.590854 -2.791277 -1.175286 28.000000
8.351190 -6.403462 -1.041123 15.000000
20.938530 33.652245 -0.193692 8.000000
11.595764 -2.747534 -1.178955 27.000000
8.377981 -6.375382 -1.048965 10.000000
20.970081 33.979980 -0.146351 4.000000
11.639877 -2.712968 -1.180315 17.000000
8.444229 -6.377058 -1.063653 10.000000
4.580290 3.213114 -0.238410 1.000000
13.030959 2.537683 -1.021514 24.000000
11.654190 -2.671307 -1.184980 9.000000
8.498795 -6.369485 -1.075069 8.000000
19.376547 31.918999 -0.052136 1.000000
12.899671 2.561224 -1.007333 1.000000
11.678519 -2.629726 -1.190638 1.000000
12.611398 2.554359 -0.983322 1.000000
11.717024 -2.593311 -1.195702 6.000000
12.368243 2.552336 -0.956218 1.000000
11.750759 -2.555635 -1.198180 1.000000
21.834358 36.846458 0.089703 8.000000
12.236990 2.572047 -0.944598 1.000000
11.789034 -2.518743 -1.203259 1.000000
21.766607 36.996651 0.134853 1.000000
4.598602 3.352129 -0.221598 6.000000
12.008403 2.569994 -0.923363 1.000000
11.871245 -2.488683 -1.214942 1.000000
47.335720 81.135353 0.409867 1.000000
4.599140 3.377169 -0.216207 3.000000
11.892194 2.590743 -0.908743 1.000000
11.963336 -2.462249 -1.221282 1.000000
47.029438 81.260735 0.507991 1.000000
4.610543 3.395461 -0.215965 3.000000
11.712544 2.596609 -0.891525 1.000000
12.015751 -2.427166 -1.230038 1.000000
4.518582 3.352126 -0.206304 1.000000
11.542882 2.603418 -0.873102 1.000000
12.097556 -2.397575 -1.239679 1.000000
46.875828 82.315552 0.760533 1.000000
4.698540 3.512400 -0.208956 1.000000
12.175044 -2.364384 -1.246680 1.000000
46.566021 82.473007 0.859594 1.000000
11.383389 2.655282 -0.852231 1.000000
12.296247 -2.341187 -1.255997 1.000000
23.474518 41.916771 0.503117 178.000000
11.147015 2.639151 -0.827146 1.000000
12.685767 -2.367203 -1.299439 3.000000
23.337456 42.015373 0.562045 246.000000
11.142674 2.681291 -0.819505 1.000000
12.773738 -2.332899 -1.300655 1.000000
23.342115 42.023758 0.595722 243.000000
11.119120 2.675623 -0.807742 1.000000
12.921910 -2.359960 -1.301851 1.000000
23.491293 41.929554 0.562045 224.000000
11.138968 2.637246 -0.802453 1.000000
12.609762 -2.357575 -1.260082 1.000000
23.669752 41.904381 0.512407 6.000000
11.279718 2.626948 -0.811894 1.000000
12.376829 -2.361006 -1.231001 1.000000
12.202219 -2.374081 -1.212302 1.000000
11.610405 2.612259 -0.836349 1.000000
12.121028 -2.406624 -1.192082 1.000000
11.707562 2.589073 -0.842658 1.000000
12.044035 -2.437255 -1.183216 1.000000
47.177853 80.832352 0.637076 1.000000
4.794088 3.475445 -0.208846 1.000000
11.989767 2.605425 -0.864429 1.000000
11.942608 -2.462328 -1.171982 1.000000
47.414352 80.590057 0.554867 1.000000
4.855350 3.492779 -0.215137 1.000000
12.110520 2.589639 -0.872511 1.000000
11.876717 -2.489830 -1.157770 1.000000
21.856007 36.838997 0.201854 8.000000
4.949365 3.532955 -0.221916 1.000000
12.271095 2.576979 -0.885593 1.000000
11.798239 -2.525016 -1.149016 1.000000
5.908966 -4.318378 -0.729219 1.000000
19.079632 31.905008 0.136253 25.000000
12.597661 2.597387 -0.912980 1.000000
11.779959 -2.566293 -1.139652 1.000000
5.729242 -4.219333 -0.703927 7.000000
19.206425 31.863997 0.103896 87.000000
12.798354 2.587575 -0.924507 1.000000
11.722976 -2.594628 -1.132851 2.000000
5.673535 -4.212003 -0.692839 7.000000
19.341307 31.823372 0.064996 64.000000
13.017792 2.582315 -0.944325 1.000000
11.693426 -2.637372 -1.126788 7.000000
8.587019 -6.381934 -1.047149 17.000000
13.056705 2.540331 -0.944132 2.000000
11.669230 -2.679042 -1.119115 8.000000
8.552347 -6.404960 -1.036364 17.000000
20.926908 33.883553 -0.006951 1.000000
11.659712 -2.721882 -1.114936 19.000000
8.567290 -6.469994 -1.028075 29.000000
21.023903 33.776310 -0.048607 9.000000
11.636655 -2.757223 -1.107283 29.000000
8.550320 -6.501814 -1.021053 66.000000
21.093813 33.626415 -0.090065 10.000000
19.833282 3.632932 -1.445321 5.000000
11.612325 -2.796448 -1.101731 22.000000
8.617876 -6.603175 -1.024356 68.000000
21.198162 33.519218 -0.124595 10.000000
19.714172 3.536484 -1.432173 54.000000
11.611547 -2.843476 -1.098477 24.000000
8.661309 -6.686980 -1.022792 20.000000
21.390196 33.562954 -0.166713 8.000000
19.701948 3.459805 -1.437373 91.000000
11.601233 -2.886061 -1.096390 11.000000
8.621585 -6.706889 -1.013305 1.000000
19.739910 3.388390 -1.435669 35.000000
11.620283 -2.936068 -1.090763 9.000000
17.144609 -13.438260 -1.997796 7.000000
19.820807 3.327535 -1.444181 4.000000
11.589478 -2.977829 -1.084774 10.000000
17.138767 -13.545099 -1.984213 7.000000
19.709589 3.234634 -1.438708 1.000000
11.608638 -3.023823 -1.085388 8.000000
17.048077 -13.565512 -1.963576 7.000000
19.770304 3.170229 -1.445795 6.000000
11.611748 -3.072293 -1.082547 13.000000
17.007343 -13.635201 -1.945452 7.000000
49.809513 75.225433 -0.834591 1.000000
19.732023 3.089952 -1.449166 10.000000
11.605583 -3.116221 -1.078802 8.000000
17.016420 -13.745238 -1.936848 8.000000
50.176731 75.208389 -0.931027 1.000000
19.782902 3.023676 -1.448568 6.000000
11.556367 -3.148461 -1.066863 185.000000
16.966793 -13.818066 -1.910557 8.000000
19.818264 2.954787 -1.453870 6.000000
11.578712 -3.200182 -1.065775 189.000000
16.936316 -13.896801 -1.897437 8.000000
19.804535 2.875050 -1.455554 4.000000
11.567262 -3.242699 -1.061582 184.000000
16.921091 -13.988399 -1.882162 8.000000
19.824564 2.803805 -1.459774 1.000000
11.559872 -3.288554 -1.057827 186.000000
16.925400 -14.086703 -1.872341 7.000000
19.996515 2.760518 -1.475295 1.000000
11.581595 -3.340666 -1.056688 255.000000
16.871084 -14.146487 -1.852705 7.000000
20.180166 2.703364 -1.491604 1.000000
11.569450 -3.383144 -1.054585 152.000000
16.865780 -14.247643 -1.842323 7.000000
27.174767 38.896214 -0.770235 5.000000
6.317698 0.796991 -0.468737 3.000000
11.567052 -3.428513 -1.049139 52.000000
16.808615 -14.310310 -1.818791 7.000000
27.240837 38.702328 -0.817849 27.000000
6.221240 0.763872 -0.462490 6.000000
11.583383 -3.479589 -1.047516 1.000000
16.773376 -14.376523 -1.804600 7.000000
27.341501 38.544422 -0.866128 9.000000
6.179611 0.733593 -0.460265 7.000000
11.656682 -3.548239 -1.051029 1.000000
16.793665 -14.501019 -1.789101 8.000000
6.167397 0.709229 -0.459158 9.000000
11.605587 -3.581434 -1.039112 1.000000
16.687618 -14.526792 -1.764570 7.000000
23.350330 32.423717 -0.816043 1.000000
4.851428 2.831539 -0.294390 1.000000
11.616504 -3.631487 -1.036995 1.000000
16.646656 -14.598725 -1.746441 8.000000
23.527431 32.430317 -0.860246 8.000000
4.948022 2.863655 -0.303615 1.000000
11.641459 -3.686180 -1.036129 1.000000
16.666328 -14.714035 -1.737997 7.000000
23.701645 32.419792 -0.904341 7.000000
11.694633 -3.750233 -1.037760 1.000000
16.635763 -14.795903 -1.720907 7.000000
23.760834 32.263767 -0.937282 10.000000
11.685892 -3.794722 -1.033892 1.000000
16.615953 -14.887715 -1.704907 7.000000
24.024294 32.372341 -0.985228 4.000000
11.738512 -3.859426 -1.035449 1.000000
9.209759 -8.309984 -0.937065 30.000000
24.019796 32.131302 -1.022474 3.000000
11.824083 -3.935641 -1.037692 1.000000
9.131876 -8.300632 -0.921400 28.000000
20.546007 27.275375 -0.906124 8.000000
11.847001 -3.993863 -1.036647 1.000000
9.068882 -8.304277 -0.907319 33.000000
20.589146 27.135033 -0.939540 8.000000
11.837342 -4.038984 -1.032694 9.000000
9.071952 -8.368425 -0.899861 1.000000
20.684921 27.054754 -0.969122 8.000000
11.855940 -4.093904 -1.029007 1.000000
16.479599 -15.313789 -1.624404 6.000000
20.812147 27.025124 -1.006407 8.000000
17.688869 -6.180694 -1.530633 8.000000
16.387980 -15.340966 -1.601214 7.000000
20.953295 27.003090 -1.044264 8.000000
17.497454 -6.185865 -1.509500 9.000000
16.404297 -15.464034 -1.588301 6.000000
17.297085 -6.186442 -1.484479 9.000000
7.564193 -7.188194 -0.724189 9.000000
17.134182 -6.199105 -1.466036 8.000000
7.490214 -7.165312 -0.712106 10.000000
27.029072 34.077759 -1.458096 9.000000
16.929287 -6.195240 -1.444105 9.000000
7.345807 -7.078912 -0.691895 9.000000
27.024921 33.817200 -1.496561 11.000000
16.747164 -6.201610 -1.421180 8.000000
7.284448 -7.071458 -0.679653 9.000000
27.373985 34.009892 -1.539824 3.000000
16.575871 -6.207358 -1.396130 9.000000
16.376547 -6.201251 -1.372022 11.000000
25.240143 30.892393 -1.483705 1.000000
16.191216 -6.199020 -1.352300 9.000000
7.390549 -7.336571 -0.666125 7.000000
25.415575 30.908417 -1.523272 1.000000
16.043526 -6.209991 -1.332795 8.000000
25.423265 30.666008 -1.572045 1.000000
7.372911 -2.896837 -0.609533 1.000000
7.286002 -7.337047 -0.641487 9.000000
7.387753 -2.928002 -0.607290 6.000000
7.273467 -7.378315 -0.633684 58.000000
7.293986 -2.935122 -0.596696 3.000000
7.252836 -7.406352 -0.624943 43.000000
16.406595 19.380253 -1.073133 3.000000
7.253790 -2.955787 -0.588958 5.000000
7.344306 -7.554954 -0.625979 255.000000
16.441364 19.263979 -1.096911 6.000000
7.189183 -2.969041 -0.583477 6.000000
6.902189 -7.149922 -0.583457 32.000000
16.524256 19.218002 -1.119895 6.000000
7.137119 -2.978206 -0.576061 5.000000
6.901401 -7.206779 -0.577094 192.000000
16.691956 19.276516 -1.148989 7.000000
7.062197 -2.977381 -0.565511 4.000000
7.037073 -7.402580 -0.578185 31.000000
16.820629 19.295441 -1.180297 7.000000
7.011260 -2.983327 -0.558210 7.000000
6.942134 -7.348805 -0.563428 40.000000
16.949873 19.300428 -1.206859 7.000000
6.958090 -2.993748 -0.553600 5.000000
7.069096 -7.538362 -0.568734 52.000000
17.029629 19.241724 -1.234237 7.000000
6.878731 -2.989530 -0.544206 7.000000
17.238794 19.348400 -1.267407 7.000000
6.826890 -2.996795 -0.537046 8.000000
7.132910 -7.719041 -0.560008 11.000000
17.355358 19.342863 -1.298286 7.000000
6.793845 -3.010618 -0.531359 8.000000
7.065740 -7.700102 -0.547696 9.000000
17.509169 19.384581 -1.323258 7.000000
6.723754 -3.009089 -0.524152 8.000000
17.585878 19.326628 -1.351128 7.000000
6.703839 -3.029717 -0.519590 9.000000
17.736601 19.356102 -1.385077 7.000000
6.644081 -3.029283 -0.511892 9.000000
6.999064 -7.789637 -0.519501 56.000000
17.884319 19.374266 -1.418747 7.000000
6.591338 -3.037254 -0.504945 7.000000
6.897635 -7.733579 -0.505008 61.000000
18.035955 19.395418 -1.448308 7.000000
6.649319 -3.090744 -0.506311 5.000000
18.177750 19.411581 -1.477523 7.000000
6.813183 -3.200233 -0.515803 1.000000
18.295662 19.394527 -1.509328 7.000000
18.444798 19.409605 -1.539194 6.000000
6.736030 -3.224474 -0.503881 1.000000
6.604290 -7.621513 -0.452659 27.000000
18.608072 19.438246 -1.570425 6.000000
6.683897 -3.229683 -0.498260 1.000000
6.605832 -7.679989 -0.447605 51.000000
18.653698 19.336721 -1.596231 7.000000
6.743993 -3.289265 -0.499689 1.000000
6.747089 -7.908207 -0.448417 255.000000
18.859100 19.420345 -1.636738 6.000000
6.718697 -3.307466 -0.494772 1.000000
6.719231 -7.925849 -0.439134 79.000000
19.135048 19.560545 -1.678421 7.000000
6.805061 -3.381023 -0.498045 1.000000
6.683995 -7.943125 -0.427841 177.000000
19.191462 19.481705 -1.706142 7.000000
10.947446 4.312313 -0.892964 1.000000
6.824077 -3.421713 -0.496337 1.000000
6.587819 -7.887332 -0.414549 25.000000
19.310888 19.459757 -1.734425 7.000000
10.935014 4.261186 -0.894790 2.000000
6.640254 -8.006752 -0.408695 31.000000
19.483307 19.490110 -1.767630 8.000000
10.841380 4.183340 -0.896188 1.000000
6.696823 -8.135461 -0.404799 35.000000
19.659498 19.522724 -1.806247 9.000000
10.809773 4.125690 -0.896383 1.000000
6.211271 -0.361403 -0.476555 6.000000
6.504182 -7.957886 -0.385850 255.000000
19.761919 19.487898 -1.833720 9.000000
10.801064 4.077074 -0.900497 1.000000
6.205011 -0.383863 -0.475088 8.000000
6.472033 -7.978050 -0.376697 28.000000
19.889334 19.470276 -1.858426 7.000000
10.788877 4.023068 -0.904193 1.000000
6.228437 -0.408233 -0.476993 7.000000
6.366028 -7.903608 -0.361490 31.000000
20.102495 19.535173 -1.896213 7.000000
10.741071 3.964720 -0.903101 1.000000
6.306560 -0.436573 -0.481985 7.000000
6.321649 -7.907664 -0.349998 38.000000
19.038292 18.365808 -1.812659 7.000000
10.797375 3.940597 -0.910652 1.000000
6.247667 -7.871299 -0.335129 153.000000
18.957056 18.160118 -1.821896 7.000000
10.783844 3.888802 -0.914285 5.000000
6.259157 -7.945405 -0.328469 32.000000
18.898975 17.972109 -1.841991 8.000000
10.756508 3.830220 -0.918679 1.000000
6.239402 -7.980326 -0.320116 23.000000
18.985306 17.922152 -1.866889 9.000000
10.765318 3.788955 -0.924253 1.000000
6.199727 -7.992639 -0.309050 84.000000
19.129482 17.926119 -1.902189 10.000000
10.783534 3.751004 -0.928643 5.000000
6.136717 -7.965814 -0.300197 16.000000
19.263205 17.919279 -1.932024 13.000000
10.743772 3.697280 -0.928150 16.000000
6.020978 -7.872265 -0.287222 76.000000
19.364681 17.887997 -1.959058 16.000000
10.706163 3.636337 -0.929592 235.000000
6.095005 -8.029872 -0.281590 20.000000
19.472689 17.855940 -1.991173 7.000000
10.698651 3.594259 -0.935833 227.000000
27.392574 -2.594184 -2.097853 7.000000
6.175370 -8.194993 -0.277661 98.000000
19.451914 17.706085 -2.005485 7.000000
10.678339 3.543933 -0.936868 237.000000
26.736961 -2.640429 -2.048438 5.000000
19.056404 -10.799164 -1.262955 19.000000
6.280167 -8.397928 -0.272766 24.000000
10.690632 3.504566 -0.944723 230.000000
18.622259 -10.634876 -1.225247 10.000000
6.289688 -8.472160 -0.265248 9.000000
10.700321 3.458172 -0.946267 230.000000
18.210037 -10.492393 -1.186047 9.000000
6.211317 -8.430985 -0.252272 24.000000
10.682939 3.413470 -0.947666 235.000000
21.395180 -2.343153 -1.633442 2.000000
18.244753 -10.593138 -1.179508 8.000000
6.199708 -8.477033 -0.241996 86.000000
10.699494 3.375591 -0.955920 226.000000
18.189278 -10.650261 -1.163677 6.000000
6.177549 -8.512036 -0.231328 52.000000
10.701963 3.333290 -0.958984 227.000000
18.150471 -10.717062 -1.156319 8.000000
6.191722 -8.594517 -0.225582 123.000000
10.723311 3.296872 -0.963753 2.000000
19.957283 -2.411562 -1.522097 1.000000
18.163065 -10.814473 -1.148538 8.000000
6.137057 -8.584805 -0.213680 68.000000
10.772811 3.268923 -0.975036 1.000000
19.854044 -2.472952 -1.518416 1.000000
18.051218 -10.837692 -1.129228 8.000000
6.026175 -8.492201 -0.199941 24.000000
10.775413 3.224580 -0.978099 1.000000
19.598368 -2.514085 -1.489152 1.000000
18.041945 -10.922286 -1.116378 8.000000
6.015273 -8.543010 -0.189672 23.000000
10.758002 3.176456 -0.981374 3.000000
19.519562 -2.576731 -1.487328 6.000000
18.001957 -10.988441 -1.112697 9.000000
10.788206 3.142433 -0.989000 1.000000
19.455641 -2.640880 -1.483185 7.000000
17.940956 -11.041667 -1.096673 10.000000
5.942787 -8.569685 -0.169288 26.000000
10.784791 3.098601 -0.993561 1.000000
19.327105 -2.699050 -1.470740 8.000000
17.894463 -11.099362 -1.081453 10.000000
5.847739 -8.495801 -0.156621 87.000000
10.744095 3.040272 -0.992607 4.000000
19.267475 -2.762757 -1.470379 11.000000
17.867001 -11.173215 -1.067511 10.000000
4.411191 3.629844 -0.505821 1.000000
10.773137 3.009941 -0.996331 7.000000
19.277205 -2.836297 -1.468485 19.000000
17.843451 -11.249673 -1.053797 26.000000
6.117957 -9.026001 -0.144645 22.000000
4.478121 3.657475 -0.517040 1.000000
10.774338 2.965724 -1.003245 6.000000
19.276791 -2.908458 -1.465834 25.000000
17.806623 -11.317873 -1.046682 10.000000
6.200900 -9.217484 -0.137670 10.000000
4.382762 3.552892 -0.510480 1.000000
10.789604 2.927426 -1.007595 8.000000
19.280531 -2.981338 -1.470364 9.000000
17.769686 -11.386050 -1.035879 10.000000
6.150497 -9.215312 -0.125696 49.000000
10.790299 2.885197 -1.010596 8.000000
17.736677 -11.456815 -1.025314 18.000000
5.836730 -8.811652 -0.110687 57.000000
10.824192 2.851792 -1.020664 7.000000
17.705397 -11.524397 -1.014737 12.000000
5.960961 -9.071246 -0.102304 10.000000
4.389287 3.478905 -0.521540 1.000000
10.834225 2.812011 -1.024571 2.000000
17.671831 -11.594983 -1.004150 16.000000
6.131411 -9.401978 -0.095996 1.000000
4.569889 3.594857 -0.546548 1.000000
10.868542 2.776418 -1.032724 29.000000
14.127208 -2.399584 -1.077444 1.000000
17.646460 -11.671081 -0.990330 15.000000
12.936108 -19.988529 -0.178690 26.000000
10.897608 2.741334 -1.038480 21.000000
13.877792 -2.409585 -1.056616 2.000000
17.645407 -11.763576 -0.985265 10.000000
12.852050 -20.019123 -0.153628 54.000000
10.931392 2.707271 -1.044711 1.000000
13.815898 -2.446062 -1.050053 4.000000
9.937456 -6.677693 -0.543675 3.000000
5.845735 -9.175964 -0.058866 9.000000
10.969551 2.674088 -1.055365 1.000000
13.394695 -2.422156 -1.018708 1.000000
9.877018 -6.687244 -0.537470 3.000000
5.768274 -9.124507 -0.048986 9.000000
11.013086 2.639943 -1.064552 1.000000
13.243710 -2.445014 -1.005536 1.000000
9.864974 -6.731952 -0.533977 1.000000
5.681688 -9.060899 -0.039199 21.000000
11.046185 2.605101 -1.074816 1.000000
12.998008 -2.455999 -0.989975 3.000000
9.865080 -6.785153 -0.531137 1.000000
5.615703 -9.025515 -0.029685 31.000000
11.215304 2.601630 -1.094391 1.000000
12.877347 -2.477455 -0.979104 4.000000
17.505209 -12.134747 -0.926248 10.000000
5.556339 -9.003508 -0.018466 24.000000
4.585900 3.420716 -0.575083 1.000000
11.307076 2.579283 -1.104459 1.000000
12.633325 -2.478559 -0.961235 2.000000
17.473425 -12.207775 -0.912019 16.000000
5.564049 -9.086821 -0.007439 9.000000
4.347579 3.232330 -0.546470 1.000000
11.325411 2.539832 -1.113510 1.000000
12.502086 -2.500432 -0.949702 1.000000
17.439135 -12.274628 -0.905002 19.000000
4.389902 3.241248 -0.555246 1.000000
11.480322 2.528314 -1.133990 1.000000
12.243664 -2.495453 -0.930760 1.000000
17.394287 -12.338645 -0.897558 10.000000
5.176329 -8.591065 0.010503 6.000000
4.349123 3.186576 -0.554313 1.000000
11.630184 2.516660 -1.152067 1.000000
12.341679 -2.562579 -0.941131 1.000000
17.373962 -12.420199 -0.880182 20.000000
12.339833 -20.642879 0.050370 34.000000
4.404548 3.202441 -0.565641 1.000000
12.057364 2.562871 -1.199959 1.000000
12.219553 -2.586203 -0.932569 1.000000
17.336679 -12.489813 -0.873136 12.000000
12.252363 -20.659967 0.075461 20.000000
4.306891 3.107371 -0.557255 1.000000
12.075595 2.520524 -1.209540 1.000000
11.990496 -2.583676 -0.917957 1.000000
17.327536 -12.579954 -0.863762 10.000000
12.171453 -20.696053 0.096382 31.000000
4.317774 3.091223 -0.562816 1.000000
12.361998 2.530809 -1.248363 1.000000
11.859187 -2.600902 -0.908628 1.000000
17.281313 -12.643378 -0.863762 11.000000
12.096568 -20.734013 0.117310 74.000000
12.482741 2.507895 -1.266352 1.000000
11.805314 -2.634474 -0.911603 1.000000
17.257545 -12.718712 -0.853544 11.000000
11.783821 -2.631837 -0.931175 1.000000
17.254225 -12.720912 -0.887218 12.000000
12.387995 2.536131 -1.284426 1.000000
11.807518 -2.591731 -0.938658 1.000000
