VERSION .7
FIELDS x y z intensity
SIZE 4 4 4 4
TYPE F F F F
COUNT 1 1 1 1
WIDTH 1239
HEIGHT 1
VIEWPOINT 0 0 0 1 0 0 0
POINTS 1239
DATA ascii
6.997026 -7.304083 -0.957906 28.000000
15.246040 17.806723 -1.853148 20.000000
5.472453 0.120365 -0.712862 30.000000
6.957312 -2.924585 -0.937355 1.000000
7.016780 -7.376075 -0.953374 27.000000
15.309926 17.749241 -1.877696 13.000000
5.473105 0.100311 -0.710952 31.000000
6.906188 -2.932926 -0.925261 1.000000
6.881106 -7.286749 -0.926212 35.000000
15.331274 17.649052 -1.897387 9.000000
5.473451 0.079295 -0.710952 29.000000
6.861605 -7.319656 -0.920128 35.000000
15.279679 17.459986 -1.907528 10.000000
5.473704 0.059233 -0.710952 31.000000
6.815362 -7.316257 -0.908206 34.000000
15.276608 17.334009 -1.923941 7.000000
5.473885 0.039171 -0.710952 29.000000
6.752781 -7.307676 -0.893264 25.000000
15.146834 17.060291 -1.923768 6.000000
5.478704 0.018168 -0.713508 36.000000
6.750147 -7.358754 -0.885937 27.000000
15.128201 16.914030 -1.937449 6.000000
5.478734 0.000000 -0.713508 37.000000
6.775352 -7.438187 -0.882029 79.000000
15.053487 16.724461 -1.940923 6.000000
5.473864 -0.020063 -0.711907 31.000000
6.701030 -7.405777 -0.866764 22.000000
14.895601 16.427561 -1.940087 6.000000
5.478580 -0.041117 -0.713508 29.000000
7.035927 -7.836164 -0.902857 10.000000
14.914533 16.333498 -1.958457 6.000000
5.488329 -0.059392 -0.714800 34.000000
6.883786 -7.712631 -0.877179 14.000000
14.814672 16.105192 -1.956827 6.000000
5.493004 -0.081496 -0.715445 37.000000
6.909524 -7.804305 -0.873451 12.000000
14.564197 15.716893 -1.938741 6.000000
5.492651 -0.102587 -0.715445 30.000000
7.060504 -8.031147 -0.884799 38.000000
14.396766 15.427840 -1.931553 7.000000
5.502151 -0.122940 -0.716737 27.000000
6.980084 -3.302452 -0.907115 1.000000
6.831752 -7.828626 -0.848769 123.000000
14.387032 15.304565 -1.944891 9.000000
5.511602 -0.142401 -0.718028 51.000000
7.083271 -3.363384 -0.919747 1.000000
14.448702 15.257724 -1.964152 10.000000
5.511043 -0.162601 -0.718028 29.000000
6.454208 -7.498414 -0.789068 65.000000
14.442045 15.144457 -1.978157 10.000000
5.520257 -0.185055 -0.719320 26.000000
6.239525 -3.035136 -0.804047 1.000000
6.408493 -7.506034 -0.775022 9.000000
14.350951 14.938916 -1.983704 6.000000
5.529361 -0.204685 -0.721577 29.000000
14.356188 14.835147 -1.991444 6.000000
12.851552 5.184538 -1.726095 1.000000
5.538481 -0.225353 -0.722870 29.000000
14.062346 14.430362 -1.968532 6.000000
12.869627 5.137064 -1.733350 1.000000
5.532579 -0.247363 -0.722223 26.000000
14.103231 14.366591 -1.988157 6.000000
12.822924 5.064014 -1.731881 1.000000
5.536760 -0.266918 -0.721902 19.000000
6.180735 -7.447375 -0.722601 26.000000
13.864200 14.019936 -1.964579 6.000000
12.756818 4.983938 -1.732616 7.000000
5.555550 -0.288237 -0.724485 26.000000
6.110068 -7.422657 -0.707694 33.000000
13.840301 13.893546 -1.974707 6.000000
12.732794 4.920837 -1.731733 1.000000
5.559353 -0.309843 -0.725131 29.000000
6.137700 -7.504147 -0.703415 85.000000
13.693240 13.650290 -1.970778 6.000000
5.577851 -0.331385 -0.728689 17.000000
6.371834 -7.854535 -0.724984 30.000000
13.850297 13.715584 -2.004014 6.000000
5.581547 -0.352139 -0.729335 16.000000
6.372718 -7.906263 -0.715438 36.000000
13.719750 13.477654 -1.990850 6.000000
5.595376 -0.374587 -0.728339 21.000000
13.502811 13.176842 -1.976319 4.000000
5.613494 -0.396472 -0.732879 25.000000
5.781022 -3.080298 -0.720863 1.000000
5.929002 -7.464467 -0.653214 92.000000
5.626892 -0.419138 -0.733832 17.000000
5.717381 -3.073346 -0.712034 12.000000
5.914377 -7.502352 -0.644577 134.000000
5.640148 -0.440918 -0.735766 16.000000
5.684667 -3.082669 -0.704793 10.000000
6.103815 -7.798489 -0.657768 19.000000
5.663331 -0.463620 -0.737999 23.000000
5.665039 -3.098948 -0.699202 34.000000
6.277930 -8.087627 -0.667462 31.000000
5.691020 -0.487893 -0.742860 18.000000
5.639924 -3.114690 -0.693089 27.000000
4.327417 4.038207 -0.654501 28.000000
7.620242 2.658124 -1.061075 1.000000
5.709208 -0.510538 -0.743438 25.000000
5.629880 -3.133551 -0.689716 31.000000
4.312521 3.994836 -0.656261 19.000000
7.827176 2.695113 -1.092783 1.000000
5.736958 -0.535231 -0.746291 11.000000
5.622009 -3.158796 -0.685746 9.000000
4.292330 3.949766 -0.657377 20.000000
7.764968 2.644923 -1.088695 1.000000
5.779244 -0.560550 -0.753085 9.000000
6.667698 -8.841911 -0.679266 30.000000
4.292964 3.918641 -0.661224 14.000000
5.831420 -0.587193 -0.760159 8.000000
6.628211 -8.860113 -0.665136 28.000000
4.328270 3.923259 -0.669713 5.000000
10.705586 3.552976 -1.507046 1.000000
5.927888 -0.619908 -0.771981 1.000000
6.618488 -8.911801 -0.655612 44.000000
10.797333 3.539544 -1.528219 1.000000
5.994457 -0.649089 -0.782025 5.000000
6.577232 -8.924401 -0.645053 255.000000
10.785544 3.494033 -1.528844 1.000000
6.095425 -8.325293 -0.589522 31.000000
10.812879 3.454989 -1.536793 1.000000
16.492836 -1.844139 -2.155394 6.000000
6.320472 -8.705772 -0.601477 168.000000
10.771795 3.402536 -1.533358 1.000000
16.580219 -1.909600 -2.167630 6.000000
7.187334 -4.242116 -0.859516 1.000000
6.144516 -8.519581 -0.576243 25.000000
10.774808 3.358042 -1.535952 1.000000
16.558714 -1.968645 -2.162788 6.000000
7.138058 -4.248385 -0.849619 1.000000
10.739821 3.299897 -1.537054 1.000000
16.668812 -2.052579 -2.175291 6.000000
7.097354 -4.259464 -0.840788 1.000000
10.735713 3.259712 -1.540895 1.000000
16.538553 -2.092238 -2.162144 6.000000
7.056409 -4.270147 -0.834878 1.000000
10.728654 3.212628 -1.542083 1.000000
16.595070 -2.161214 -2.167584 6.000000
7.007233 -4.275555 -0.825119 1.000000
10.739839 3.173131 -1.545993 1.000000
16.606682 -2.227606 -2.167229 6.000000
6.955359 -4.275619 -0.814919 1.000000
6.315416 -9.093464 -0.549229 25.000000
10.689065 3.115578 -1.540990 40.000000
16.598782 -2.288509 -2.164304 6.000000
6.947077 -4.309049 -0.810205 1.000000
6.259750 -9.084197 -0.533769 19.000000
4.250940 3.563171 -0.693837 33.000000
10.676114 3.067377 -1.545318 45.000000
16.634434 -2.358545 -2.167137 5.000000
6.169054 -9.019803 -0.519159 39.000000
4.252064 3.537660 -0.696802 47.000000
10.724882 3.038879 -1.554721 33.000000
15.458105 -2.249583 -2.012174 1.000000
6.115440 -9.008740 -0.503959 34.000000
4.253057 3.512188 -0.699741 140.000000
10.754238 3.004661 -1.563330 30.000000
15.111673 -2.255758 -1.965431 4.000000
6.010174 -8.923882 -0.484804 50.000000
4.249990 3.483534 -0.702979 115.000000
10.789039 2.969770 -1.570703 36.000000
15.078390 -2.310011 -1.962241 5.000000
5.796012 -8.671069 -0.460847 31.000000
4.250711 3.458156 -0.705858 150.000000
10.837016 2.940290 -1.584103 25.000000
14.903585 -2.339169 -1.937919 5.000000
5.710744 -8.608394 -0.445616 30.000000
4.247252 3.429549 -0.709973 158.000000
10.852473 2.899793 -1.588722 11.000000
14.645522 -2.353698 -1.902840 6.000000
5.693140 -8.650516 -0.435849 18.000000
4.247703 3.404269 -0.712789 143.000000
10.986419 2.892483 -1.614859 6.000000
14.440314 -2.377634 -1.879947 3.000000
5.709597 -8.741818 -0.428489 20.000000
4.248025 3.379032 -0.715578 168.000000
10.977234 2.847083 -1.616003 34.000000
14.065041 -2.368825 -1.829678 3.000000
5.630414 -8.686666 -0.412152 34.000000
4.248120 3.353760 -0.719286 148.000000
11.001925 2.808446 -1.622083 1.000000
13.801702 -2.379007 -1.796597 5.000000
5.641964 -8.774782 -0.406231 18.000000
4.252086 3.331665 -0.722683 143.000000
11.203322 2.816159 -1.656415 1.000000
13.485488 -2.375429 -1.754127 1.000000
5.786252 -9.068620 -0.405735 5.000000
4.251934 3.306466 -0.726335 129.000000
11.318130 2.800954 -1.680169 1.000000
13.261627 -2.386143 -1.728524 3.000000
5.941012 -4.049646 -0.658132 1.000000
4.255475 3.284261 -0.731566 153.000000
11.472478 2.792447 -1.705685 1.000000
12.862161 -2.365290 -1.677629 1.000000
6.100347 -4.187951 -0.672109 1.000000
4.255279 3.259294 -0.733286 158.000000
11.452604 2.743186 -1.709617 1.000000
12.697712 -2.383194 -1.655017 1.000000
5.981423 -4.141734 -0.656992 1.000000
6.078485 -9.754106 -0.399338 18.000000
4.301968 3.270108 -0.745988 9.000000
11.307779 2.662628 -1.694742 1.000000
12.420712 -2.378366 -1.622281 1.000000
6.152331 -9.949816 -0.396248 8.000000
11.461771 2.654588 -1.718449 1.000000
12.154066 -2.375722 -1.584240 1.000000
5.879580 -4.132238 -0.641372 1.000000
12.488173 -20.362888 -0.779902 119.000000
11.499192 2.618885 -1.731018 1.000000
12.043703 -2.395642 -1.573060 1.000000
5.978652 -4.234689 -0.647424 2.000000
5.520273 -9.072118 -0.337446 4.000000
11.498918 2.572420 -1.733680 1.000000
11.902340 -2.419395 -1.555906 1.000000
5.926880 -4.230725 -0.639650 8.000000
12.217314 -20.236898 -0.726362 32.000000
11.546028 2.538559 -1.745692 1.000000
11.874232 -2.459035 -1.551248 1.000000
9.740697 -6.963373 -1.053882 27.000000
5.082242 -8.485085 -0.291821 5.000000
11.912868 2.571301 -1.803997 1.000000
11.753525 -2.478999 -1.536656 1.000000
9.679331 -6.973251 -1.041608 37.000000
5.074234 -8.542587 -0.282744 5.000000
12.119337 2.569413 -1.842664 1.000000
11.778745 -2.527294 -1.541097 1.000000
9.698487 -7.041193 -1.040117 7.000000
12.042932 -20.436684 -0.650160 30.000000
11.696982 -2.554632 -1.529491 1.000000
9.694393 -7.090027 -1.035990 1.000000
4.903747 -8.388395 -0.257832 7.000000
13.550726 2.766780 -2.074356 5.000000
11.663333 -2.592107 -1.526323 1.000000
17.404600 -12.827089 -1.853547 7.000000
11.804236 -20.363377 -0.599904 27.000000
11.652775 -2.636754 -1.530493 1.000000
17.389725 -12.914750 -1.853183 7.000000
11.687847 -2.646834 -1.560678 1.000000
17.361122 -12.898210 -1.884602 8.000000
4.888555 -8.501458 -0.251661 1.000000
13.205657 2.696324 -2.062441 5.000000
11.725894 -2.608158 -1.572939 1.000000
17.379856 -12.818218 -1.912152 8.000000
4.956610 -8.554041 -0.269243 3.000000
13.108809 2.729023 -2.044154 5.000000
11.705242 -2.558577 -1.577409 1.000000
9.669299 -7.076858 -1.069398 8.000000
4.957500 -8.483744 -0.279615 9.000000
12.111679 2.567789 -1.894542 1.000000
11.805813 -2.535258 -1.596132 1.000000
9.565328 -6.947066 -1.067556 21.000000
12.023303 -20.411518 -0.707225 30.000000
11.880137 2.566406 -1.855509 1.000000
11.761564 -2.478550 -1.593120 1.000000
5.028945 -8.469708 -0.307834 4.000000
11.580697 2.546181 -1.812304 1.000000
11.885681 -2.459243 -1.619479 1.000000
5.930891 -4.236714 -0.676153 1.000000
5.191703 -8.674704 -0.330071 1.000000
11.512957 2.577670 -1.803239 1.000000
11.927212 -2.426619 -1.628357 1.000000
5.747602 -4.054487 -0.663648 1.000000
12.260562 -20.324566 -0.808150 37.000000
11.503431 2.619850 -1.803239 1.000000
12.038077 -2.398891 -1.648708 1.000000
5.789688 -4.053983 -0.674337 1.000000
5.628087 -9.256577 -0.382092 8.000000
11.556497 2.678652 -1.808919 1.000000
12.090405 -2.361088 -1.658998 1.000000
5.906206 -4.103392 -0.692486 1.000000
5.576572 -9.100139 -0.389492 8.000000
4.250542 3.275723 -0.760875 34.000000
11.517735 2.714188 -1.804396 1.000000
12.452544 -2.388968 -1.714353 1.000000
5.931570 -4.091916 -0.700212 1.000000
5.655271 -9.156665 -0.407802 21.000000
4.235015 3.288568 -0.756430 177.000000
11.642435 2.790803 -1.821321 1.000000
12.651361 -2.374495 -1.744974 5.000000
6.076741 -9.758896 -0.449678 23.000000
4.235152 3.313627 -0.753833 124.000000
11.738410 2.859345 -1.833648 1.000000
12.824944 -2.360760 -1.770086 4.000000
4.235160 3.338731 -0.751209 139.000000
11.828112 2.929353 -1.849404 1.000000
13.334785 -2.404112 -1.846451 1.000000
4.234837 3.363717 -0.750447 143.000000
11.726830 2.949928 -1.830928 1.000000
13.869948 -2.443150 -1.929197 6.000000
5.882304 -9.229813 -0.470210 38.000000
4.230723 3.385813 -0.747093 119.000000
11.657941 2.980241 -1.821945 1.000000
14.263696 -2.461205 -1.985331 6.000000
5.711724 -8.893509 -0.467027 8.000000
4.230259 3.410951 -0.745348 134.000000
11.226442 2.913810 -1.752025 1.000000
5.625769 -8.692788 -0.468380 31.000000
4.229768 3.436213 -0.742631 114.000000
11.081901 2.921758 -1.727114 1.000000
15.144629 -2.499031 -2.118988 6.000000
5.643585 -8.650640 -0.481673 30.000000
4.229147 3.461517 -0.739888 119.000000
11.142759 2.981525 -1.738291 1.000000
15.085288 -2.429776 -2.112082 6.000000
5.703596 -8.676293 -0.496920 16.000000
4.228398 3.486862 -0.737118 130.000000
11.189601 3.038050 -1.743184 1.000000
15.039909 -2.365945 -2.107208 6.000000
5.722526 -8.639239 -0.506816 28.000000
4.230618 3.516071 -0.735943 100.000000
11.145071 3.071957 -1.733945 3.000000
15.038728 -2.306622 -2.108493 6.000000
5.724577 -8.577155 -0.516973 38.000000
4.230213 3.540772 -0.733118 125.000000
11.190883 3.128762 -1.742845 4.000000
15.036191 -2.249857 -2.115081 6.000000
6.155806 -3.893043 -0.778384 1.000000
5.847597 -8.692307 -0.538034 56.000000
4.225273 3.563055 -0.729613 87.000000
11.588488 3.287951 -1.802421 5.000000
14.999869 -2.188244 -2.111526 6.000000
6.211685 -3.896583 -0.788817 1.000000
5.983986 -8.828351 -0.560809 33.000000
4.265563 3.623865 -0.733890 20.000000
11.620036 3.342969 -1.802749 1.000000
14.944057 -2.121532 -2.105193 6.000000
6.153472 -3.828709 -0.787315 3.000000
5.673728 -8.308025 -0.539576 36.000000
11.607719 3.387738 -1.798529 6.000000
14.896317 -2.059086 -2.108094 6.000000
6.197937 -3.821949 -0.796179 1.000000
5.671132 -8.242299 -0.550601 17.000000
11.680588 3.455513 -1.811769 1.000000
14.864142 -1.999145 -2.105159 6.000000
5.726518 -8.257819 -0.565351 255.000000
11.682051 3.504783 -1.809719 2.000000
14.807519 -1.933674 -2.098730 6.000000
5.877900 -8.413248 -0.588176 18.000000
11.679497 3.550729 -1.804795 1.000000
14.823966 -1.880589 -2.102730 7.000000
5.886642 -8.363427 -0.600454 36.000000
11.619732 3.579137 -1.793238 5.000000
14.781938 -1.817613 -2.095763 6.000000
6.288405 -3.744180 -0.824801 1.000000
5.916889 -8.341278 -0.611164 13.000000
11.635501 3.628511 -1.797616 1.000000
14.723498 -1.755671 -2.094469 8.000000
6.044188 -8.458017 -0.634006 8.000000
11.640605 3.681440 -1.794142 1.000000
6.111187 -8.488975 -0.648917 23.000000
11.650534 3.733849 -1.793506 1.000000
5.511266 -3.199912 -0.733985 6.000000
6.042094 -8.328450 -0.652758 37.000000
11.609426 3.767652 -1.782764 1.000000
5.889060 -0.610653 -0.840523 4.000000
5.492381 -3.162087 -0.734405 8.000000
6.032450 -8.254383 -0.659349 64.000000
11.610231 3.815004 -1.780666 3.000000
5.762758 -0.576216 -0.825283 4.000000
5.494861 -3.136756 -0.737671 9.000000
6.093351 -8.276912 -0.673652 24.000000
11.619265 3.867467 -1.782133 1.000000
5.754977 -0.554141 -0.823872 6.000000
5.501437 -3.113831 -0.742609 31.000000
6.143887 -8.281806 -0.690340 9.000000
4.356427 4.048242 -0.716506 1.000000
7.963081 2.679873 -1.219719 1.000000
5.741947 -0.532664 -0.822763 3.000000
5.515609 -3.097747 -0.747609 35.000000
6.488852 -8.683301 -0.737094 65.000000
4.338481 4.061299 -0.709685 3.000000
7.996371 2.723744 -1.218812 4.000000
5.743896 -0.509598 -0.823769 7.000000
5.526698 -3.077384 -0.749817 27.000000
6.472235 -8.595186 -0.741057 21.000000
4.305954 4.060565 -0.701556 8.000000
7.999888 2.759269 -1.220954 4.000000
5.760148 -0.490781 -0.827908 5.000000
5.554750 -3.066387 -0.757709 26.000000
6.399085 -8.436596 -0.744161 92.000000
4.280771 4.066562 -0.693608 78.000000
8.014089 2.797076 -1.217118 1.000000
5.737548 -0.465664 -0.823360 5.000000
5.582906 -3.055285 -0.764524 26.000000
6.397740 -8.373953 -0.751692 27.000000
8.002996 2.829295 -1.215636 1.000000
5.699387 -0.440545 -0.820689 5.000000
5.612111 -3.042057 -0.771366 21.000000
6.488747 -8.428853 -0.769947 53.000000
5.686155 -0.418563 -0.818557 5.000000
5.626880 -3.023432 -0.778655 28.000000
12.036615 11.595238 -1.936734 5.000000
5.697313 -0.399394 -0.820975 4.000000
5.662792 -3.018571 -0.785645 25.000000
5.880275 -7.529117 -0.714962 38.000000
12.164845 11.800912 -1.948996 6.000000
5.654011 -0.375539 -0.816551 6.000000
5.695795 -3.008136 -0.793181 30.000000
5.925863 -7.530429 -0.727236 116.000000
12.189866 11.920539 -1.942567 6.000000
5.655331 -0.352830 -0.817540 6.000000
5.720523 -2.991889 -0.799521 21.000000
5.994908 -7.563692 -0.744325 72.000000
12.257689 12.066643 -1.944538 6.000000
12.797350 4.789825 -1.930129 10.000000
5.686169 -0.334833 -0.821824 5.000000
5.747408 -2.981719 -0.807630 10.000000
12.341597 12.238634 -1.949592 4.000000
12.723618 4.818008 -1.919362 1.000000
5.632578 -0.310966 -0.816923 5.000000
5.793220 -2.978589 -0.815992 9.000000
6.478899 -8.055245 -0.820838 13.000000
12.389263 12.376297 -1.948801 3.000000
5.634015 -0.289350 -0.814954 4.000000
5.847789 -2.979598 -0.826788 9.000000
6.485871 -8.003669 -0.828856 31.000000
12.435014 12.509025 -1.944157 5.000000
12.794306 4.957447 -1.921059 1.000000
5.619925 -0.267978 -0.814774 8.000000
5.867785 -2.960176 -0.834921 8.000000
6.220169 -7.621247 -0.801865 40.000000
12.519683 12.686861 -1.945761 1.000000
12.666322 4.961327 -1.897298 8.000000
5.541674 -0.242924 -0.804276 9.000000
5.913693 -2.956195 -0.843424 7.000000
6.217540 -7.563972 -0.811882 34.000000
12.655170 12.918524 -1.958196 3.000000
12.617614 4.993119 -1.885359 5.000000
5.537863 -0.222424 -0.801624 31.000000
5.967635 -2.958466 -0.852076 7.000000
12.709671 13.069641 -1.954715 4.000000
12.664523 5.065448 -1.887850 1.000000
5.528506 -0.200789 -0.802124 212.000000
5.955781 -2.925445 -0.852379 6.000000
12.782820 13.236996 -1.953570 1.000000
12.612861 5.103610 -1.875928 1.000000
5.509283 -0.179874 -0.800216 36.000000
6.011264 -2.922804 -0.865749 6.000000
12.749157 13.299344 -1.939605 4.000000
5.504960 -0.159537 -0.799498 30.000000
6.038887 -2.910215 -0.871828 7.000000
6.372481 -7.527478 -0.859399 27.000000
12.907414 13.563599 -1.951410 5.000000
5.500585 -0.138274 -0.798779 25.000000
6.084894 -2.904953 -0.880518 8.000000
6.301189 -7.390795 -0.856549 24.000000
13.001446 13.758260 -1.952838 3.000000
5.496107 -0.118006 -0.798061 37.000000
6.126455 -2.897270 -0.888598 8.000000
6.444465 -7.502970 -0.882720 25.000000
13.023789 13.883489 -1.943680 2.000000
5.481678 -0.096640 -0.795906 31.000000
6.149936 -2.880841 -0.895290 9.000000
6.512359 -7.528688 -0.898923 27.000000
13.122900 14.092299 -1.952584 6.000000
5.477048 -0.076479 -0.795188 28.000000
6.187006 -2.870600 -0.902782 9.000000
6.473862 -7.428976 -0.900249 27.000000
13.142796 14.212818 -1.939023 6.000000
5.462458 -0.055298 -0.793033 29.000000
6.228581 -2.862193 -0.910964 12.000000
6.620639 -7.544078 -0.927592 30.000000
13.229931 14.412664 -1.938968 6.000000
5.472519 -0.035340 -0.794469 27.000000
6.279545 -2.856461 -0.921709 13.000000
6.723438 -7.604812 -0.948805 28.000000
13.342604 14.642780 -1.942387 6.000000
9.751391 4.282592 -1.422954 1.000000
5.467528 -0.014314 -0.794705 31.000000
6.316641 -2.845439 -0.929309 19.000000
6.806884 -7.642565 -0.967433 30.000000
13.496221 14.915616 -1.954597 6.000000
9.345735 4.147315 -1.362440 1.000000
5.457510 0.003810 -0.794219 31.000000
6.338872 -2.830206 -0.937362 16.000000
6.982880 -7.790749 -1.001861 8.000000
13.565877 15.103500 -1.951231 6.000000
9.286319 4.161754 -1.346956 1.000000
5.457737 0.023814 -0.792314 32.000000
6.394372 -2.826922 -0.945273 22.000000
6.717405 -7.439518 -0.966916 10.000000
13.540267 15.175918 -1.933282 10.000000
9.390548 4.245915 -1.358618 1.000000
5.457605 0.044770 -0.792314 31.000000
6.445577 -2.820024 -0.954986 18.000000
7.095538 -7.800629 -1.028370 255.000000
13.488546 15.224598 -1.911983 18.000000
5.457405 0.064773 -0.792314 44.000000
6.473594 -2.804058 -0.961370 24.000000
6.799335 -7.422773 -0.992322 17.000000
13.463561 15.309075 -1.894846 8.000000
5.462064 0.085805 -0.793033 33.000000
6.524341 -2.797684 -0.971163 19.000000
6.798794 -7.367783 -0.998897 23.000000
13.434262 15.383716 -1.876698 6.000000
5.456765 0.105728 -0.792314 37.000000
6.575120 -2.790973 -0.981003 23.000000
6.813596 -7.332302 -1.007892 33.000000
13.754150 15.867030 -1.907323 6.000000
5.461266 0.126794 -0.793033 30.000000
6.607345 -2.776115 -0.990659 18.000000
6.867017 -7.335687 -1.020669 24.000000
13.904648 16.154234 -1.913498 6.000000
5.455869 0.144773 -0.792314 25.000000
6.663530 -2.769667 -0.998765 22.000000
6.678137 -7.081713 -0.999030 23.000000
13.846425 16.206352 -1.894897 6.000000
5.460021 0.167773 -0.793986 27.000000
6.709467 -2.759964 -1.010580 11.000000
6.534164 -6.880761 -0.985609 9.000000
13.997610 16.505415 -1.901013 6.000000
5.434645 0.186933 -0.790390 23.000000
6.746565 -2.746357 -1.018533 18.000000
6.489874 -6.784150 -0.985110 25.000000
14.044070 16.677870 -1.888377 6.000000
5.458922 0.207802 -0.792079 27.000000
6.806612 -2.741761 -1.029992 19.000000
6.451872 -6.695126 -0.985455 9.000000
14.111904 16.883636 -1.882592 6.000000
5.453278 0.228560 -0.790409 33.000000
6.876381 -2.739225 -1.042903 23.000000
6.374075 -6.568353 -0.979758 12.000000
14.190745 17.098906 -1.881529 6.000000
5.457433 0.246866 -0.791126 32.000000
6.913501 -2.724694 -1.050979 24.000000
6.359281 -6.505230 -0.981843 10.000000
14.338257 17.393696 -1.880990 6.000000
5.456445 0.267819 -0.791126 36.000000
6.983232 -2.722649 -1.061390 24.000000
6.358064 -6.456474 -0.985996 10.000000
14.490080 17.716032 -1.889707 8.000000
5.455289 0.287809 -0.792079 36.000000
7.025100 -2.707943 -1.072868 27.000000
6.398332 -6.449909 -0.999800 9.000000
14.420214 17.763063 -1.860933 9.000000
5.459084 0.309033 -0.792797 31.000000
7.080877 -2.699677 -1.082567 9.000000
6.437750 -6.444495 -1.010485 10.000000
14.355964 17.797895 -1.839763 11.000000
5.458053 0.329048 -0.791842 36.000000
7.168921 -2.703192 -1.098599 7.000000
6.467622 -6.427112 -1.021136 10.000000
14.292226 17.852381 -1.807834 10.000000
5.452086 0.349704 -0.789219 28.000000
7.247326 -2.703899 -1.113295 8.000000
6.508183 -6.420181 -1.031897 10.000000
14.147054 17.798033 -1.777356 10.000000
5.460504 0.370345 -0.791604 29.000000
7.274457 -2.686574 -1.118851 8.000000
6.552191 -6.416380 -1.044866 9.000000
14.058356 17.820143 -1.746509 10.000000
5.464253 0.391683 -0.790407 32.000000
7.328032 -2.683129 -1.128715 9.000000
6.620189 -6.437852 -1.060283 10.000000
13.969519 17.835211 -1.719333 19.000000
5.467854 0.412090 -0.790164 27.000000
7.389534 -2.686650 -1.140049 9.000000
6.657231 -6.426568 -1.072255 12.000000
13.859432 17.828890 -1.686069 8.000000
5.461373 0.431738 -0.789451 26.000000
7.430152 -2.675020 -1.147828 10.000000
6.705025 -6.425396 -1.086009 12.000000
13.880443 17.985132 -1.672331 6.000000
5.469676 0.453534 -0.789920 28.000000
7.499385 -2.671886 -1.158567 13.000000
6.745830 -6.417235 -1.097038 10.000000
13.954978 18.219379 -1.665184 7.000000
5.448392 0.471882 -0.786116 37.000000
7.564360 -2.663832 -1.172806 20.000000
6.786656 -6.408853 -1.108110 10.000000
14.287802 18.789413 -1.687867 7.000000
5.456398 0.493691 -0.787539 38.000000
7.639757 -2.657455 -1.184347 13.000000
6.827502 -6.400249 -1.119224 10.000000
14.232375 18.852745 -1.660079 7.000000
5.459616 0.514163 -0.787293 38.000000
7.733263 -2.658247 -1.200240 27.000000
6.892685 -6.416296 -1.134567 12.000000
14.095428 18.814348 -1.627399 7.000000
5.467589 0.536102 -0.787755 37.000000
6.929714 -6.403519 -1.148488 15.000000
13.986021 18.804754 -1.597679 8.000000
5.480497 0.557655 -0.788923 39.000000
7.901660 -2.649994 -1.233659 11.000000
6.988969 -6.410945 -1.162806 10.000000
13.871231 18.787006 -1.559292 9.000000
5.483439 0.577300 -0.789632 39.000000
7.980617 -2.647065 -1.246108 9.000000
7.048509 -6.418149 -1.175547 10.000000
13.782595 18.810854 -1.532541 9.000000
5.495975 0.600936 -0.790793 52.000000
8.075835 -2.641150 -1.262269 9.000000
7.082264 -6.401563 -1.185714 13.000000
13.641633 18.755438 -1.495683 8.000000
5.567926 0.629464 -0.798479 10.000000
8.150713 -2.632609 -1.277040 19.000000
7.130601 -6.397923 -1.200061 10.000000
13.570787 18.802523 -1.471079 10.000000
5.619689 0.657179 -0.805251 8.000000
8.235263 -2.626624 -1.291854 17.000000
7.197671 -6.410638 -1.215930 10.000000
13.482856 18.818771 -1.440264 8.000000
5.632127 0.679568 -0.806374 4.000000
8.305957 -2.614078 -1.306021 22.000000
7.222922 -6.388054 -1.224971 10.000000
13.348533 18.769333 -1.408695 9.000000
5.624947 0.698630 -0.804681 1.000000
8.351915 -2.598134 -1.315008 19.000000
7.260227 -6.373776 -1.237609 18.000000
13.225818 18.741846 -1.378875 9.000000
5.642129 0.721773 -0.806499 1.000000
8.441742 -2.590569 -1.330727 4.000000
7.332995 -6.394726 -1.253297 10.000000
13.124045 18.736118 -1.347028 9.000000
5.634677 0.741819 -0.804806 1.000000
8.655111 -2.618078 -1.365922 1.000000
7.380110 -6.383839 -1.267349 10.000000
13.042265 18.758373 -1.321340 9.000000
5.695703 0.772114 -0.812916 1.000000
8.730280 -2.605928 -1.381149 1.000000
7.428947 -6.378632 -1.280402 10.000000
12.920472 18.729292 -1.288057 8.000000
5.683168 0.791638 -0.810514 1.000000
8.866884 -2.613030 -1.404609 1.000000
7.507843 -6.398718 -1.300457 11.000000
12.830386 18.738308 -1.261733 9.000000
5.670424 0.812070 -0.808116 4.000000
9.032564 -2.625912 -1.432680 1.000000
7.534160 -6.373624 -1.309723 10.000000
12.723783 18.722479 -1.225967 9.000000
5.716535 0.840067 -0.814092 3.000000
7.590750 -6.373912 -1.324294 10.000000
12.625675 18.718332 -1.195138 9.000000
4.492730 2.868803 -0.561203 1.000000
5.684927 0.851647 -0.808903 2.000000
13.065288 -3.692178 -2.077567 5.000000
7.651236 -6.377032 -1.339608 9.000000
12.516018 18.703266 -1.167608 9.000000
4.465530 2.865719 -0.555807 1.000000
5.735740 0.880765 -0.815554 3.000000
13.040581 -3.631184 -2.076242 5.000000
12.398944 18.668980 -1.135306 9.000000
4.434443 2.868770 -0.549516 3.000000
5.723252 0.900331 -0.810118 5.000000
13.101110 -3.596349 -2.086194 5.000000
12.306868 18.671434 -1.109359 9.000000
4.403548 2.871732 -0.541423 29.000000
5.700337 0.919170 -0.806341 3.000000
13.090266 -3.539379 -2.087133 5.000000
12.195873 18.644350 -1.077929 9.000000
4.422324 2.907134 -0.542238 5.000000
5.741043 0.947335 -0.811549 4.000000
13.083346 -3.486100 -2.088817 5.000000
5.102657 -4.102642 -0.907366 13.000000
12.167330 18.736044 -1.053536 8.000000
4.424550 2.931879 -0.538209 3.000000
5.776567 0.975996 -0.816052 6.000000
12.990185 -3.410334 -2.076734 5.000000
5.084781 -4.060580 -0.906418 18.000000
12.006746 18.645115 -1.018670 9.000000
4.360306 2.912363 -0.527991 1.000000
5.846433 1.009854 -0.824328 3.000000
13.035968 -3.368903 -2.086782 6.000000
5.061478 -4.008802 -0.906282 21.000000
11.915355 18.645857 -0.989342 9.000000
12.976402 -3.302820 -2.075295 5.000000
5.052159 -3.971376 -0.907720 19.000000
11.832108 18.658812 -0.960787 8.000000
14.542589 2.577338 -2.044143 5.000000
12.950372 -3.238495 -2.078489 5.000000
5.046540 -3.937118 -0.909809 23.000000
11.724274 18.639467 -0.934469 8.000000
14.592232 2.641336 -2.047192 1.000000
12.955891 -3.194263 -2.080049 5.000000
5.032911 -3.896896 -0.910439 26.000000
11.610593 18.588051 -0.907067 6.000000
14.363160 2.656869 -2.013874 5.000000
12.939253 -3.137507 -2.075428 5.000000
5.035684 -3.868207 -0.911640 25.000000
11.550391 18.650671 -0.873436 6.000000
12.925935 -3.084160 -2.076216 5.000000
5.025580 -3.831239 -0.912892 31.000000
20.813543 33.871655 -1.534198 6.000000
14.587049 2.811663 -2.040241 6.000000
12.999496 -3.049004 -2.090911 6.000000
5.019222 -3.797385 -0.914810 25.000000
15.190522 2.985769 -2.115152 6.000000
12.855851 -2.965644 -2.070763 5.000000
5.024682 -3.772638 -0.917759 32.000000
12.828605 -2.907525 -2.064560 7.000000
5.018126 -3.739033 -0.918514 29.000000
21.618587 36.007835 -1.473981 13.000000
12.911140 -2.876519 -2.078498 6.000000
5.010099 -3.707278 -0.919235 27.000000
21.473343 36.050476 -1.413991 10.000000
12.830411 -2.806867 -2.063752 5.000000
5.026991 -3.691342 -0.925408 19.000000
12.128210 2.571294 -1.671840 1.000000
12.826125 -2.756708 -2.061423 6.000000
5.017896 -3.652410 -0.925338 18.000000
12.056930 2.597991 -1.661000 1.000000
12.328468 -2.600263 -1.984327 1.000000
4.997395 -3.612196 -0.923744 30.000000
16.245642 27.935232 -0.964750 4.000000
11.640847 2.555147 -1.600784 1.000000
12.187648 -2.523940 -1.962386 1.000000
5.006189 -3.590692 -0.926229 23.000000
16.043715 27.810944 -0.919258 4.000000
11.545430 2.578594 -1.580545 1.000000
12.191737 -2.476006 -1.965950 1.000000
4.992073 -3.567388 -0.924654 38.000000
16.101070 28.136826 -0.882867 5.000000
11.396015 2.589111 -1.559303 1.000000
12.239816 -2.439093 -1.970015 1.000000
5.000685 -3.545926 -0.927119 31.000000
11.275979 2.607411 -1.536014 1.000000
12.229027 -2.388159 -1.971246 1.000000
4.996813 -3.515729 -0.929460 25.000000
23.710758 42.131386 -1.198416 8.000000
11.155887 2.622753 -1.516884 1.000000
12.243295 -2.342178 -1.969852 1.000000
5.001028 -3.491361 -0.932215 30.000000
23.469320 42.045086 -1.126352 7.000000
11.234014 2.684609 -1.520630 1.000000
12.373151 -2.320043 -1.989363 1.000000
4.997608 -3.460508 -0.933437 26.000000
10.998446 2.670966 -1.484031 1.000000
12.629705 -2.317985 -2.029166 7.000000
5.005781 -3.439092 -0.935858 32.000000
11.014404 2.674841 -1.474112 1.000000
5.009582 -3.453299 -0.928886 22.000000
10.991831 2.624706 -1.461709 1.000000
12.440003 -2.332578 -1.975213 5.000000
5.002012 -3.475194 -0.921138 32.000000
23.623362 41.958954 -1.117948 6.000000
11.102499 2.608157 -1.477168 1.000000
12.262877 -2.345924 -1.939513 1.000000
4.998130 -3.499728 -0.916244 25.000000
11.276249 2.605400 -1.499005 1.000000
12.201429 -2.382770 -1.924562 1.000000
5.001952 -3.529796 -0.914940 27.000000
16.486742 28.799129 -0.839985 1.000000
11.344196 2.575256 -1.506712 1.000000
12.178733 -2.424710 -1.917932 1.000000
4.997949 -3.554484 -0.908926 26.000000
16.459301 28.519840 -0.868016 1.000000
11.541778 2.575663 -1.535887 1.000000
12.175159 -2.472639 -1.912191 1.000000
4.997721 -3.581976 -0.904687 35.000000
16.623638 28.573742 -0.906060 2.000000
11.599310 2.543907 -1.544400 1.000000
12.137630 -2.511373 -1.903301 1.000000
4.984645 -3.618899 -0.898617 31.000000
16.386431 27.941168 -0.927415 1.000000
11.991920 2.581793 -1.595342 1.000000
12.075674 -2.546945 -1.888491 1.000000
4.992073 -3.652307 -0.895749 27.000000
12.097771 2.558222 -1.612556 1.000000
12.129725 -2.604817 -1.893993 1.000000
4.991230 -3.679852 -0.892488 26.000000
21.510893 36.084858 -1.298198 8.000000
12.125429 -2.652640 -1.888248 1.000000
4.994225 -3.710391 -0.889908 24.000000
21.669470 36.064053 -1.344266 10.000000
12.053540 -2.683243 -1.874162 1.000000
4.997187 -3.741095 -0.886203 30.000000
12.014857 -2.723094 -1.865361 1.000000
4.995914 -3.768794 -0.882851 21.000000
13.330679 2.612959 -1.776355 1.000000
12.005745 -2.767331 -1.858910 1.000000
5.002267 -3.802434 -0.881957 31.000000
20.834496 33.852745 -1.402003 1.000000
13.982981 2.685105 -1.864416 3.000000
11.943201 -2.799053 -1.846423 1.000000
5.004874 -3.833441 -0.877035 27.000000
20.884680 33.696671 -1.439818 10.000000
14.419866 2.719449 -1.926665 4.000000
11.894513 -2.835866 -1.836200 1.000000
5.007078 -3.864329 -0.874272 23.000000
20.962784 33.534439 -1.477785 10.000000
14.416836 2.656390 -1.922154 2.000000
11.846216 -2.870279 -1.826006 1.000000
5.009003 -3.895191 -0.872581 28.000000
21.009136 33.361942 -1.514591 10.000000
14.493198 2.620797 -1.936396 5.000000
11.778414 -2.901776 -1.810765 1.000000
5.018687 -3.932325 -0.871104 25.000000
21.153902 33.333218 -1.564936 10.000000
14.619525 2.588342 -1.954630 4.000000
11.696349 -2.927071 -1.795484 1.000000
5.025783 -3.964853 -0.867785 20.000000
11.989577 18.733170 -0.908861 6.000000
5.947519 1.009151 -0.797411 1.000000
11.685632 -2.972115 -1.791275 1.000000
5.033685 -4.003974 -0.866203 20.000000
12.043077 18.680037 -0.927645 8.000000
5.716421 0.949423 -0.764948 1.000000
11.618398 -3.000396 -1.774081 1.000000
5.062103 -4.056960 -0.867883 17.000000
12.144040 18.678762 -0.957159 9.000000
5.744520 0.930409 -0.769236 1.000000
11.607921 -3.043116 -1.769893 1.000000
5.078871 -4.101060 -0.865212 11.000000
12.237577 18.693855 -0.987247 9.000000
5.693326 0.902753 -0.765047 4.000000
11.591370 -3.086391 -1.769163 1.000000
5.102609 -4.151216 -0.868337 9.000000
12.362591 18.741734 -1.019533 9.000000
5.721109 0.884652 -0.769346 5.000000
11.551923 -3.121274 -1.760609 1.000000
12.430701 18.695549 -1.039126 9.000000
5.670403 0.855543 -0.762101 4.000000
11.569662 -3.173785 -1.756601 4.000000
7.771778 -6.379269 -1.313007 16.000000
12.540617 18.704687 -1.069876 10.000000
5.663563 0.833292 -0.761782 5.000000
11.568072 -3.218985 -1.753858 1.000000
7.729769 -6.392349 -1.304518 13.000000
12.658205 18.738329 -1.102012 8.000000
4.495136 2.814330 -0.531226 1.000000
5.671494 0.812223 -0.763442 7.000000
11.570501 -3.267580 -1.751829 1.000000
7.665597 -6.386735 -1.285236 13.000000
12.733663 18.715929 -1.126935 8.000000
4.517623 2.805413 -0.538290 2.000000
5.655489 0.782752 -0.761797 7.000000
9.056955 -2.593619 -1.369338 6.000000
7.597409 -6.377243 -1.268915 11.000000
12.834946 18.723928 -1.153940 9.000000
4.531303 2.792039 -0.542509 1.000000
5.638542 0.759355 -0.760145 8.000000
8.957559 -2.600716 -1.352418 1.000000
7.555890 -6.389744 -1.257107 17.000000
12.961960 18.768398 -1.183411 9.000000
4.562402 2.788182 -0.548777 1.000000
5.626543 0.735754 -0.759149 9.000000
9.085620 -2.675766 -1.369918 1.000000
7.503043 -6.392367 -1.243465 17.000000
13.062043 18.751886 -1.213663 10.000000
5.619355 0.711883 -0.759800 9.000000
9.009109 -2.692582 -1.354975 1.000000
7.440087 -6.383687 -1.228027 10.000000
13.188950 18.807812 -1.244083 8.000000
5.577419 0.687786 -0.753817 10.000000
8.602208 -2.603714 -1.291934 14.000000
7.412176 -6.402534 -1.218237 10.000000
13.260182 18.755777 -1.272147 9.000000
5.574968 0.665762 -0.754132 17.000000
8.498825 -2.606464 -1.271499 26.000000
7.331080 -6.384051 -1.200497 12.000000
13.364957 18.771606 -1.300426 9.000000
5.547965 0.641921 -0.749164 24.000000
8.418735 -2.615698 -1.257803 25.000000
7.274996 -6.382247 -1.184848 16.000000
13.464646 18.772587 -1.323967 9.000000
5.550259 0.620600 -0.750139 28.000000
8.385648 -2.640767 -1.249669 9.000000
7.230165 -6.389964 -1.171098 16.000000
13.593808 18.806736 -1.358327 9.000000
5.532659 0.598108 -0.748448 28.000000
8.324446 -2.655069 -1.238878 9.000000
7.196334 -6.407195 -1.160883 12.000000
13.693783 18.806429 -1.386195 9.000000
5.514970 0.575754 -0.746749 35.000000
8.234982 -2.659827 -1.223925 21.000000
7.133049 -6.397871 -1.144271 11.000000
13.808661 18.825747 -1.415701 9.000000
5.497289 0.552579 -0.745044 52.000000
8.159438 -2.670069 -1.209628 18.000000
7.084501 -6.401338 -1.131788 14.000000
13.945404 18.853014 -1.450707 10.000000
5.489414 0.531471 -0.743708 59.000000
8.060696 -2.670503 -1.193409 16.000000
7.055495 -6.420006 -1.122287 10.000000
14.018550 18.827892 -1.476833 8.000000
5.481417 0.509461 -0.743332 54.000000
7.971634 -2.673461 -1.177177 14.000000
6.987279 -6.400419 -1.106424 17.000000
14.152409 18.862949 -1.508435 7.000000
5.473248 0.488474 -0.742953 47.000000
7.905817 -2.685202 -1.163029 13.000000
6.958728 -6.425828 -1.095926 14.000000
14.280380 18.895754 -1.539942 6.000000
5.469935 0.467977 -0.743242 54.000000
7.807321 -2.683704 -1.147041 11.000000
6.903370 -6.421746 -1.079235 13.000000
14.333015 18.828402 -1.567556 6.000000
5.471692 0.446971 -0.743242 69.000000
7.727830 -2.688091 -1.132436 16.000000
6.847846 -6.417073 -1.065929 12.000000
14.513790 18.907906 -1.604085 7.000000
5.473422 0.426923 -0.742283 44.000000
7.680449 -2.704713 -1.124110 17.000000
6.803276 -6.422301 -1.054379 14.000000
14.602581 18.900351 -1.632455 7.000000
5.489586 0.406983 -0.746215 38.000000
7.587049 -2.703119 -1.107585 12.000000
6.770544 -6.436244 -1.046178 10.000000
14.695211 18.876831 -1.660235 7.000000
5.471141 0.385458 -0.744485 35.000000
7.512390 -2.707590 -1.093867 21.000000
6.708215 -6.423963 -1.030331 9.000000
14.858416 18.949640 -1.696530 7.000000
5.467444 0.365064 -0.744769 32.000000
7.412630 -2.708237 -1.076843 10.000000
6.674795 -6.439023 -1.017347 10.000000
14.632766 18.521650 -1.691987 9.000000
5.468805 0.344068 -0.744769 34.000000
7.338971 -2.723508 -1.063956 9.000000
6.648219 -6.460597 -1.008712 10.000000
14.547176 18.281757 -1.699294 6.000000
5.464955 0.323721 -0.745051 31.000000
7.279898 -2.742136 -1.051792 9.000000
6.600131 -6.461070 -0.998478 9.000000
14.416461 17.981817 -1.700580 6.000000
5.461210 0.302461 -0.744377 35.000000
7.216491 -2.757153 -1.040377 9.000000
6.581819 -6.488289 -0.989338 10.000000
14.440425 17.883438 -1.720236 9.000000
5.462183 0.284349 -0.744377 35.000000
7.142126 -2.758782 -1.027026 9.000000
6.618825 -6.572777 -0.986989 9.000000
14.511023 17.836720 -1.745063 9.000000
5.468053 0.263606 -0.746007 39.000000
7.077069 -2.763504 -1.015071 9.000000
6.676156 -6.678487 -0.990850 35.000000
14.612907 17.834425 -1.778152 10.000000
5.464118 0.241435 -0.745332 35.000000
7.025895 -2.773241 -1.005157 9.000000
6.708166 -6.759880 -0.992550 45.000000
14.699397 17.806452 -1.800993 10.000000
5.464759 0.223309 -0.746286 30.000000
6.969647 -2.782017 -0.994632 9.000000
6.692237 -6.791076 -0.983602 68.000000
14.804862 17.807232 -1.830688 12.000000
5.460695 0.200235 -0.745610 54.000000
6.918512 -2.791048 -0.984814 8.000000
6.880321 -7.033315 -1.002881 16.000000
14.916796 17.808683 -1.860927 9.000000
5.471232 0.182455 -0.746962 35.000000
6.853470 -2.794059 -0.974378 8.000000
7.357756 -7.576722 -1.065340 168.000000
15.016163 17.800716 -1.890107 9.000000
5.447188 0.158814 -0.743582 40.000000
6.806983 -2.804246 -0.965302 7.000000
7.076342 -7.338012 -1.019310 28.000000
14.969865 17.614433 -1.908633 8.000000
5.457460 0.141002 -0.745887 37.000000
6.755439 -2.813401 -0.955621 7.000000
7.019045 -7.332190 -1.005975 11.000000
14.894496 17.414579 -1.912174 7.000000
5.467866 0.120264 -0.747241 37.000000
6.704412 -2.821029 -0.945985 8.000000
7.146296 -7.514848 -1.016814 10.000000
14.832606 17.201941 -1.923294 6.000000
5.468271 0.100223 -0.747241 34.000000
6.666950 -2.834073 -0.939587 7.000000
6.956176 -7.373976 -0.985036 28.000000
14.672607 16.896763 -1.914558 6.000000
5.463647 0.080107 -0.746564 44.000000
6.620667 -2.843094 -0.929413 4.000000
6.822212 -7.282728 -0.959112 36.000000
14.667512 16.766369 -1.929363 6.000000
5.468869 0.059181 -0.747241 31.000000
6.778624 -2.941804 -0.947921 1.000000
6.826548 -7.341100 -0.954669 29.000000
14.454181 16.400820 -1.916448 6.000000
5.474003 0.039172 -0.747918 35.000000
6.768005 -7.329283 -0.936001 35.000000
14.457108 16.289158 -1.932270 6.000000
5.469159 0.018136 -0.747241 36.000000
6.734920 -7.347300 -0.926369 39.000000
14.356028 16.056343 -1.933617 6.000000
9.383301 4.236723 -1.282365 1.000000
5.469189 0.000000 -0.747241 40.000000
6.932995 -7.619262 -0.948382 40.000000
14.308223 15.902050 -1.946788 6.000000
9.351399 4.185042 -1.281550 1.000000
5.468760 -0.020044 -0.750104 35.000000
6.688735 -7.405168 -0.908138 21.000000
14.041133 15.490644 -1.917427 6.000000
9.348328 4.142609 -1.280852 1.000000
5.473989 -0.041083 -0.747918 37.000000
6.992770 -7.796307 -0.940207 55.000000
13.945159 15.271898 -1.922147 8.000000
9.918144 4.347569 -1.366122 1.000000
5.478494 -0.061198 -0.750507 31.000000
6.831478 -7.667483 -0.914708 9.000000
14.021765 15.253898 -1.940314 11.000000
9.722566 4.223457 -1.342886 1.000000
5.488167 -0.079508 -0.751864 32.000000
6.905570 -7.802582 -0.918923 5.000000
13.995534 15.119094 -1.954763 10.000000
5.492739 -0.102589 -0.752543 40.000000
6.583656 -7.496657 -0.869382 33.000000
14.000142 15.002811 -1.972279 6.000000
5.507184 -0.123052 -0.754579 32.000000
6.507530 -7.464981 -0.854230 72.000000
14.010346 14.909070 -1.984393 6.000000
5.491815 -0.143808 -0.752543 31.000000
6.573409 -7.593905 -0.853991 10.000000
13.699208 14.481442 -1.954585 6.000000
5.506105 -0.164379 -0.754579 28.000000
6.155347 -2.968987 -0.836685 1.000000
6.503898 -7.569493 -0.838034 27.000000
13.795634 14.476722 -1.978380 6.000000
5.510185 -0.183754 -0.757182 27.000000
6.365925 -7.458811 -0.816544 1.000000
13.610395 14.182876 -1.965492 6.000000
5.519435 -0.206247 -0.757578 21.000000
13.601830 14.070356 -1.980946 6.000000
5.523592 -0.226679 -0.758258 28.000000
6.391114 -7.603148 -0.804383 17.000000
13.486647 13.839596 -1.976510 6.000000
12.701239 5.074991 -1.795835 80.000000
5.542475 -0.248774 -0.760976 22.000000
6.164905 -3.088500 -0.829537 1.000000
13.543865 13.801597 -1.998287 6.000000
12.622069 4.989787 -1.789272 251.000000
5.541658 -0.269093 -0.760007 28.000000
6.200867 -7.484916 -0.766673 28.000000
13.357904 13.522107 -1.977635 4.000000
12.677194 4.955380 -1.801627 176.000000
5.550579 -0.288951 -0.761364 30.000000
6.137208 -7.460933 -0.751838 36.000000
13.279880 13.344936 -1.975438 3.000000
12.675899 4.901392 -1.806119 3.000000
5.564213 -0.312062 -0.763400 25.000000
6.132467 -7.511115 -0.742708 59.000000
13.154500 13.122397 -1.972573 4.000000
12.827433 4.906018 -1.830015 1.000000
5.597838 -0.333553 -0.767171 9.000000
13.205815 13.081936 -1.993096 3.000000
12.690872 4.800544 -1.820063 1.000000
5.611410 -0.355007 -0.769204 9.000000
6.370133 -7.917187 -0.758713 123.000000
13.079451 12.853140 -1.985647 1.000000
5.644673 -0.379867 -0.772961 8.000000
5.950796 -7.449098 -0.701821 56.000000
12.981795 12.672829 -1.983654 1.000000
5.682574 -0.402348 -0.780365 7.000000
5.818929 -3.105714 -0.764334 1.000000
5.895947 -7.436168 -0.690236 57.000000
12.849606 12.456484 -1.975766 6.000000
5.710838 -0.425391 -0.783436 7.000000
5.686243 -3.059166 -0.747091 7.000000
5.906949 -7.498311 -0.684231 70.000000
5.684469 -0.445381 -0.780048 6.000000
5.652549 -3.070361 -0.739727 10.000000
5.926370 -7.585408 -0.679870 38.000000
5.697746 -0.467439 -0.781083 5.000000
5.612287 -3.072637 -0.731262 28.000000
5.915647 -7.626405 -0.669840 22.000000
4.323869 4.067490 -0.678461 9.000000
5.725746 -0.490870 -0.784141 5.000000
5.600352 -3.095388 -0.726795 29.000000
6.222802 -8.083391 -0.697237 26.000000
4.315654 4.031459 -0.682271 26.000000
7.712009 2.690134 -1.126103 1.000000
5.733235 -0.515712 -0.787503 5.000000
5.572052 -3.106462 -0.720084 27.000000
6.334337 -8.287967 -0.701997 187.000000
4.311754 3.998323 -0.684533 34.000000
7.824931 2.695868 -1.144016 1.000000
5.711900 -0.532893 -0.783791 4.000000
5.566381 -3.127540 -0.717302 29.000000
6.443048 -8.494557 -0.706276 30.000000
4.282007 3.941647 -0.683690 52.000000
7.941638 2.703554 -1.167084 1.000000
5.719809 -0.555793 -0.784141 6.000000
5.546668 -3.143268 -0.711735 19.000000
6.605808 -8.772573 -0.717845 28.000000
4.306980 3.935571 -0.690532 29.000000
7.993739 2.688637 -1.173284 1.000000
5.752237 -0.580234 -0.788873 7.000000
5.535540 -3.163822 -0.707284 9.000000
10.916638 3.625135 -1.610473 1.000000
5.750209 -0.601327 -0.787864 1.000000
10.938727 3.588010 -1.615878 1.000000
5.905327 -0.640481 -0.810505 2.000000
10.908070 3.533726 -1.619630 1.000000
10.902156 3.485613 -1.620828 1.000000
15.749619 -1.761036 -2.165239 6.000000
6.128342 -8.441133 -0.627034 26.000000
10.918497 3.446779 -1.629523 1.000000
15.556107 -1.799903 -2.136786 6.000000
6.473890 -8.992801 -0.654433 10.000000
10.963320 3.416793 -1.640467 1.000000
15.638324 -1.867525 -2.146204 6.000000
6.152698 -8.609861 -0.612026 30.000000
10.990004 3.378867 -1.646602 1.000000
15.522124 -1.914128 -2.136811 6.000000
5.912076 -8.334494 -0.582034 123.000000
11.006499 3.339834 -1.651326 1.000000
15.521028 -1.971771 -2.129296 6.000000
5.910629 -8.397507 -0.572332 9.000000
11.022578 3.300642 -1.658061 1.000000
15.488766 -2.025386 -2.128651 6.000000
6.179519 -3.800179 -0.767600 1.000000
5.930331 -8.481988 -0.565946 14.000000
11.048852 3.262334 -1.664222 1.000000
15.580174 -2.092679 -2.139410 6.000000
6.153325 -3.815223 -0.760967 2.000000
5.805623 -8.368771 -0.546271 7.000000
11.088121 3.229793 -1.676575 1.000000
15.670927 -2.163371 -2.150134 6.000000
6.203002 -3.877571 -0.763700 2.000000
5.802182 -8.426464 -0.537968 132.000000
4.247766 3.561773 -0.719967 73.000000
11.165898 3.208098 -1.690687 1.000000
15.637944 -2.225609 -2.141253 6.000000
6.147122 -3.874047 -0.753436 1.000000
5.719512 -8.375068 -0.519082 54.000000
4.248259 3.537004 -0.722860 39.000000
11.287057 3.196043 -1.711343 1.000000
15.424555 -2.247450 -2.113044 6.000000
6.133325 -3.896833 -0.748363 1.000000
5.974964 -8.811728 -0.537463 29.000000
4.240890 3.505877 -0.725381 135.000000
10.997914 3.070673 -1.669856 31.000000
15.165906 -2.269266 -2.078789 2.000000
6.299434 -4.034855 -0.766472 1.000000
5.816272 -8.642486 -0.513139 22.000000
4.241627 3.480394 -0.729166 130.000000
10.961082 3.015069 -1.668574 18.000000
15.138255 -2.321887 -2.073430 2.000000
5.744755 -8.600883 -0.498619 29.000000
4.246175 3.458162 -0.732628 150.000000
10.875730 2.948756 -1.659952 9.000000
15.036998 -2.362798 -2.058028 3.000000
5.699731 -8.601565 -0.484809 21.000000
4.247959 3.431345 -0.735405 158.000000
10.990752 2.936741 -1.681940 7.000000
15.066457 -2.432138 -2.060724 5.000000
5.686183 -8.653095 -0.473802 23.000000
4.247118 3.407454 -0.739105 148.000000
10.991528 2.891776 -1.686429 23.000000
5.683764 -8.708906 -0.466784 33.000000
4.243469 3.379037 -0.742096 168.000000
10.996695 2.850082 -1.689661 13.000000
5.633066 -8.700733 -0.454360 64.000000
4.247543 3.356915 -0.745465 143.000000
11.111827 2.834435 -1.713850 1.000000
14.087095 -2.430732 -1.930256 5.000000
5.640351 -8.785749 -0.446712 25.000000
4.247614 3.331752 -0.748131 139.000000
11.408311 2.869803 -1.762299 1.000000
5.803649 -9.102891 -0.450582 9.000000
4.247351 3.306472 -0.752648 153.000000
11.696925 2.892530 -1.813677 1.000000
6.285862 -9.939408 -0.478509 18.000000
4.247061 3.281318 -0.756192 119.000000
11.735157 2.858553 -1.822358 1.000000
12.801790 -2.356498 -1.757637 1.000000
6.184958 -9.855845 -0.463273 16.000000
4.250677 3.259302 -0.759471 109.000000
11.634360 2.788868 -1.809378 1.000000
12.608311 -2.368693 -1.729973 4.000000
6.092751 -9.784607 -0.442803 20.000000
4.328921 3.294174 -0.777101 8.000000
11.500353 2.705855 -1.795196 1.000000
12.506660 -2.399349 -1.717277 2.000000
5.965300 -4.167645 -0.694282 1.000000
5.688458 -9.206804 -0.406296 7.000000
11.513161 2.668607 -1.802135 1.000000
12.128484 -2.372920 -1.664337 1.000000
6.088660 -4.287125 -0.706530 1.000000
5.592237 -9.125701 -0.390586 8.000000
11.531731 2.626295 -1.811900 1.000000
12.056111 -2.406861 -1.655662 1.000000
5.772794 -4.096448 -0.667875 1.000000
5.609846 -9.226575 -0.384628 1.000000
11.584970 2.589547 -1.822858 1.000000
11.843543 -2.409596 -1.625524 1.000000
5.822908 -4.164183 -0.670392 1.000000
12.278483 -20.354277 -0.817638 39.000000
11.539914 2.537215 -1.820697 1.000000
11.873450 -2.461035 -1.630856 1.000000
5.870603 -4.209141 -0.673931 6.000000
12.119640 -20.258467 -0.783125 23.000000
11.745910 2.537410 -1.860308 1.000000
11.766946 -2.486120 -1.617526 1.000000
5.839279 -4.219172 -0.668301 9.000000
5.037502 -8.487494 -0.318794 5.000000
12.098998 2.560688 -1.918935 1.000000
11.776856 -2.533340 -1.622295 1.000000
9.628316 -7.000517 -1.100135 34.000000
12.019227 -20.412743 -0.740301 22.000000
12.841628 2.673401 -2.042334 5.000000
11.719189 -2.568055 -1.611434 1.000000
12.840611 2.624123 -2.047658 5.000000
11.675018 -2.603258 -1.613038 1.000000
17.445097 -12.871037 -1.984423 7.000000
4.939794 -8.528451 -0.289069 5.000000
11.654722 -2.645749 -1.615873 1.000000
17.334423 -12.887767 -1.969591 8.000000
4.937507 -8.593527 -0.282032 9.000000
12.545100 2.513590 -2.033308 5.000000
11.647679 -2.644150 -1.631882 1.000000
8.900531 -6.619763 -1.029008 1.000000
12.467277 2.547828 -2.024542 5.000000
11.699969 -2.610965 -1.644251 1.000000
8.851767 -6.533242 -1.032217 5.000000
4.933063 -8.520259 -0.304241 7.000000
12.500669 2.602419 -2.036070 5.000000
11.731962 -2.573000 -1.660226 1.000000
5.744513 -4.202808 -0.677844 6.000000
11.910975 2.527411 -1.941589 1.000000
11.775394 -2.530875 -1.673428 1.000000
5.790592 -4.205567 -0.691629 5.000000
5.027451 -8.545146 -0.334091 1.000000
11.704404 2.528444 -1.905128 1.000000
11.822197 -2.499949 -1.681042 1.000000
5.813648 -4.189851 -0.697594 1.000000
5.028967 -8.479857 -0.346004 1.000000
11.618018 2.552261 -1.894634 1.000000
11.873764 -2.465423 -1.695709 1.000000
5.747419 -4.110198 -0.695305 1.000000
12.118860 -20.273222 -0.861952 25.000000
11.603313 2.595774 -1.893848 1.000000
11.887124 -2.420623 -1.702753 1.000000
5.830330 -4.120470 -0.713865 1.000000
12.231140 -20.291803 -0.897769 26.000000
11.588629 2.641381 -1.888912 1.000000
12.094398 -2.416699 -1.735554 1.000000
5.455472 -8.979734 -0.409149 3.000000
11.559160 2.681395 -1.885773 1.000000
12.087704 -2.369323 -1.739913 1.000000
5.713453 -9.330817 -0.441353 1.000000
4.242023 3.272699 -0.785429 35.000000
11.568480 2.728278 -1.888912 1.000000
12.318735 -2.367755 -1.780840 1.000000
5.598739 -9.072213 -0.444953 15.000000
4.235487 3.290119 -0.782411 182.000000
12.375945 2.964349 -2.017879 5.000000
12.560942 -2.364333 -1.816804 1.000000
5.682847 -9.136983 -0.462269 12.000000
4.231622 3.312056 -0.780103 114.000000
12.384874 3.014527 -2.016562 5.000000
