VERSION .7
FIELDS x y z intensity
SIZE 4 4 4 4
TYPE F F F F
COUNT 1 1 1 1
WIDTH 1238
HEIGHT 1
VIEWPOINT 0 0 0 1 0 0 0
POINTS 1238
DATA ascii
5.004146 -3.610432 -0.893599 29.000000
11.636427 2.554177 -1.519808 1.000000
12.088573 -2.501223 -1.866949 1.000000
4.996595 -3.577211 -0.895379 22.000000
11.502287 2.564743 -1.501301 1.000000
12.116400 -2.460705 -1.874255 1.000000
4.996935 -3.568228 -0.894659 28.000000
11.182899 2.542745 -1.452855 1.000000
12.160017 -2.420984 -1.877337 1.000000
5.005923 -3.545703 -0.899291 31.000000
47.049454 82.889366 -2.112992 1.000000
11.218401 2.589972 -1.454492 1.000000
12.173018 -2.377221 -1.882415 1.000000
5.002311 -3.515682 -0.899592 31.000000
46.702194 82.950729 -1.994032 1.000000
11.156447 2.618775 -1.441599 1.000000
12.157780 -2.325819 -1.878664 1.000000
5.002604 -3.488567 -0.900602 31.000000
46.342991 82.989029 -1.858280 1.000000
11.041580 2.634549 -1.419945 1.000000
12.502213 -2.341984 -1.928212 1.000000
5.007437 -3.463436 -0.902329 31.000000
23.383169 42.219101 -0.876121 15.000000
10.989413 2.664711 -1.406465 1.000000
12.875386 -2.363075 -1.984417 5.000000
5.011552 -3.439196 -0.904046 25.000000
23.371464 42.163239 -0.849882 7.000000
10.909321 2.645290 -1.380301 1.000000
5.010995 -3.450404 -0.898411 31.000000
23.571760 42.211288 -0.886102 1.000000
11.049276 2.636385 -1.396777 1.000000
12.520411 -2.345393 -1.906009 1.000000
4.999341 -3.469459 -0.889915 28.000000
46.816441 83.119720 -1.831724 1.000000
11.079120 2.598584 -1.395246 1.000000
12.211458 -2.336087 -1.851455 1.000000
5.003571 -3.499635 -0.886415 29.000000
47.243389 83.197212 -1.953990 1.000000
11.165462 2.575698 -1.408982 1.000000
12.184347 -2.377226 -1.842009 1.000000
4.999556 -3.524186 -0.881447 34.000000
47.485287 82.947548 -2.052140 1.000000
11.300903 2.563354 -1.422825 1.000000
12.146967 -2.418386 -1.831121 1.000000
4.999211 -3.551441 -0.879305 28.000000
11.436113 2.547893 -1.442757 1.000000
12.041694 -2.443345 -1.812207 1.000000
4.994208 -3.576821 -0.875364 31.000000
11.668368 2.554785 -1.470867 1.000000
11.940495 -2.470584 -1.796217 1.000000
4.987288 -3.614176 -0.867807 26.000000
11.915124 2.563083 -1.502937 1.000000
11.879335 -2.503369 -1.779726 1.000000
4.969351 -3.631691 -0.861738 20.000000
12.108861 2.556152 -1.530511 1.000000
11.865404 -2.548055 -1.774765 1.000000
4.977707 -3.663182 -0.860890 27.000000
11.711287 -2.559898 -1.750968 1.000000
4.980882 -3.693737 -0.857156 30.000000
21.635929 36.008232 -1.180739 10.000000
11.721740 -2.607234 -1.749666 1.000000
4.978513 -3.723048 -0.853785 28.000000
13.049773 2.607602 -1.652851 2.000000
11.688406 -2.646961 -1.739787 1.000000
4.994554 -3.760934 -0.852001 20.000000
13.229379 2.593103 -1.676773 1.000000
11.674395 -2.688809 -1.734887 1.000000
4.989221 -3.785652 -0.847886 30.000000
20.834661 33.853016 -1.242268 1.000000
13.741590 2.636266 -1.740339 1.000000
11.655524 -2.731632 -1.725097 1.000000
4.994365 -3.821243 -0.844655 26.000000
20.891302 33.681091 -1.287099 10.000000
11.631285 -2.770963 -1.720871 1.000000
5.001878 -3.853356 -0.842473 19.000000
20.960768 33.518200 -1.332152 10.000000
14.217846 2.622290 -1.805920 6.000000
11.601901 -2.811082 -1.713855 2.000000
5.010435 -3.892097 -0.840905 10.000000
21.018396 33.350826 -1.362850 10.000000
14.335086 2.589622 -1.817012 4.000000
11.611905 -2.858605 -1.708349 1.000000
5.009906 -3.918394 -0.836215 9.000000
21.173826 33.338882 -1.420587 10.000000
11.606151 -2.902346 -1.709056 1.000000
5.048979 -3.981723 -0.841973 9.000000
21.319735 33.285522 -1.463240 10.000000
11.581681 -2.943524 -1.698592 1.000000
5.050681 -4.013177 -0.836689 8.000000
5.965921 0.989792 -0.759684 4.000000
11.566594 -2.984864 -1.693719 1.000000
5.152644 -4.125094 -0.850223 8.000000
5.851851 0.948841 -0.745762 3.000000
11.617876 -3.045726 -1.698652 1.000000
5.752426 0.910066 -0.733673 7.000000
11.545008 -3.071889 -1.685379 1.000000
7.886018 -6.370035 -1.296831 19.000000
12.352621 18.705305 -0.923831 6.000000
5.726306 0.884432 -0.729923 10.000000
11.548862 -3.118285 -1.681211 1.000000
7.844604 -6.384235 -1.281303 18.000000
12.442019 18.698410 -0.957045 6.000000
5.704858 0.859724 -0.727806 10.000000
11.575573 -3.173234 -1.682588 1.000000
7.760293 -6.363043 -1.265994 13.000000
12.562865 18.730804 -0.980771 8.000000
5.678543 0.833471 -0.725053 19.000000
11.564429 -3.215796 -1.678399 1.000000
7.713386 -6.367474 -1.251140 15.000000
12.655559 18.727365 -1.006613 8.000000
5.661792 0.809825 -0.723544 16.000000
11.538543 -3.256380 -1.670044 1.000000
7.660313 -6.371015 -1.237481 15.000000
12.784805 18.777002 -1.039484 9.000000
5.645640 0.780385 -0.723024 15.000000
11.555656 -3.306984 -1.669987 1.000000
7.605245 -6.377036 -1.222158 13.000000
12.860950 18.747828 -1.064207 9.000000
5.619224 0.754756 -0.718259 23.000000
8.942645 -2.594694 -1.287103 2.000000
7.552302 -6.379930 -1.208642 12.000000
12.997104 18.798229 -1.093751 9.000000
4.536010 2.770966 -0.511816 1.000000
5.602153 0.731570 -0.716731 17.000000
8.823761 -2.596974 -1.268146 9.000000
7.514707 -6.395517 -1.195882 17.000000
13.093267 18.796711 -1.124368 8.000000
5.584742 0.708488 -0.717162 13.000000
8.690775 -2.592484 -1.250391 16.000000
7.442857 -6.381554 -1.181218 12.000000
13.190083 18.788492 -1.150859 8.000000
4.483069 2.693700 -0.510972 1.000000
5.572529 0.685208 -0.716246 25.000000
8.615664 -2.604504 -1.234547 19.000000
7.416437 -6.406216 -1.172068 10.000000
13.295251 18.798420 -1.178476 9.000000
5.560228 0.663017 -0.714348 24.000000
8.544439 -2.618821 -1.222595 24.000000
7.337494 -6.385134 -1.154674 12.000000
13.383121 18.783239 -1.208699 10.000000
5.552891 0.641509 -0.712107 21.000000
8.473886 -2.631212 -1.209139 21.000000
7.282604 -6.382177 -1.137540 10.000000
13.529758 18.842525 -1.240057 10.000000
5.550260 0.619619 -0.712450 30.000000
8.407872 -2.644540 -1.197961 20.000000
7.248735 -6.399619 -1.127352 12.000000
13.615162 18.822437 -1.266253 9.000000
5.532646 0.597130 -0.710890 26.000000
8.327245 -2.654360 -1.184809 19.000000
7.196273 -6.400389 -1.114316 14.000000
13.756300 18.878435 -1.301867 9.000000
5.524808 0.575807 -0.710592 26.000000
8.275610 -2.671354 -1.174211 26.000000
7.151290 -6.407479 -1.102489 10.000000
13.833451 18.838852 -1.327178 8.000000
5.497000 0.551581 -0.709678 48.000000
8.186081 -2.675624 -1.159831 16.000000
7.113576 -6.420847 -1.093518 18.000000
13.948754 18.857544 -1.356561 8.000000
5.488990 0.530463 -0.709367 51.000000
8.096157 -2.680683 -1.145509 12.000000
7.043190 -6.404317 -1.074519 15.000000
14.049879 18.849358 -1.380253 7.000000
5.481267 0.509447 -0.706169 65.000000
8.021435 -2.688606 -1.128808 25.000000
7.007804 -6.414723 -1.065643 14.000000
14.159666 18.858904 -1.409345 6.000000
5.478120 0.487945 -0.706493 69.000000
7.969657 -2.703783 -1.119919 11.000000
6.962022 -6.422120 -1.052381 15.000000
14.266355 18.863503 -1.446545 7.000000
5.474807 0.467432 -0.706815 47.000000
6.910115 -6.421275 -1.038086 10.000000
14.425213 18.928946 -1.480625 7.000000
5.471619 0.446003 -0.706177 40.000000
7.790513 -2.708371 -1.093176 13.000000
6.850906 -6.413208 -1.024428 9.000000
14.490408 18.877445 -1.501393 6.000000
5.487926 0.427091 -0.709052 29.000000
7.729991 -2.719127 -1.078799 10.000000
6.831619 -6.442296 -1.016776 10.000000
14.668263 18.964830 -1.542020 6.000000
5.479441 0.406231 -0.708733 33.000000
7.668124 -2.730496 -1.071620 10.000000
6.776289 -6.437205 -1.002145 9.000000
14.751700 18.942572 -1.565219 7.000000
5.480825 0.387102 -0.708733 27.000000
7.589930 -2.731046 -1.054792 15.000000
6.759003 -6.463559 -0.996149 9.000000
14.893811 18.974312 -1.606382 7.000000
5.477264 0.364760 -0.709051 27.000000
7.513861 -2.737792 -1.044320 10.000000
6.752784 -6.507435 -0.988977 22.000000
14.977212 18.957638 -1.630124 6.000000
5.478504 0.345638 -0.709051 34.000000
7.424074 -2.738885 -1.030551 8.000000
6.811697 -6.612530 -0.991097 9.000000
15.086127 18.938709 -1.663409 6.000000
5.464873 0.322759 -0.708085 27.000000
7.335865 -2.751527 -1.012016 8.000000
6.837812 -6.686735 -0.990019 171.000000
15.194929 18.939260 -1.689397 8.000000
5.470971 0.303001 -0.708727 34.000000
7.262255 -2.765926 -0.998264 5.000000
6.867144 -6.764835 -0.987648 28.000000
15.309999 18.953573 -1.716559 8.000000
5.467043 0.283645 -0.708085 35.000000
7.218214 -2.785277 -0.989754 3.000000
6.970236 -6.909673 -0.995207 238.000000
15.208113 18.693571 -1.723172 7.000000
5.467922 0.263600 -0.709041 29.000000
7.184846 -2.804144 -0.982543 1.000000
7.344354 -7.339227 -1.041838 10.000000
14.908663 18.188906 -1.706434 7.000000
5.468852 0.243557 -0.709041 39.000000
7.185215 -2.831780 -0.979763 1.000000
7.232920 -7.275969 -1.020405 9.000000
14.875238 18.006655 -1.727468 6.000000
5.469623 0.222551 -0.709996 26.000000
7.086718 -2.825880 -0.963813 1.000000
7.179821 -7.280777 -1.008018 9.000000
14.860373 17.867657 -1.743323 9.000000
5.470402 0.202503 -0.709996 26.000000
6.980981 -2.810583 -0.948026 1.000000
7.258655 -7.407121 -1.011384 220.000000
14.927874 17.821909 -1.768417 9.000000
5.481050 0.181825 -0.711282 16.000000
7.116468 -2.899831 -0.965341 1.000000
7.118466 -7.322636 -0.986942 19.000000
15.050167 17.834709 -1.791536 10.000000
5.476724 0.161589 -0.710639 18.000000
7.014658 -2.888369 -0.947581 1.000000
7.047478 -7.302978 -0.968291 19.000000
15.162436 17.834715 -1.825877 16.000000
5.472198 0.141383 -0.710952 19.000000
6.853306 -2.851353 -0.923244 1.000000
7.076225 -7.386757 -0.968748 22.000000
15.236315 17.795362 -1.851966 16.000000
5.467743 0.120261 -0.710308 25.000000
6.934741 -2.915097 -0.931648 1.000000
6.985900 -7.343613 -0.949178 38.000000
15.329459 17.771887 -1.880091 23.000000
5.473105 0.100311 -0.710952 29.000000
6.910756 -2.934865 -0.925873 2.000000
6.911872 -7.319328 -0.930353 126.000000
15.455465 17.792017 -1.912757 9.000000
5.478409 0.079367 -0.711596 29.000000
6.868415 -7.326922 -0.921041 32.000000
15.312498 17.497486 -1.911625 9.000000
5.473704 0.059233 -0.710952 29.000000
6.822150 -7.323544 -0.909111 34.000000
15.230485 17.281675 -1.918132 7.000000
5.473885 0.039171 -0.710952 28.000000
6.759541 -7.314991 -0.894158 27.000000
15.113755 17.023033 -1.919567 6.000000
5.473746 0.018152 -0.712862 27.000000
6.759451 -7.363735 -0.886821 33.000000
15.065253 16.849569 -1.933738 6.000000
5.478734 0.000000 -0.713508 32.000000
6.818109 -7.479880 -0.889035 160.000000
14.986607 16.650156 -1.936239 6.000000
5.478573 -0.020080 -0.714464 31.000000
14.925714 16.460770 -1.944009 6.000000
5.478580 -0.041117 -0.713508 28.000000
6.962706 -7.754615 -0.893461 19.000000
14.847366 16.259941 -1.949637 6.000000
5.493266 -0.061363 -0.715445 28.000000
6.887828 -7.722584 -0.876219 10.000000
14.740498 16.024555 -1.947029 6.000000
5.483089 -0.081349 -0.714154 32.000000
7.273829 -3.337900 -0.955733 1.000000
7.101088 -8.020677 -0.897667 19.000000
14.645429 15.804555 -1.949554 6.000000
5.497609 -0.102680 -0.716091 32.000000
7.233949 -3.354819 -0.946609 1.000000
7.060504 -8.031147 -0.884799 27.000000
14.386575 15.416920 -1.930186 7.000000
5.496987 -0.120905 -0.718010 29.000000
6.673675 -7.642095 -0.832363 47.000000
14.380212 15.297312 -1.943969 10.000000
5.506620 -0.143234 -0.717382 29.000000
6.509819 -7.515140 -0.803455 223.000000
14.465817 15.275797 -1.966478 10.000000
5.506087 -0.162455 -0.717382 26.000000
6.470466 -7.517301 -0.791055 31.000000
14.393950 15.094022 -1.971569 9.000000
5.520257 -0.185055 -0.719320 27.000000
6.176997 -3.004719 -0.795989 1.000000
6.563850 -7.687999 -0.793811 9.000000
14.264988 14.849430 -1.968194 6.000000
5.529612 -0.204694 -0.719645 33.000000
14.228132 14.702819 -1.973680 6.000000
12.989591 5.240226 -1.744635 1.000000
5.538402 -0.227286 -0.722870 27.000000
14.245736 14.613448 -1.990252 6.000000
12.874233 5.138903 -1.733971 1.000000
5.542485 -0.247806 -0.723516 25.000000
6.270729 -7.507693 -0.740663 21.000000
13.974261 14.235212 -1.969976 6.000000
12.624512 4.985658 -1.705083 5.000000
5.546665 -0.267396 -0.723194 32.000000
6.199841 -7.470397 -0.724835 29.000000
13.853703 14.009322 -1.963092 6.000000
12.581800 4.915560 -1.704054 1.000000
5.550599 -0.287980 -0.723840 21.000000
6.172897 -7.493651 -0.714668 38.000000
13.822746 13.875924 -1.972202 6.000000
5.564304 -0.310119 -0.725777 32.000000
6.147704 -7.521735 -0.704863 32.000000
13.746572 13.703454 -1.971608 6.000000
5.563256 -0.330518 -0.724804 25.000000
6.412376 -7.898873 -0.727498 30.000000
13.706598 13.563810 -1.982537 6.000000
5.581547 -0.352139 -0.729335 24.000000
6.372718 -7.906263 -0.715438 126.000000
13.651204 13.419684 -1.981583 6.000000
5.605016 -0.375233 -0.731588 25.000000
13.540707 13.209209 -1.981528 3.000000
5.613494 -0.396472 -0.732879 27.000000
5.767863 -3.073287 -0.719222 1.000000
5.913991 -7.450908 -0.651846 38.000000
13.465353 13.048835 -1.980702 2.000000
5.631836 -0.419506 -0.734477 18.000000
5.713222 -3.071110 -0.709224 9.000000
5.917466 -7.506269 -0.644914 36.000000
13.401427 12.882973 -1.983362 1.000000
5.654977 -0.442077 -0.737701 19.000000
5.693406 -3.087408 -0.705877 12.000000
6.018104 -7.694515 -0.648821 31.000000
5.673214 -0.464429 -0.739287 18.000000
5.673760 -3.103719 -0.700278 36.000000
6.222526 -8.010478 -0.663052 29.000000
5.686080 -0.487469 -0.742215 14.000000
5.645256 -3.115064 -0.694749 35.000000
4.338317 4.048378 -0.656150 24.000000
7.653008 2.669553 -1.065637 1.000000
5.719085 -0.511421 -0.744724 14.000000
5.625536 -3.131133 -0.689184 26.000000
4.314854 3.999797 -0.655789 22.000000
7.699704 2.654227 -1.075116 1.000000
5.736958 -0.535231 -0.746291 10.000000
5.627446 -3.159267 -0.686275 9.000000
4.286394 3.941541 -0.656257 29.000000
7.859740 2.674143 -1.101852 1.000000
5.759504 -0.558636 -0.750512 9.000000
6.655674 -8.832376 -0.676418 26.000000
4.299017 3.926918 -0.661338 16.000000
5.856088 -0.589677 -0.763375 8.000000
6.652242 -8.885767 -0.667236 32.000000
4.306100 3.903164 -0.667311 7.000000
10.663253 3.538926 -1.501087 1.000000
5.967071 -0.624006 -0.779213 1.000000
6.627416 -8.923822 -0.656496 96.000000
10.675404 3.499574 -1.506970 1.000000
6.028965 -0.652826 -0.786527 5.000000
6.571442 -8.916545 -0.640606 255.000000
10.733690 3.477235 -1.521494 1.000000
6.083629 -8.309181 -0.588381 29.000000
10.628809 3.396174 -1.510632 1.000000
16.473125 -1.841935 -2.152818 6.000000
6.396729 -8.810807 -0.608733 255.000000
10.715102 3.384628 -1.525287 1.000000
16.566195 -1.907984 -2.159877 6.000000
7.144502 -4.216836 -0.854394 1.000000
6.129914 -8.499335 -0.574873 24.000000
10.736969 3.346249 -1.530558 1.000000
16.524246 -1.964547 -2.158286 6.000000
7.103863 -4.228033 -0.845549 1.000000
10.697203 3.286802 -1.530954 1.000000
16.565462 -2.039853 -2.161804 6.000000
7.191189 -4.315779 -0.851905 1.000000
10.707274 3.251077 -1.536813 1.000000
16.509037 -2.088504 -2.158286 6.000000
6.975546 -4.221213 -0.825310 1.000000
10.666968 3.194157 -1.533217 1.000000
16.565569 -2.157372 -2.163730 6.000000
7.007233 -4.275555 -0.825119 1.000000
5.845799 -8.354873 -0.516554 20.000000
10.659089 3.149273 -1.534369 25.000000
16.655828 -2.234198 -2.173643 6.000000
7.006220 -4.306885 -0.820878 1.000000
6.343902 -9.134481 -0.551706 25.000000
10.593454 3.087710 -1.531132 82.000000
16.677378 -2.299345 -2.174553 6.000000
7.027172 -4.358729 -0.822461 1.000000
6.234141 -9.047033 -0.535430 23.000000
4.254743 3.566359 -0.694457 36.000000
10.609992 3.048379 -1.531819 37.000000
16.639343 -2.359241 -2.167776 3.000000
6.160646 -9.007510 -0.516543 52.000000
4.248250 3.534487 -0.696177 47.000000
10.639121 3.014579 -1.542289 33.000000
15.610232 -2.271722 -2.031976 2.000000
6.149104 -9.058330 -0.506733 37.000000
4.252963 3.512110 -0.700704 110.000000
10.677934 2.983341 -1.552238 49.000000
15.179657 -2.265906 -1.979719 5.000000
6.054770 -8.990098 -0.490297 37.000000
4.242318 3.477246 -0.701710 155.000000
10.697809 2.944659 -1.561371 34.000000
15.063684 -2.307758 -1.960327 4.000000
5.793236 -8.666916 -0.460627 32.000000
4.250711 3.458156 -0.705858 180.000000
10.684638 2.898947 -1.557887 28.000000
14.879754 -2.335429 -1.929476 6.000000
5.721790 -8.625043 -0.446477 22.000000
4.251110 3.432664 -0.710617 158.000000
10.795078 2.884457 -1.580320 3.000000
14.714074 -2.364716 -1.911747 6.000000
5.679408 -8.629651 -0.434797 5.000000
4.247703 3.404269 -0.712789 139.000000
10.895465 2.868536 -1.601490 1.000000
14.371807 -2.366354 -1.871028 4.000000
5.652227 -8.653982 -0.424184 38.000000
4.248025 3.379032 -0.715578 153.000000
10.886737 2.823612 -1.598675 23.000000
5.608675 -8.653126 -0.410561 29.000000
4.248219 3.353837 -0.718341 153.000000
10.954942 2.792380 -1.615012 1.000000
13.944475 -2.401111 -1.810107 4.000000
5.627003 -8.754870 -0.401625 21.000000
4.252086 3.331665 -0.722683 182.000000
11.112122 2.793234 -1.642931 1.000000
13.602711 -2.396077 -1.769375 4.000000
5.608876 -8.790623 -0.393297 1.000000
4.251934 3.306466 -0.726335 143.000000
11.261048 2.786828 -1.667562 1.000000
13.232341 -2.380874 -1.724707 5.000000
4.255475 3.284261 -0.731566 158.000000
11.284957 2.746803 -1.677805 1.000000
12.837773 -2.360805 -1.674448 5.000000
4.255279 3.259294 -0.733286 177.000000
11.197567 2.682098 -1.671546 1.000000
12.673341 -2.378620 -1.651840 3.000000
5.974584 -4.133914 -0.657361 1.000000
6.089055 -9.771068 -0.400033 9.000000
4.365057 3.318065 -0.756928 9.000000
11.278883 2.655824 -1.690411 1.000000
12.440195 -2.382096 -1.624826 1.000000
6.152331 -9.949816 -0.396248 9.000000
11.447311 2.651239 -1.716281 1.000000
12.207609 -2.386188 -1.591219 1.000000
12.472498 -20.337328 -0.778923 97.000000
11.417192 2.600210 -1.718675 1.000000
12.092344 -2.405317 -1.579413 1.000000
5.978652 -4.234689 -0.647424 1.000000
5.530664 -9.089195 -0.338081 1.000000
11.484435 2.569180 -1.731496 1.000000
12.010224 -2.439142 -1.565605 1.000000
5.926880 -4.230725 -0.639650 6.000000
12.222546 -20.245564 -0.722541 33.000000
11.570183 2.543870 -1.749344 1.000000
11.922797 -2.469093 -1.557593 1.000000
9.732593 -6.957580 -1.053005 34.000000
5.087379 -8.493660 -0.292116 7.000000
11.970265 2.583690 -1.817058 1.000000
11.787495 -2.486163 -1.541097 1.000000
9.695349 -6.984791 -1.045433 32.000000
5.058894 -8.516763 -0.283619 1.000000
12.046766 2.554027 -1.831630 1.000000
11.739950 -2.518970 -1.536021 1.000000
9.682363 -7.029486 -1.038388 6.000000
11.974419 -20.320417 -0.646461 36.000000
13.629058 2.834848 -2.077988 5.000000
11.745438 -2.565215 -1.535826 1.000000
9.694393 -7.090027 -1.035990 1.000000
4.883567 -8.353876 -0.256771 3.000000
13.482901 2.752931 -2.063973 5.000000
11.673016 -2.594259 -1.527590 1.000000
17.376528 -12.806400 -1.850557 8.000000
4.905689 -8.462758 -0.249313 2.000000
13.423729 2.687199 -2.065538 5.000000
11.672123 -2.641132 -1.533035 3.000000
17.345730 -12.882077 -1.848495 7.000000
13.186727 2.642149 -2.055556 5.000000
11.692683 -2.647929 -1.561324 1.000000
17.336868 -12.880191 -1.885767 8.000000
13.162075 2.687425 -2.055634 5.000000
11.696857 -2.601699 -1.569044 1.000000
17.399897 -12.832999 -1.914357 7.000000
4.914011 -8.480524 -0.266929 6.000000
13.171014 2.741973 -2.058660 5.000000
11.690714 -2.555401 -1.575451 1.000000
9.660960 -7.070755 -1.072688 16.000000
4.933307 -8.445725 -0.280042 1.000000
11.976299 2.539088 -1.873365 1.000000
11.786427 -2.531095 -1.593511 1.000000
9.609649 -6.979256 -1.072502 19.000000
11.990328 -20.355537 -0.705285 34.000000
11.966461 2.585054 -1.873365 1.000000
11.804235 -2.489694 -1.603244 1.000000
5.863268 -4.220949 -0.663844 7.000000
12.106654 -20.389929 -0.745220 25.000000
11.479323 2.523893 -1.796440 1.000000
11.861414 -2.454222 -1.616173 1.000000
5.902533 -4.216456 -0.672920 1.000000
5.150642 -8.606095 -0.327461 1.000000
11.479194 2.570111 -1.797951 1.000000
11.962055 -2.429360 -1.632998 1.000000
5.796414 -4.088920 -0.669284 1.000000
12.203775 -20.230431 -0.804407 35.000000
11.446211 2.606819 -1.790076 1.000000
12.024060 -2.396098 -1.642431 1.000000
5.953703 -4.167279 -0.690796 1.000000
5.602161 -9.213938 -0.378448 7.000000
11.537236 2.674188 -1.805904 1.000000
12.118758 -2.371017 -1.663002 1.000000
5.971603 -4.148827 -0.700153 1.000000
5.592237 -9.125701 -0.390586 8.000000
4.242700 3.269679 -0.759471 36.000000
11.407687 2.688255 -1.782970 1.000000
12.404712 -2.375302 -1.707654 1.000000
5.904216 -4.070005 -0.698079 1.000000
5.639555 -9.131219 -0.404793 13.000000
4.235015 3.288568 -0.756430 202.000000
11.488612 2.753931 -1.797258 1.000000
12.680579 -2.379979 -1.749004 5.000000
6.082023 -9.767378 -0.450069 27.000000
4.239051 3.316679 -0.754527 124.000000
11.641734 2.835796 -1.822825 1.000000
12.863316 -2.367823 -1.780032 4.000000
4.239049 3.341797 -0.751899 124.000000
11.693755 2.896078 -1.828396 1.000000
13.296615 -2.392439 -1.841050 2.000000
4.230958 3.360636 -0.749760 129.000000
11.626150 2.924602 -1.815208 1.000000
13.917877 -2.456602 -1.935983 6.000000
5.876935 -9.221387 -0.469780 12.000000
4.234591 3.388908 -0.747776 119.000000
11.471145 2.932488 -1.792752 1.000000
14.156304 -2.442674 -1.970383 6.000000
5.679332 -8.843072 -0.464379 88.000000
4.230259 3.410951 -0.745348 124.000000
11.307794 2.934925 -1.764721 1.000000
5.623055 -8.688595 -0.468154 30.000000
4.229768 3.436213 -0.742631 139.000000
10.991065 2.897809 -1.712958 14.000000
15.203271 -2.508707 -2.127193 6.000000
5.651771 -8.663188 -0.482371 23.000000
4.236816 3.467794 -0.741229 125.000000
11.023355 2.949575 -1.719663 1.000000
15.148856 -2.440015 -2.120982 6.000000
5.689879 -8.655428 -0.495725 21.000000
4.228398 3.486862 -0.737118 115.000000
11.051223 3.000479 -1.721627 1.000000
15.064372 -2.369793 -2.110636 5.000000
5.717010 -8.630912 -0.506328 31.000000
4.230618 3.516071 -0.735943 135.000000
11.021132 3.037795 -1.714663 8.000000
15.043623 -2.307372 -2.109179 6.000000
6.126546 -3.903041 -0.771188 1.000000
5.724577 -8.577155 -0.516973 33.000000
4.230213 3.540772 -0.733118 105.000000
11.024210 3.082163 -1.716888 3.000000
14.933338 -2.234467 -2.100613 6.000000
6.110934 -3.861680 -0.772540 1.000000
5.842022 -8.684022 -0.537521 25.000000
4.229063 3.566250 -0.730267 115.000000
11.284028 3.201568 -1.755067 3.000000
14.950867 -2.181096 -2.104628 6.000000
6.191984 -3.881213 -0.786143 1.000000
5.785081 -8.534900 -0.542168 37.000000
4.276898 3.633495 -0.735840 12.000000
11.496469 3.307420 -1.783579 1.000000
14.963669 -2.124316 -2.107955 6.000000
6.137923 -3.816063 -0.785155 1.000000
6.129879 -8.975966 -0.582957 25.000000
11.512769 3.360027 -1.783817 7.000000
14.916667 -2.061898 -2.105615 6.000000
6.213521 -3.834553 -0.798353 1.000000
5.903184 -8.579559 -0.573130 9.000000
11.519943 3.407989 -1.782566 4.000000
14.913945 -2.005843 -2.106856 6.000000
6.443245 -3.943787 -0.831344 1.000000
5.942721 -8.569590 -0.586696 19.000000
11.577830 3.473516 -1.793574 6.000000
14.768243 -1.928545 -2.093163 7.000000
5.915065 -8.466444 -0.591895 25.000000
11.599047 3.526271 -1.792363 1.000000
14.809232 -1.878720 -2.100640 6.000000
6.454056 -3.874923 -0.843063 1.000000
5.906753 -8.391999 -0.602505 39.000000
11.581914 3.567488 -1.787402 3.000000
14.762280 -1.815196 -2.092976 6.000000
6.249983 -3.721304 -0.819761 1.000000
11.521209 3.597282 -1.778000 7.000000
14.767744 -1.760947 -2.100763 6.000000
11.522690 3.644148 -1.775967 6.000000
6.224898 -8.646928 -0.660991 17.000000
11.532756 3.696103 -1.775375 6.000000
5.485492 -3.184947 -0.730553 5.000000
6.042094 -8.328450 -0.652758 21.000000
11.529426 3.741689 -1.770479 1.000000
5.761037 -0.597378 -0.822250 1.000000
5.505294 -3.169522 -0.736132 8.000000
6.047170 -8.274525 -0.660958 78.000000
11.511520 3.782569 -1.765527 6.000000
5.757833 -0.575723 -0.824578 4.000000
5.503487 -3.141680 -0.738829 9.000000
6.087435 -8.268875 -0.672998 38.000000
4.179711 3.858278 -0.690370 1.000000
11.506594 3.829965 -1.764852 1.000000
5.735268 -0.552243 -0.821051 5.000000
5.510080 -3.118723 -0.743776 26.000000
6.381676 -8.602340 -0.717059 9.000000
4.322387 4.019423 -0.710093 1.000000
7.957858 2.681208 -1.216069 1.000000
5.781564 -0.534304 -0.828413 3.000000
5.521248 -3.098380 -0.745986 24.000000
6.494900 -8.691396 -0.735879 37.000000
4.323983 4.047728 -0.707313 1.000000
7.991685 2.722148 -1.218098 3.000000
5.734035 -0.508723 -0.822355 7.000000
5.535373 -3.082215 -0.750994 28.000000
6.499240 -8.631050 -0.744149 16.000000
4.302341 4.057158 -0.700967 13.000000
7.986255 2.754566 -1.215864 1.000000
5.745639 -0.489545 -0.823769 6.000000
5.554750 -3.066387 -0.757709 25.000000
6.555902 -8.643345 -0.760495 125.000000
4.287972 4.073403 -0.694774 100.000000
8.009014 2.795305 -1.219369 1.000000
5.727232 -0.466839 -0.823950 5.000000
5.582906 -3.055285 -0.764524 26.000000
6.370491 -8.338285 -0.748490 49.000000
7.956331 2.812797 -1.208548 1.000000
5.704607 -0.440949 -0.819402 5.000000
5.603383 -3.037326 -0.770166 25.000000
6.494832 -8.436757 -0.770669 46.000000
5.686155 -0.418563 -0.818557 4.000000
5.631252 -3.025781 -0.779260 26.000000
6.022545 -7.767017 -0.723478 178.000000
12.089779 11.654592 -1.945943 1.000000
5.662893 -0.394995 -0.815995 4.000000
5.668226 -3.018927 -0.786253 25.000000
5.901758 -7.556623 -0.717574 39.000000
12.125627 11.762867 -1.942713 6.000000
5.663887 -0.376195 -0.817977 6.000000
5.700183 -3.010453 -0.793792 26.000000
5.922780 -7.526511 -0.726857 77.000000
12.229555 11.951003 -1.948227 6.000000
5.670309 -0.355752 -0.817698 5.000000
5.723999 -2.996252 -0.799008 19.000000
12.289557 12.098013 -1.949593 6.000000
5.676289 -0.334251 -0.820396 4.000000
5.760621 -2.988574 -0.809486 10.000000
12.359237 12.256127 -1.952378 4.000000
5.642745 -0.311527 -0.816384 5.000000
5.797631 -2.980857 -0.816613 9.000000
6.532005 -8.121272 -0.827566 16.000000
12.445514 12.432487 -1.957649 3.000000
5.624131 -0.288843 -0.813524 3.000000
5.834529 -2.972841 -0.824914 9.000000
6.460768 -7.972692 -0.825648 28.000000
12.456037 12.530172 -1.947444 5.000000
5.625152 -0.268227 -0.813524 8.000000
5.858284 -2.957949 -0.830225 8.000000
12.575542 12.743467 -1.954443 3.000000
12.597771 4.934476 -1.882215 6.000000
5.541955 -0.242936 -0.802340 9.000000
5.887337 -2.943020 -0.837330 7.000000
12.602990 12.865258 -1.950122 1.000000
12.520908 4.954851 -1.870909 7.000000
5.532918 -0.222225 -0.800908 38.000000
5.963192 -2.956263 -0.851442 7.000000
12.713139 13.073207 -1.955249 6.000000
12.526566 5.010269 -1.867285 1.000000
5.533451 -0.200968 -0.802841 33.000000
5.982488 -2.938563 -0.856201 6.000000
12.772458 13.226267 -1.951987 1.000000
12.504430 5.054657 -1.859538 1.000000
5.509283 -0.179874 -0.800216 35.000000
6.010379 -2.924968 -0.864583 7.000000
6.345519 -7.551581 -0.847349 28.000000
12.800774 13.353189 -1.947458 5.000000
5.504960 -0.159537 -0.799498 35.000000
6.056754 -2.918825 -0.874408 7.000000
6.343515 -7.493262 -0.855493 20.000000
12.869706 13.523973 -1.945708 1.000000
5.500585 -0.138274 -0.798779 31.000000
6.089368 -2.907089 -0.881165 8.000000
6.336734 -7.432486 -0.861381 36.000000
12.987782 13.743800 -1.950786 4.000000
5.486214 -0.117794 -0.796624 24.000000
6.104046 -2.886673 -0.885348 9.000000
6.447710 -7.506748 -0.883165 29.000000
13.071433 13.934277 -1.950790 6.000000
5.486626 -0.096727 -0.796624 31.000000
6.158914 -2.885046 -0.896597 9.000000
6.518978 -7.536339 -0.898084 26.000000
13.079292 14.045469 -1.939327 6.000000
5.477048 -0.076479 -0.795188 29.000000
6.200495 -2.876858 -0.904750 9.000000
6.503303 -7.462761 -0.904343 33.000000
13.200216 14.274915 -1.947495 6.000000
5.472353 -0.055398 -0.794469 29.000000
6.242092 -2.868402 -0.912940 10.000000
6.581231 -7.499173 -0.922071 22.000000
13.182825 14.361348 -1.932065 6.000000
5.467572 -0.035309 -0.793751 30.000000
6.275034 -2.854409 -0.921046 14.000000
13.195136 14.480943 -1.920919 6.000000
5.462580 -0.014301 -0.793986 26.000000
6.312123 -2.843404 -0.928644 20.000000
6.806884 -7.642565 -0.967433 20.000000
13.412972 14.823613 -1.939019 6.000000
9.301369 4.125684 -1.354060 1.000000
5.457788 0.003810 -0.792314 38.000000
6.348221 -2.834379 -0.936273 24.000000
6.986434 -7.794715 -0.998684 8.000000
13.519542 15.051912 -1.941003 7.000000
9.227517 4.135401 -1.338427 1.000000
5.462694 0.021929 -0.793033 20.000000
6.385309 -2.822916 -0.943933 17.000000
6.910856 -7.653765 -0.994762 29.000000
13.543356 15.179379 -1.937306 10.000000
9.246008 4.180562 -1.337707 1.000000
5.452658 0.044729 -0.791596 34.000000
6.435702 -2.817041 -0.956093 18.000000
6.914717 -7.601840 -1.002163 29.000000
13.518033 15.257880 -1.919752 11.000000
9.010286 4.113823 -1.300499 1.000000
5.462075 0.064828 -0.794940 28.000000
6.477832 -2.805893 -0.964509 10.000000
6.910130 -7.543726 -1.010294 21.000000
13.440544 15.282904 -1.891607 8.000000
5.457116 0.085727 -0.792314 34.000000
6.524341 -2.797684 -0.971163 17.000000
6.795420 -7.364126 -0.998401 26.000000
13.536140 15.505839 -1.894931 6.000000
5.456488 0.105723 -0.794219 30.000000
6.588483 -2.796645 -0.985542 20.000000
6.874431 -7.397769 -1.018671 29.000000
13.770458 15.885844 -1.909584 6.000000
5.456318 0.126680 -0.792314 33.000000
6.625609 -2.783789 -0.993397 18.000000
6.843221 -7.310267 -1.017132 31.000000
13.796554 16.022995 -1.905678 6.000000
5.460815 0.144904 -0.793033 29.000000
6.672354 -2.773335 -1.002658 20.000000
6.643774 -7.045273 -0.997305 21.000000
13.888484 16.255579 -1.900653 6.000000
5.455134 0.165716 -0.793267 31.000000
6.718627 -2.763732 -1.011960 19.000000
6.527316 -6.873549 -0.984576 26.000000
14.016938 16.528206 -1.903638 6.000000
5.454490 0.185709 -0.793267 27.000000
6.764911 -2.753825 -1.021303 17.000000
6.534561 -6.830863 -0.991893 32.000000
14.034443 16.666437 -1.887083 6.000000
5.449033 0.207426 -0.790644 26.000000
6.815797 -2.745462 -1.031382 21.000000
6.441522 -6.684385 -0.983875 10.000000
14.207539 16.998055 -1.899245 6.000000
5.453001 0.228548 -0.792314 30.000000
6.876381 -2.739225 -1.042903 15.000000
6.377538 -6.571921 -0.980290 11.000000
14.158929 17.060570 -1.877311 6.000000
5.457433 0.246866 -0.791126 30.000000
6.913501 -2.724694 -1.050979 29.000000
6.359281 -6.505230 -0.981843 9.000000
14.300225 17.347559 -1.876001 6.000000
5.456445 0.267819 -0.791126 33.000000
6.974008 -2.719052 -1.059988 24.000000
6.368527 -6.467100 -0.987618 10.000000
14.417934 17.627825 -1.872295 7.000000
5.455463 0.289728 -0.790172 35.000000
7.029718 -2.709723 -1.073573 28.000000
6.394833 -6.446382 -0.999253 10.000000
14.426701 17.771055 -1.857749 9.000000
5.449370 0.310392 -0.789457 34.000000
7.090127 -2.703203 -1.083981 9.000000
6.430726 -6.437463 -1.009382 10.000000
14.353280 17.807285 -1.832181 10.000000
5.453389 0.328767 -0.789219 26.000000
7.187446 -2.710177 -1.101438 7.000000
6.488770 -6.448127 -1.024475 14.000000
14.261076 17.813471 -1.803894 10.000000
5.452086 0.349704 -0.789219 30.000000
7.229719 -2.694455 -1.110446 8.000000
6.511721 -6.423670 -1.032457 10.000000
14.144133 17.807114 -1.773776 10.000000
5.455842 0.370029 -0.788979 34.000000
7.287444 -2.694261 -1.120993 7.000000
6.552191 -6.416380 -1.044866 10.000000
14.043066 17.813543 -1.741399 9.000000
5.459317 0.391329 -0.789693 26.000000
7.332678 -2.684830 -1.129431 9.000000
6.623749 -6.441315 -1.060853 10.000000
13.954148 17.815588 -1.717441 16.000000
5.467854 0.412090 -0.790164 37.000000
7.389534 -2.686650 -1.140049 9.000000
6.660804 -6.430017 -1.072830 12.000000
13.877678 17.865227 -1.689048 9.000000
5.466306 0.432128 -0.790164 29.000000
7.434807 -2.676696 -1.148547 10.000000
6.697854 -6.418524 -1.084848 11.000000
13.892630 18.000923 -1.673800 6.000000
5.469676 0.453534 -0.789920 30.000000
7.504046 -2.673547 -1.159287 17.000000
6.763819 -6.434348 -1.099964 9.000000
14.003830 18.276552 -1.666593 8.000000
5.453322 0.472309 -0.786827 38.000000
7.578746 -2.668898 -1.172172 11.000000
6.794016 -6.415803 -1.107658 10.000000
14.281420 18.794634 -1.683747 7.000000
5.456398 0.493691 -0.787539 38.000000
7.649101 -2.660705 -1.185796 14.000000
6.841990 -6.413830 -1.121599 10.000000
14.199319 18.808958 -1.656223 7.000000
5.469471 0.515091 -0.788714 40.000000
6.903585 -6.426444 -1.136362 18.000000
14.089617 18.806593 -1.622608 7.000000
5.467862 0.536129 -0.785838 65.000000
7.812616 -2.653547 -1.215452 10.000000
6.937299 -6.410528 -1.146399 11.000000
13.956581 18.765169 -1.586115 8.000000
5.480771 0.557683 -0.787000 63.000000
7.888000 -2.645413 -1.228558 10.000000
6.970832 -6.394309 -1.158113 10.000000
13.900864 18.827141 -1.562624 10.000000
5.478553 0.577753 -0.787962 52.000000
7.986237 -2.645835 -1.246841 13.000000
7.041170 -6.411466 -1.174323 10.000000
13.776698 18.802805 -1.531885 9.000000
5.500895 0.601474 -0.791501 90.000000
8.071135 -2.639613 -1.261534 14.000000
7.082264 -6.401563 -1.185714 10.000000
13.668047 18.791754 -1.498579 9.000000
5.558090 0.628352 -0.797068 10.000000
8.155419 -2.634129 -1.277777 17.000000
7.134294 -6.401236 -1.200682 11.000000
13.541584 18.762060 -1.467914 9.000000
5.639585 0.657510 -0.808069 9.000000
8.248479 -2.634012 -1.294071 21.000000
7.193966 -6.407338 -1.215304 10.000000
13.442166 18.761980 -1.435918 8.000000
5.607553 0.676603 -0.802856 5.000000
8.305957 -2.614078 -1.306021 18.000000
7.230353 -6.394626 -1.226231 10.000000
13.334070 18.748997 -1.407169 9.000000
5.595228 0.696923 -0.800464 1.000000
8.362264 -2.598152 -1.316494 21.000000
7.278862 -6.390135 -1.240786 10.000000
13.245961 18.770391 -1.380975 9.000000
5.602846 0.716747 -0.800884 1.000000
8.437016 -2.589119 -1.329982 5.000000
7.331324 -6.388764 -1.254355 10.000000
13.124180 18.736311 -1.343036 8.000000
5.703393 0.750866 -0.814620 1.000000
8.659385 -2.622670 -1.363511 1.000000
7.392877 -6.399395 -1.269925 10.000000
13.050813 18.770668 -1.322206 10.000000
5.627021 0.762803 -0.803113 1.000000
8.767494 -2.620370 -1.385547 1.000000
7.436470 -6.385091 -1.281698 10.000000
12.935210 18.743656 -1.285213 9.000000
5.644218 0.786212 -0.802930 1.000000
8.838903 -2.604784 -1.396886 1.000000
7.519507 -6.408660 -1.298969 15.000000
12.810891 18.709835 -1.251876 9.000000
5.685408 0.814216 -0.808206 4.000000
9.094752 -2.643991 -1.439161 1.000000
7.549645 -6.386724 -1.308903 18.000000
12.718051 18.714043 -1.229375 11.000000
5.652854 0.830709 -0.805023 2.000000
7.590750 -6.373912 -1.324294 10.000000
12.586586 18.660381 -1.191438 9.000000
4.429865 2.828661 -0.553350 1.000000
5.675134 0.850180 -0.807510 3.000000
13.123655 -3.703726 -2.086643 5.000000
7.655042 -6.380204 -1.340274 8.000000
12.527126 18.719866 -1.168644 9.000000
4.457160 2.860347 -0.554765 2.000000
5.740916 0.881560 -0.814223 3.000000
13.112697 -3.651265 -2.082861 5.000000
12.410104 18.685783 -1.132402 9.000000
4.421079 2.862314 -0.546125 4.000000
5.713468 0.898792 -0.808733 4.000000
13.121428 -3.597002 -2.089229 5.000000
12.331602 18.708960 -1.111588 9.000000
4.402625 2.873321 -0.540506 22.000000
5.773669 0.930994 -0.816714 3.000000
13.028864 -3.520337 -2.077245 5.000000
12.212276 18.669426 -1.079379 9.000000
4.414011 2.901670 -0.541219 5.000000
5.721498 0.944110 -0.808786 4.000000
13.026047 -3.470832 -2.079669 5.000000
5.102657 -4.102642 -0.907366 16.000000
12.111852 18.664877 -1.049296 10.000000
4.374634 2.898802 -0.533988 4.000000
5.752151 0.971871 -0.812603 6.000000
13.009302 -3.415353 -2.079790 5.000000
5.080911 -4.057490 -0.905728 13.000000
12.020267 18.666111 -1.019817 9.000000
4.347896 2.904073 -0.526488 1.000000
5.865953 1.013226 -0.827081 1.000000
12.978561 -3.354068 -2.077592 5.000000
5.065359 -4.011876 -0.906977 17.000000
11.891149 18.607977 -0.987332 9.000000
12.957249 -3.297945 -2.072232 5.000000
5.050897 -3.973237 -0.906598 22.000000
11.826758 18.650375 -0.960352 9.000000
14.464561 2.563509 -2.033175 5.000000
12.949593 -3.243103 -2.076159 5.000000
5.030928 -3.924938 -0.906995 22.000000
11.708316 18.614098 -0.933197 8.000000
14.431396 2.612223 -2.024628 2.000000
12.918220 -3.184975 -2.069243 5.000000
5.037757 -3.899242 -0.908923 23.000000
11.679404 18.698214 -0.912443 6.000000
14.304713 2.646057 -2.005679 4.000000
12.934451 -3.136343 -2.074658 5.000000
5.034333 -3.869964 -0.911640 25.000000
11.558283 18.663414 -0.874033 6.000000
14.397823 2.717894 -2.014905 5.000000
13.007622 -3.103651 -2.089337 5.000000
5.021645 -3.828239 -0.912177 27.000000
20.808308 33.863136 -1.533812 7.000000
12.908119 -3.027572 -2.076213 6.000000
5.027114 -3.803356 -0.916248 25.000000
14.937751 2.936085 -2.079956 6.000000
12.846225 -2.963423 -2.069212 6.000000
5.024682 -3.772638 -0.917759 26.000000
15.142035 3.028426 -2.107042 5.000000
12.785249 -2.897698 -2.057583 6.000000
5.016949 -3.740880 -0.917422 27.000000
21.592869 35.964996 -1.472228 10.000000
12.896678 -2.873297 -2.076170 6.000000
5.023196 -3.714256 -0.922514 21.000000
21.514257 36.119164 -1.416685 10.000000
12.854537 -2.812145 -2.067632 7.000000
5.026991 -3.691342 -0.925408 10.000000
12.070934 2.554749 -1.663821 1.000000
12.806105 -2.752405 -2.062891 6.000000
5.016752 -3.654256 -0.924254 25.000000
11.998800 2.585465 -1.652992 1.000000
12.371962 -2.609437 -1.991328 5.000000
5.005410 -3.617990 -0.925226 30.000000
16.157703 27.784019 -0.959528 1.000000
11.844139 2.599769 -1.628740 1.000000
12.231175 -2.532955 -1.969394 1.000000
5.003424 -3.586063 -0.925486 29.000000
16.141115 27.979782 -0.924839 5.000000
11.463204 2.560229 -1.569288 1.000000
12.177218 -2.473057 -1.963608 1.000000
4.996095 -3.570262 -0.925399 28.000000
11.396015 2.589111 -1.559303 1.000000
12.181693 -2.427510 -1.960660 1.000000
5.000685 -3.545926 -0.927119 26.000000
11.164908 2.581728 -1.520884 1.000000
12.233873 -2.389106 -1.972028 1.000000
5.012984 -3.527107 -0.932468 30.000000
23.617601 41.965851 -1.193707 6.000000
11.238434 2.642160 -1.524007 1.000000
12.175385 -2.329187 -1.958926 1.000000
5.005823 -3.493409 -0.931905 36.000000
23.525358 42.145477 -1.129041 6.000000
10.939904 2.614325 -1.480819 1.000000
12.416839 -2.328234 -1.996387 1.000000
5.005733 -3.466135 -0.934955 29.000000
23.366734 42.206806 -1.061097 39.000000
10.989313 2.668748 -1.478783 1.000000
5.014196 -3.444873 -0.935258 30.000000
11.009587 2.673671 -1.473467 1.000000
5.005513 -3.450494 -0.928132 28.000000
23.491938 42.068348 -1.068187 1.000000
11.001476 2.627010 -1.462992 1.000000
12.425437 -2.329847 -1.972900 1.000000
5.002012 -3.475194 -0.921138 49.000000
23.667505 42.037357 -1.120037 7.000000
11.044574 2.594549 -1.469461 1.000000
12.224054 -2.338497 -1.933373 1.000000
5.002180 -3.502564 -0.916986 33.000000
11.319731 2.615447 -1.504785 1.000000
12.162632 -2.375193 -1.918442 1.000000
5.001952 -3.529796 -0.914940 27.000000
11.247485 2.553302 -1.493867 1.000000
12.198118 -2.428570 -1.920985 1.000000
5.010041 -3.563083 -0.911125 32.000000
11.469188 2.559464 -1.526228 1.000000
12.223588 -2.482474 -1.919797 1.000000
5.001742 -3.584858 -0.905414 30.000000
16.317003 28.046679 -0.889347 1.000000
11.734918 2.573648 -1.562455 1.000000
12.137630 -2.511373 -1.903301 1.000000
4.988648 -3.621806 -0.899339 24.000000
11.943447 2.571357 -1.588894 1.000000
12.079865 -2.547829 -1.893557 1.000000
4.995940 -3.655136 -0.897546 39.000000
12.044413 2.546939 -1.605443 1.000000
12.139390 -2.606892 -1.895502 1.000000
4.995214 -3.682789 -0.893200 23.000000
21.562071 36.170712 -1.301287 10.000000
12.091626 -2.645245 -1.882985 1.000000
4.994225 -3.710391 -0.889908 26.000000
21.651451 36.034065 -1.343148 10.000000
12.043889 -2.681095 -1.872662 1.000000
4.997187 -3.741095 -0.886203 25.000000
13.083387 2.614319 -1.739931 3.000000
12.048606 -2.730743 -1.870600 1.000000
4.995914 -3.768794 -0.882851 24.000000
13.563588 2.658612 -1.812298 3.000000
11.942485 -2.752749 -1.853490 1.000000
5.002267 -3.802434 -0.881957 25.000000
20.816162 33.822960 -1.400769 4.000000
11.948014 -2.800182 -1.847167 1.000000
5.000942 -3.830429 -0.876346 26.000000
20.878006 33.659657 -1.438547 10.000000
14.337993 2.698826 -1.915600 4.000000
11.856034 -2.826693 -1.830260 1.000000
5.007078 -3.864329 -0.874272 27.000000
20.895350 33.452541 -1.480747 10.000000
14.317747 2.643300 -1.914236 5.000000
11.831798 -2.866785 -1.823783 1.000000
5.006451 -3.890404 -0.871900 21.000000
21.015310 33.345928 -1.521086 10.000000
14.381907 2.595488 -1.921405 3.000000
11.744802 -2.893496 -1.805598 1.000000
5.018687 -3.932325 -0.871104 31.000000
21.141285 33.287643 -1.570036 10.000000
11.686754 -2.924670 -1.794011 1.000000
5.016739 -3.960561 -0.865326 22.000000
11.970726 18.703716 -0.907432 6.000000
5.986615 1.015785 -0.802652 1.000000
11.684593 -2.976194 -1.791275 1.000000
5.041441 -4.010144 -0.867537 14.000000
12.103764 18.759787 -0.931815 7.000000
5.746094 0.952290 -0.768875 1.000000
11.647132 -3.007816 -1.778469 1.000000
5.054368 -4.050761 -0.866557 17.000000
12.135780 18.666058 -0.960401 9.000000
5.699896 0.925224 -0.765355 1.000000
11.625929 -3.050005 -1.777007 1.000000
5.082492 -4.103984 -0.868149 10.000000
12.227583 18.664370 -0.989817 9.000000
5.708012 0.905082 -0.767020 5.000000
11.567471 -3.080028 -1.765515 1.000000
5.117990 -4.163729 -0.870955 9.000000
12.318584 18.675020 -1.015904 9.000000
5.716212 0.883895 -0.768688 5.000000
11.590126 -3.131597 -1.766432 1.000000
12.438997 18.708025 -1.039819 9.000000
5.743917 0.866635 -0.771981 5.000000
11.588745 -3.179019 -1.759498 1.000000
7.767591 -6.375832 -1.315868 21.000000
12.559104 18.746407 -1.072011 8.000000
4.381225 2.771837 -0.515646 1.000000
5.707694 0.839785 -0.767718 5.000000
11.558541 -3.216332 -1.752413 1.000000
7.706843 -6.373391 -1.300649 17.000000
12.629418 18.709791 -1.096125 10.000000
4.507628 2.822151 -0.534577 1.000000
5.642058 0.808008 -0.759479 6.000000
7.654168 -6.377213 -1.283320 13.000000
12.744899 18.732445 -1.127929 8.000000
4.525174 2.812292 -0.538367 1.000000
5.660399 0.783431 -0.762458 7.000000
9.104524 -2.607241 -1.376530 5.000000
7.584266 -6.361699 -1.268105 16.000000
12.837769 18.728046 -1.154193 9.000000
4.514363 2.781601 -0.540481 1.000000
5.643454 0.760016 -0.760807 8.000000
8.938550 -2.595197 -1.349548 1.000000
7.563464 -6.396150 -1.258368 11.000000
12.973310 18.784832 -1.184447 9.000000
4.532693 2.770026 -0.545204 1.000000
5.621629 0.735111 -0.758486 9.000000
9.114101 -2.684155 -1.374213 1.000000
7.499266 -6.389150 -1.242839 10.000000
13.079166 18.776466 -1.215254 8.000000
4.538399 2.750718 -0.546546 1.000000
5.604489 0.711987 -0.756820 10.000000
8.967370 -2.676698 -1.348557 2.000000
7.440087 -6.383687 -1.228027 10.000000
13.191816 18.811901 -1.244354 8.000000
5.587256 0.688999 -0.755147 10.000000
8.592734 -2.600846 -1.290511 17.000000
7.391171 -6.388897 -1.215151 11.000000
13.257300 18.751701 -1.271870 9.000000
5.574968 0.665762 -0.754132 19.000000
8.479897 -2.600659 -1.268668 26.000000
7.346049 -6.397086 -1.202948 9.000000
13.350480 18.751274 -1.299017 9.000000
5.557810 0.643061 -0.750493 28.000000
8.418735 -2.615698 -1.257803 28.000000
7.286188 -6.392066 -1.186671 13.000000
13.493606 18.812962 -1.330869 8.000000
5.540410 0.619498 -0.748808 23.000000
8.380926 -2.639280 -1.248965 10.000000
7.237603 -6.396538 -1.172303 14.000000
13.599156 18.821054 -1.363256 8.000000
5.527472 0.597548 -0.749722 26.000000
8.305168 -2.648920 -1.239114 8.000000
7.199890 -6.410361 -1.163164 10.000000
13.726099 18.850811 -1.389467 9.000000
5.514970 0.575754 -0.746749 31.000000
8.216138 -2.653740 -1.221125 18.000000
7.144137 -6.407816 -1.146049 10.000000
13.817517 18.837820 -1.416609 9.000000
5.492359 0.552083 -0.744376 39.000000
8.135910 -2.662369 -1.206140 17.000000
7.106605 -6.421310 -1.135320 16.000000
13.903078 18.809521 -1.451085 9.000000
5.489155 0.531446 -0.745633 40.000000
8.037195 -2.662718 -1.189930 14.000000
7.044477 -6.409980 -1.120535 14.000000
14.018396 18.827686 -1.480930 7.000000
5.486351 0.509919 -0.744002 47.000000
7.971634 -2.673461 -1.177177 19.000000
6.996170 -6.413055 -1.106507 13.000000
14.136983 18.849239 -1.511271 7.000000
5.478183 0.488915 -0.743623 39.000000
7.910121 -2.686664 -1.166635 10.000000
6.940483 -6.408980 -1.093052 10.000000
14.274364 18.887794 -1.539293 6.000000
5.469935 0.467977 -0.743242 72.000000
7.807131 -2.683639 -1.148482 12.000000
6.910368 -6.428257 -1.083667 11.000000
14.323949 18.816492 -1.566564 7.000000
5.466597 0.448476 -0.742571 47.000000
7.741863 -2.692972 -1.134492 16.000000
6.860964 -6.424870 -1.067621 14.000000
14.525407 18.936722 -1.606099 7.000000
5.478104 0.427288 -0.744871 38.000000
7.680264 -2.704648 -1.125531 10.000000
6.803142 -6.422174 -1.056012 13.000000
14.581233 18.872719 -1.630068 7.000000
5.479704 0.406251 -0.744871 36.000000
7.587049 -2.703119 -1.107585 12.000000
6.763340 -6.429397 -1.045065 17.000000
14.759557 18.959486 -1.667504 7.000000
5.481026 0.386155 -0.745830 38.000000
7.503070 -2.704231 -1.092510 14.000000
6.711803 -6.427399 -1.030882 11.000000
14.806097 18.882917 -1.690556 7.000000
5.482275 0.366054 -0.746789 33.000000
7.397726 -2.705719 -1.074815 9.000000
6.674795 -6.439023 -1.017347 10.000000
14.682232 18.584261 -1.697707 9.000000
5.473750 0.344379 -0.745443 31.000000
7.334326 -2.721785 -1.063283 9.000000
6.633959 -6.446740 -1.006548 13.000000
14.447815 18.156887 -1.687688 6.000000
5.460009 0.323428 -0.744377 38.000000
7.265510 -2.738164 -1.049782 9.000000
6.600131 -6.461070 -0.998478 9.000000
14.432056 18.001270 -1.702420 6.000000
5.461469 0.302475 -0.742468 33.000000
7.202604 -2.751848 -1.038375 9.000000
6.578401 -6.484920 -0.987193 10.000000
14.440425 17.883438 -1.720236 8.000000
5.462152 0.282436 -0.745332 37.000000
7.128258 -2.753425 -1.025032 9.000000
6.622354 -6.576281 -0.987516 11.000000
14.495291 17.817383 -1.743171 9.000000
5.458248 0.261224 -0.744657 36.000000
7.077069 -2.763504 -1.015071 9.000000
6.669124 -6.671453 -0.989806 40.000000
14.641541 17.869370 -1.777580 10.000000
5.464118 0.241435 -0.745332 32.000000
7.021284 -2.771421 -1.004498 9.000000
6.648857 -6.700114 -0.980444 42.000000
14.724784 17.837204 -1.804104 10.000000
5.469787 0.221602 -0.746962 35.000000
6.965044 -2.780180 -0.993976 8.000000
6.692237 -6.791076 -0.983602 92.000000
14.798490 17.799568 -1.829900 10.000000
5.470527 0.202507 -0.746962 44.000000
6.927706 -2.794757 -0.986122 8.000000
6.824666 -6.976422 -0.994769 21.000000
14.929596 17.823965 -1.862524 9.000000
5.466344 0.180382 -0.746286 36.000000
6.858060 -2.795930 -0.975031 8.000000
7.219126 -7.433967 -1.045267 43.000000
14.990030 17.769737 -1.894986 9.000000
5.447188 0.158814 -0.743582 38.000000
6.816151 -2.808023 -0.966602 7.000000
7.064579 -7.328373 -1.019594 28.000000
14.980061 17.638903 -1.906651 9.000000
5.452507 0.140874 -0.745210 39.000000
6.746286 -2.809589 -0.954326 7.000000
7.018041 -7.326020 -1.007253 8.000000
14.887398 17.393986 -1.914507 8.000000
5.467866 0.120264 -0.747241 34.000000
6.704412 -2.821029 -0.945985 8.000000
7.236349 -7.614866 -1.028154 21.000000
14.848873 17.220806 -1.925403 6.000000
5.468271 0.100223 -0.747241 38.000000
6.671514 -2.836013 -0.940231 7.000000
6.942517 -7.359496 -0.983101 30.000000
14.692519 16.925659 -1.917542 6.000000
5.468601 0.080180 -0.747241 36.000000
6.625224 -2.845051 -0.930052 4.000000
6.846031 -7.308154 -0.962460 40.000000
14.621594 16.713881 -1.923323 6.000000
8.937293 4.156140 -1.206722 1.000000
5.468869 0.059181 -0.747241 37.000000
6.724030 -2.918112 -0.940287 1.000000
6.843495 -7.359325 -0.957040 34.000000
14.500286 16.453136 -1.922561 6.000000
8.883897 4.091773 -1.206144 1.000000
5.468788 0.039134 -0.749150 33.000000
6.608968 -2.897008 -0.924395 1.000000
6.769881 -7.333881 -0.939952 27.000000
14.490167 16.326405 -1.936689 6.000000
8.971725 4.088651 -1.222818 1.000000
5.468898 0.018136 -0.749150 36.000000
6.748266 -7.361860 -0.929963 31.000000
14.313925 16.020506 -1.928699 6.000000
9.541574 4.308186 -1.303996 1.000000
5.474143 0.000000 -0.747918 37.000000
6.802310 -7.475642 -0.930505 141.000000
14.258148 15.840837 -1.932098 6.000000
9.348331 4.179753 -1.280929 1.000000
5.469022 -0.020045 -0.748195 31.000000
6.992465 -7.741430 -0.949376 27.000000
13.977598 15.420550 -1.908751 6.000000
9.394727 4.159247 -1.290653 1.000000
5.468774 -0.041043 -0.749150 33.000000
6.949325 -7.747869 -0.938028 20.000000
13.980322 15.321143 -1.924079 8.000000
9.466903 4.153709 -1.304168 1.000000
5.483447 -0.061253 -0.751186 29.000000
6.808287 -7.641454 -0.911603 14.000000
14.025381 15.263177 -1.948482 10.000000
9.558780 4.152309 -1.320264 1.000000
5.488139 -0.081424 -0.751864 38.000000
6.914215 -7.815098 -0.918420 10.000000
14.118968 15.241762 -1.974919 12.000000
5.487523 -0.102492 -0.753780 30.000000
6.563836 -7.474087 -0.868514 38.000000
14.113943 15.135350 -1.985409 6.000000
5.492326 -0.122720 -0.752543 30.000000
6.507530 -7.464981 -0.854230 35.000000
13.925146 14.818404 -1.972325 6.000000
5.501719 -0.144068 -0.753900 26.000000
