VERSION .7
FIELDS x y z intensity
SIZE 4 4 4 4
TYPE F F F F
COUNT 1 1 1 1
WIDTH 1232
HEIGHT 1
VIEWPOINT 0 0 0 1 0 0 0
POINTS 1232
DATA ascii
12.122090 3.047108 -1.234367 1.000000
13.683784 -2.378360 -1.132117 1.000000
17.586445 -11.733136 -1.104262 10.000000
12.794134 -19.936567 -0.243942 30.000000
12.084561 2.988388 -1.238145 23.000000
13.626101 -2.419818 -1.125639 1.000000
9.903178 -6.659678 -0.615000 1.000000
5.775225 -9.072273 -0.103239 10.000000
12.147367 2.961209 -1.245770 8.000000
13.190345 -2.392336 -1.092714 1.000000
9.822350 -6.655232 -0.603115 6.000000
5.775626 -9.143202 -0.090602 13.000000
12.157290 2.916463 -1.254499 2.000000
13.132249 -2.433918 -1.086321 2.000000
9.798064 -6.691307 -0.598973 6.000000
5.693262 -9.082879 -0.080452 13.000000
12.191752 2.875269 -1.265740 1.000000
12.844125 -2.429245 -1.063217 1.000000
9.806639 -6.750001 -0.594757 1.000000
5.691647 -9.154695 -0.071495 20.000000
12.235914 2.838383 -1.271451 1.000000
12.624902 -2.435744 -1.043543 3.000000
9.786274 -6.788980 -0.586691 1.000000
5.722695 -9.276694 -0.060877 11.000000
12.201720 2.783363 -1.275657 1.000000
12.415230 -2.442523 -1.029168 1.000000
17.419250 -12.178976 -1.039523 12.000000
5.711186 -9.330771 -0.051553 16.000000
12.221112 2.740702 -1.281043 1.000000
12.284037 -2.463512 -1.019034 1.000000
17.377222 -12.240121 -1.024684 10.000000
5.689947 -9.373054 -0.040189 9.000000
4.791546 3.537799 -0.636522 1.000000
12.284319 2.705379 -1.293226 1.000000
12.162364 -2.487727 -1.007545 1.000000
17.353041 -12.318495 -1.014746 10.000000
5.675271 -9.422871 -0.028798 6.000000
4.775960 3.499316 -0.637970 1.000000
12.327293 2.667507 -1.305611 1.000000
12.011678 -2.502807 -0.995815 1.000000
17.340555 -12.405465 -1.009208 14.000000
5.126848 -8.579927 -0.017445 3.000000
4.764090 3.463855 -0.640924 4.000000
12.380098 2.631471 -1.316871 1.000000
11.997378 -2.545745 -0.997551 1.000000
17.315657 -12.483850 -0.999213 15.000000
12.311483 -20.776180 -0.016860 35.000000
4.764114 3.437252 -0.645454 7.000000
12.466870 2.602194 -1.331819 5.000000
11.867082 -2.559251 -0.987417 1.000000
17.253902 -12.535693 -0.990834 10.000000
12.104589 -20.590584 0.004169 38.000000
4.772088 3.416479 -0.651054 4.000000
12.583029 2.576060 -1.352227 5.000000
11.769837 -2.583460 -0.982224 1.000000
17.220346 -12.608005 -0.980355 11.000000
12.125833 -20.792509 0.025206 37.000000
12.639972 2.539484 -1.368713 5.000000
11.769221 -2.630733 -0.987246 1.000000
17.216564 -12.697786 -0.978916 11.000000
11.989458 -20.732910 0.041801 32.000000
4.700563 3.351642 -0.653680 1.000000
12.657104 2.542926 -1.393359 5.000000
11.738004 -2.623755 -1.009992 1.000000
17.229168 -12.711723 -1.013464 10.000000
12.022014 -20.789207 0.012574 38.000000
4.752989 3.415369 -0.660638 1.000000
12.521076 2.563376 -1.379409 5.000000
11.751716 -2.581632 -1.018810 4.000000
17.254627 -12.633104 -1.034677 10.000000
12.079398 -20.721197 -0.016745 38.000000
4.801085 3.476683 -0.665947 4.000000
12.418681 2.592136 -1.369215 1.000000
11.780054 -2.542634 -1.026808 1.000000
17.293695 -12.569218 -1.056823 9.000000
12.166831 -20.704731 -0.050297 37.000000
4.764600 3.476955 -0.658480 1.000000
12.292167 2.612781 -1.358532 1.000000
11.847425 -2.511765 -1.036129 1.000000
17.350891 -12.513857 -1.079967 9.000000
12.277213 -20.726597 -0.079885 38.000000
4.807533 3.536654 -0.663121 1.000000
12.311660 2.664124 -1.361756 1.000000
12.011723 -2.500629 -1.060475 1.000000
17.446320 -12.490338 -1.105714 7.000000
5.148377 -8.619371 -0.047312 1.000000
4.750900 3.521902 -0.653951 5.000000
12.252794 2.700678 -1.356382 1.000000
12.019767 -2.460746 -1.062617 1.000000
17.482887 -12.419849 -1.127658 6.000000
5.150037 -8.554183 -0.057509 8.000000
12.150423 2.724849 -1.348345 1.000000
12.150062 -2.441056 -1.082054 1.000000
17.531397 -12.357877 -1.150382 8.000000
5.680422 -9.361045 -0.078356 24.000000
12.160199 2.773891 -1.346145 1.000000
12.309859 -2.426256 -1.102106 1.000000
17.491949 -12.238897 -1.159931 6.000000
5.697357 -9.315479 -0.091482 29.000000
12.140722 2.816301 -1.340721 1.000000
12.441803 -2.398166 -1.117467 1.000000
9.793268 -6.798897 -0.656105 2.000000
5.602819 -9.085919 -0.100608 20.000000
12.095950 2.854904 -1.336978 1.000000
12.556768 -2.377166 -1.133822 1.000000
9.788773 -6.742741 -0.666630 6.000000
5.621225 -9.044945 -0.115242 28.000000
12.109577 2.905017 -1.339652 1.000000
12.972476 -2.401964 -1.172800 1.000000
9.788111 -6.689520 -0.677365 9.000000
5.652696 -9.025161 -0.126394 15.000000
12.089415 2.947082 -1.336410 3.000000
13.028559 -2.367690 -1.186472 1.000000
9.827532 -6.666254 -0.686797 8.000000
5.721439 -9.064426 -0.140320 23.000000
12.045272 2.980903 -1.332673 37.000000
13.306607 -2.367872 -1.213372 1.000000
9.876143 -6.646506 -0.700996 4.000000
5.808194 -9.127581 -0.156736 23.000000
12.086692 3.042696 -1.334195 2.000000
13.844840 -2.411332 -1.264110 1.000000
17.699671 -11.817608 -1.268126 9.000000
12.085544 3.089554 -1.330906 1.000000
13.750662 -2.338095 -1.262006 2.000000
17.717157 -11.735627 -1.281178 10.000000
12.025470 3.123437 -1.325601 1.000000
14.009032 -2.331742 -1.287463 1.000000
17.731865 -11.656521 -1.301596 10.000000
12.067274 3.181553 -1.327080 5.000000
14.179230 -2.306694 -1.307375 1.000000
17.765343 -11.585500 -1.315790 10.000000
5.678338 -8.651023 -0.196887 25.000000
12.070387 3.229735 -1.324305 1.000000
14.501629 -2.304616 -1.344066 2.000000
17.794146 -11.511548 -1.333357 9.000000
5.614624 -8.489207 -0.204312 89.000000
12.092505 3.283194 -1.323620 1.000000
14.760678 -2.290350 -1.369917 1.000000
17.827032 -11.440357 -1.347517 10.000000
5.673307 -8.509982 -0.216026 134.000000
12.070222 3.326960 -1.322569 1.000000
15.019322 -2.274140 -1.401160 6.000000
17.857643 -11.372191 -1.361663 10.000000
6.020557 -8.962912 -0.243139 25.000000
12.069143 3.369766 -1.319246 1.000000
15.515326 -2.288337 -1.449362 19.000000
17.868866 -11.287500 -1.374172 9.000000
5.922782 -8.751202 -0.249027 25.000000
12.041169 3.414118 -1.317675 1.000000
17.921572 -11.229109 -1.397293 10.000000
5.856054 -8.584655 -0.257600 92.000000
12.100702 3.478965 -1.321133 1.000000
19.169914 -2.683921 -1.795684 255.000000
17.902452 -11.125962 -1.407394 9.000000
5.871673 -8.543337 -0.267836 32.000000
12.016088 3.504646 -1.308937 1.000000
19.203356 -2.616876 -1.808141 255.000000
17.899593 -11.033446 -1.422413 8.000000
5.943977 -8.584192 -0.280708 26.000000
16.043642 13.697721 -2.049861 6.000000
12.028685 3.551644 -1.307159 7.000000
19.237179 -2.549703 -1.813851 255.000000
5.900859 -8.455539 -0.288012 38.000000
15.963118 13.725600 -2.027138 6.000000
12.063668 3.610096 -1.307947 1.000000
19.320576 -2.485306 -1.824230 142.000000
5.944474 -8.454994 -0.303141 34.000000
16.151052 13.990480 -2.038683 6.000000
12.088429 3.665833 -1.312080 1.000000
19.368120 -2.419293 -1.838180 5.000000
6.022872 -8.503261 -0.316545 131.000000
16.052242 14.008198 -2.013918 6.000000
12.078376 3.718101 -1.305979 1.000000
19.737934 -2.392048 -1.868933 7.000000
6.109050 -8.551937 -0.330284 33.000000
16.181570 14.225868 -2.017702 6.000000
12.093591 3.771365 -1.304641 1.000000
20.511887 -2.409593 -1.952277 6.000000
6.170768 -8.574894 -0.343075 56.000000
16.338816 14.470621 -2.032382 6.000000
12.112886 3.826152 -1.308227 1.000000
6.201852 -8.558085 -0.356150 29.000000
16.402153 14.634339 -2.027571 6.000000
12.086352 3.861896 -1.302261 1.000000
21.577305 -2.370722 -2.063398 2.000000
6.090041 -8.342351 -0.358884 183.000000
16.831135 15.128247 -2.067525 6.000000
12.105207 3.919210 -1.299172 1.000000
22.461580 -2.384591 -2.151087 5.000000
6.093701 -8.283442 -0.368090 255.000000
16.795095 15.207511 -2.053982 8.000000
12.094104 3.969323 -1.299680 1.000000
22.801546 -2.336202 -2.186847 9.000000
6.244277 -8.426346 -0.388237 27.000000
16.725845 15.256743 -2.032421 10.000000
12.109630 4.018950 -1.298274 1.000000
6.497562 -8.704459 -0.413484 21.000000
16.695795 15.336446 -2.015321 17.000000
12.150621 4.086775 -1.297636 1.000000
23.952370 -2.276820 -2.299795 194.000000
6.057641 -8.053373 -0.394176 23.000000
16.629787 15.388574 -1.994221 10.000000
23.994465 -2.196336 -2.307331 207.000000
6.034172 -7.964150 -0.401318 17.000000
16.618011 15.491125 -1.983622 6.000000
24.080875 -2.115274 -2.323395 200.000000
6.069083 -7.949527 -0.413939 141.000000
17.074392 16.033922 -2.024504 7.000000
24.361547 -2.041414 -2.353972 125.000000
6.181793 -8.038826 -0.430348 37.000000
17.196177 16.255932 -2.024522 7.000000
7.845660 2.765972 -0.827409 1.000000
17.222225 16.411970 -2.014417 7.000000
7.554293 2.694420 -0.797718 1.000000
24.221289 -1.855222 -2.343355 8.000000
17.371262 16.670084 -2.013253 7.000000
7.458631 2.697042 -0.784657 1.000000
24.326790 -1.773642 -2.357214 8.000000
6.286077 -7.993919 -0.463570 35.000000
17.468937 16.887243 -2.010383 7.000000
7.506466 2.741036 -0.787775 1.000000
24.362919 -1.686530 -2.360100 8.000000
6.245466 -7.885470 -0.467339 22.000000
17.610519 17.137445 -2.011616 7.000000
7.468748 2.758329 -0.780663 1.000000
6.326975 -7.928503 -0.481907 26.000000
17.774076 17.436073 -2.016406 7.000000
6.316749 -7.859260 -0.489619 30.000000
17.746498 17.537119 -2.003024 7.000000
7.205549 2.754414 -0.745497 1.000000
6.351417 -7.843346 -0.502434 29.000000
17.951384 17.863871 -2.010934 9.000000
7.232665 2.795205 -0.747992 1.000000
7.500018 -0.377310 -0.731020 8.000000
6.368952 -7.809107 -0.512242 22.000000
17.836935 17.868092 -1.982570 9.000000
7.185648 2.807348 -0.740112 1.000000
7.446542 -0.347262 -0.726993 7.000000
6.441568 -7.839303 -0.526421 20.000000
17.707125 17.881042 -1.945173 8.000000
7.198440 2.844252 -0.737096 1.000000
7.398102 -0.316540 -0.722140 8.000000
6.144985 -3.050397 -0.580912 17.000000
6.481331 -7.831800 -0.536329 28.000000
17.583000 17.886347 -1.921112 10.000000
7.164974 2.861434 -0.733379 1.000000
7.374098 -0.288440 -0.722289 9.000000
6.182489 -3.040822 -0.589455 22.000000
6.442487 -7.727027 -0.541332 198.000000
17.448122 17.867273 -1.890918 9.000000
7.173257 2.895272 -0.731222 1.000000
7.340294 -0.260177 -0.718880 15.000000
6.228080 -3.037637 -0.596494 10.000000
6.128686 -7.298708 -0.524499 27.000000
17.334949 17.875792 -1.859181 12.000000
7.331126 -0.232952 -0.719186 29.000000
6.248818 -3.016761 -0.602196 9.000000
6.619325 -7.824599 -0.574796 10.000000
17.301558 17.972698 -1.840762 8.000000
7.317044 -0.204384 -0.717722 24.000000
6.299034 -3.015288 -0.608524 3.000000
17.209108 18.008303 -1.816082 7.000000
7.302819 -0.177202 -0.716258 31.000000
17.312223 18.243279 -1.807198 7.000000
7.303420 -0.150434 -0.716258 33.000000
6.604520 -7.637925 -0.596359 30.000000
17.365795 18.434582 -1.802060 7.000000
7.278796 -0.123240 -0.716360 32.000000
6.597881 -7.576631 -0.605686 57.000000
18.025249 19.275682 -1.845407 7.000000
7.274489 -0.095228 -0.713331 31.000000
6.697735 -7.634614 -0.619396 38.000000
17.908028 19.284828 -1.817210 7.000000
7.279765 -0.068612 -0.713819 37.000000
6.816426 -7.715415 -0.638700 17.000000
17.804697 19.315048 -1.786258 7.000000
7.270015 -0.041873 -0.712843 32.000000
6.927226 -7.783149 -0.655533 1.000000
17.623484 19.259634 -1.756839 6.000000
7.274719 -0.016506 -0.717140 23.000000
17.500128 19.266138 -1.728755 7.000000
7.264905 0.008876 -0.714891 33.000000
6.805379 -3.015729 -0.683975 1.000000
8.493255 -9.412872 -0.824309 8.000000
17.390530 19.280277 -1.697258 6.000000
7.264818 0.036771 -0.714891 28.000000
6.843191 -3.002527 -0.693241 1.000000
7.070690 -7.778765 -0.694526 9.000000
17.284195 19.290628 -1.670415 7.000000
7.259658 0.063354 -0.714401 27.000000
6.886486 -7.520550 -0.682659 31.000000
17.101778 19.228371 -1.632528 7.000000
7.254433 0.087368 -0.713912 35.000000
6.861482 -7.440927 -0.688249 30.000000
17.002457 19.251608 -1.606948 6.000000
7.244073 0.116328 -0.712933 29.000000
6.824625 -2.905319 -0.697223 1.000000
6.871323 -7.397013 -0.695363 36.000000
16.847345 19.217480 -1.572069 7.000000
7.248598 0.141711 -0.713422 33.000000
6.939999 -2.925862 -0.710615 1.000000
6.857074 -7.327629 -0.699999 28.000000
16.712240 19.198147 -1.543411 7.000000
7.247971 0.170808 -0.713422 38.000000
6.923777 -2.886344 -0.711725 1.000000
6.861580 -7.281332 -0.708389 25.000000
16.557966 19.162294 -1.509023 7.000000
7.247364 0.194842 -0.713422 31.000000
6.956466 -7.328023 -0.724269 34.000000
16.459394 19.189943 -1.479872 7.000000
7.246648 0.223937 -0.712157 34.000000
6.940476 -7.252649 -0.730134 35.000000
16.386665 19.240654 -1.457233 6.000000
7.250795 0.249402 -0.712646 33.000000
6.952405 -7.219573 -0.737793 34.000000
16.213881 19.179749 -1.421724 7.000000
7.249833 0.275976 -0.712646 26.000000
7.186584 -7.408214 -0.770626 131.000000
16.061121 19.134115 -1.387934 7.000000
7.243801 0.302339 -0.712157 25.000000
7.248062 -7.416998 -0.783399 158.000000
15.988609 19.190125 -1.361501 7.000000
7.247565 0.332913 -0.711379 34.000000
7.133753 -7.241641 -0.778602 55.000000
15.852422 19.155478 -1.333544 7.000000
7.246421 0.356945 -0.711379 42.000000
7.138440 -7.201007 -0.785542 47.000000
15.665562 19.078354 -1.298053 7.000000
7.260097 0.384297 -0.711574 28.000000
7.114985 -7.124926 -0.788922 25.000000
15.539598 19.067015 -1.267570 7.000000
7.248703 0.410342 -0.710600 33.000000
7.108747 -7.066687 -0.794155 18.000000
15.445500 19.087225 -1.239542 6.000000
7.257008 0.438773 -0.711574 33.000000
7.141198 -7.047097 -0.803700 36.000000
15.326480 19.069113 -1.213655 7.000000
7.280305 0.466968 -0.712736 39.000000
7.186505 -7.042461 -0.816633 21.000000
15.232573 19.088345 -1.185852 6.000000
7.268615 0.492976 -0.711764 39.000000
7.186751 -6.991251 -0.822551 13.000000
15.085749 19.047132 -1.154346 7.000000
7.266883 0.519622 -0.710492 25.000000
14.933584 18.990837 -1.118187 6.000000
7.275198 0.545748 -0.708916 33.000000
7.535294 -7.223563 -0.874704 7.000000
14.891731 19.094870 -1.095373 7.000000
7.292915 0.576526 -0.709574 33.000000
17.205505 -6.163851 -1.853214 7.000000
14.721706 19.013348 -1.062510 5.000000
7.290630 0.603242 -0.710851 27.000000
17.377110 -6.153558 -1.879008 6.000000
7.524003 -7.110123 -0.887482 1.000000
20.752232 26.986275 -1.480389 7.000000
7.308203 0.631674 -0.712785 26.000000
11.849674 -4.147375 -1.284095 1.000000
16.406782 -15.390836 -1.948346 6.000000
20.582880 26.979795 -1.434152 8.000000
7.315759 0.660637 -0.712470 34.000000
11.795074 -4.075191 -1.282998 1.000000
9.010276 -8.384595 -1.076809 20.000000
20.485144 27.037140 -1.397997 9.000000
7.343390 0.690276 -0.711504 22.000000
11.695845 -3.995262 -1.275040 1.000000
9.019050 -8.337125 -1.085349 33.000000
20.451572 27.189487 -1.366488 8.000000
7.360624 0.719122 -0.713425 10.000000
11.658152 -3.934731 -1.273691 1.000000
9.030498 -8.286532 -1.093844 26.000000
20.439297 27.381504 -1.336526 10.000000
7.397675 0.750124 -0.715968 10.000000
11.634330 -3.879250 -1.273854 1.000000
9.095469 -8.287854 -1.109028 22.000000
23.744570 32.042137 -1.518136 2.000000
7.434871 0.778813 -0.718497 9.000000
11.628941 -3.830149 -1.278198 2.000000
9.187987 -8.310726 -1.125307 1.000000
23.722332 32.246834 -1.481921 10.000000
7.461388 0.810566 -0.722677 9.000000
11.614762 -3.776106 -1.279346 7.000000
16.564093 -14.872549 -2.045519 7.000000
23.460520 32.137043 -1.431191 10.000000
7.537754 0.846827 -0.727697 7.000000
11.542875 -3.706012 -1.274202 1.000000
16.620869 -14.813857 -2.065406 6.000000
23.319744 32.179478 -1.387778 10.000000
7.603634 0.885150 -0.733046 1.000000
11.560484 -3.664981 -1.281075 1.000000
16.632685 -14.715357 -2.079707 7.000000
23.273003 32.387810 -1.343940 10.000000
7.799922 0.921801 -0.750740 1.000000
11.554431 -3.616511 -1.283200 1.000000
16.636787 -14.610631 -2.089104 7.000000
26.307451 36.854469 -1.486290 12.000000
11.538677 -3.565198 -1.284254 4.000000
16.674114 -14.535511 -2.102669 7.000000
11.537584 -3.516387 -1.286878 30.000000
16.737175 -14.482862 -2.123404 7.000000
24.481386 34.820568 -1.293054 11.000000
11.483740 -3.454028 -1.279452 90.000000
16.758530 -14.394267 -2.138864 6.000000
24.357590 34.902805 -1.248332 11.000000
21.124828 2.762384 -2.017636 9.000000
11.481596 -3.407544 -1.282041 72.000000
16.764307 -14.292789 -2.152308 7.000000
24.213163 34.968246 -1.202913 11.000000
21.223444 2.854436 -2.024270 8.000000
11.474277 -3.359662 -1.286173 39.000000
7.838564 -6.635834 -1.012433 6.000000
24.199230 35.210098 -1.163544 11.000000
21.080051 2.913850 -2.007851 2.000000
11.481884 -3.314076 -1.289809 32.000000
7.843107 -6.590485 -1.018921 8.000000
24.144449 35.394444 -1.121944 11.000000
11.483959 -3.269125 -1.292904 19.000000
7.839781 -6.538816 -1.024366 16.000000
24.001303 35.463108 -1.068974 11.000000
11.495427 -3.226890 -1.297072 10.000000
7.836454 -6.487488 -1.026199 15.000000
21.047228 3.149285 -1.996708 9.000000
11.501951 -3.183289 -1.300698 6.000000
7.851799 -6.451836 -1.034064 10.000000
21.051336 3.228828 -1.986958 6.000000
11.533271 -3.144331 -1.302865 1.000000
7.866982 -6.416154 -1.041911 14.000000
20.897076 3.283606 -1.969797 5.000000
11.520278 -3.095471 -1.304321 4.000000
7.920804 -6.411852 -1.053110 13.000000
11.535911 -3.054382 -1.309030 3.000000
7.955163 -6.391545 -1.063557 12.000000
15.488852 2.553054 -1.453483 1.000000
11.513664 -3.001231 -1.307290 5.000000
8.001133 -6.380364 -1.075598 12.000000
15.420726 2.599916 -1.445221 1.000000
11.509705 -2.955190 -1.309800 1.000000
8.082356 -6.396815 -1.090634 15.000000
11.548923 -2.920182 -1.317245 8.000000
8.101237 -6.363606 -1.097300 12.000000
21.315882 33.497921 -0.637597 9.000000
14.504417 2.554910 -1.355879 1.000000
11.534990 -2.871720 -1.318647 5.000000
8.163109 -6.363964 -1.109822 13.000000
21.126646 33.470764 -0.587234 9.000000
14.235706 2.563973 -1.321487 1.000000
11.544944 -2.831437 -1.318647 5.000000
8.232789 -6.369911 -1.125303 17.000000
21.044497 33.599888 -0.546681 9.000000
13.922812 2.560338 -1.290813 1.000000
11.555993 -2.785017 -1.320721 2.000000
8.298822 -6.372514 -1.138519 8.000000
20.899569 33.602699 -0.497301 9.000000
13.356517 2.502017 -1.236681 1.000000
11.564716 -2.746573 -1.324870 1.000000
20.856550 33.835644 -0.464814 8.000000
13.248974 2.536964 -1.222910 1.000000
11.609544 -2.705898 -1.332909 1.000000
12.967397 2.527653 -1.190712 1.000000
11.604399 -2.659894 -1.335398 1.000000
19.354599 31.895393 -0.345122 1.000000
12.831255 2.549967 -1.176760 6.000000
11.623992 -2.619580 -1.334433 1.000000
19.266985 31.989717 -0.299822 1.000000
12.705479 2.573414 -1.156959 4.000000
11.685970 -2.590717 -1.344732 1.000000
11.969212 20.030817 -0.162908 3.000000
12.685947 2.620207 -1.153810 4.000000
11.680593 -2.544646 -1.345144 1.000000
21.820080 36.807713 -0.246451 8.000000
12.520692 2.633959 -1.135148 6.000000
11.718992 -2.508056 -1.348499 1.000000
12.355306 2.646492 -1.118803 4.000000
11.752620 -2.468097 -1.353390 1.000000
47.166573 80.910309 -0.310571 1.000000
12.317084 2.685559 -1.107357 1.000000
11.873508 -2.448081 -1.366269 1.000000
47.055878 81.339165 -0.213211 1.000000
12.283034 2.725332 -1.102973 15.000000
11.877064 -2.403466 -1.369939 1.000000
12.239325 2.762741 -1.095537 9.000000
12.007802 -2.381965 -1.386117 1.000000
46.746716 82.122147 0.032985 1.000000
12.234715 2.808867 -1.087208 1.000000
12.167632 -2.367352 -1.403556 1.000000
46.587547 82.511131 0.148841 1.000000
12.161824 2.839097 -1.075061 1.000000
12.317512 -2.349691 -1.422059 1.000000
46.436119 82.951614 0.265471 1.000000
12.137523 2.880375 -1.065065 6.000000
12.624598 -2.358068 -1.454186 5.000000
23.341204 42.039402 0.209810 29.000000
12.156154 2.934146 -1.058887 1.000000
12.838921 -2.349435 -1.473257 2.000000
12.157736 2.932283 -1.045792 1.000000
12.869760 -2.355078 -1.462922 4.000000
12.163908 2.886636 -1.041011 6.000000
12.705969 -2.373267 -1.433863 5.000000
46.592297 82.519539 0.297713 1.000000
12.184110 2.844300 -1.041841 1.000000
12.448528 -2.374684 -1.399112 1.000000
46.818348 82.247993 0.198213 1.000000
12.257587 2.814118 -1.047235 8.000000
12.137752 -2.361538 -1.360779 1.000000
12.204936 2.752739 -1.044024 57.000000
12.046832 -2.389707 -1.345050 1.000000
47.017601 81.240280 0.016383 1.000000
12.297282 2.726242 -1.055490 15.000000
11.969594 -2.422191 -1.335298 1.000000
47.318516 81.105865 -0.081943 1.000000
12.375529 2.696039 -1.059124 1.000000
11.912862 -2.456195 -1.321372 1.000000
12.389838 2.651628 -1.063964 1.000000
11.792117 -2.476392 -1.306849 1.000000
21.788511 36.739841 -0.126738 8.000000
12.535999 2.634895 -1.075679 4.000000
11.739218 -2.512384 -1.297807 1.000000
12.032573 20.144838 -0.094194 6.000000
12.633221 2.607018 -1.085461 5.000000
11.735451 -2.556597 -1.292055 1.000000
19.299192 32.017899 -0.182697 1.000000
12.745501 2.579205 -1.096535 4.000000
11.702172 -2.594309 -1.285197 1.000000
12.950347 2.571285 -1.113340 1.000000
11.649590 -2.627485 -1.274147 5.000000
13.115985 2.554241 -1.129117 1.000000
11.635004 -2.671184 -1.269450 7.000000
20.857281 33.784004 -0.318769 6.000000
13.267179 2.533250 -1.141325 1.000000
11.620937 -2.712831 -1.262673 9.000000
20.923529 33.654320 -0.359666 9.000000
13.501449 2.526727 -1.163089 1.000000
11.553288 -2.741729 -1.252215 28.000000
8.349269 -6.362741 -1.101466 15.000000
21.015162 33.514030 -0.407360 10.000000
13.828943 2.535591 -1.192964 1.000000
11.547935 -2.787340 -1.248592 24.000000
8.294946 -6.369537 -1.089990 22.000000
21.148344 33.453373 -0.442104 10.000000
14.166714 2.541337 -1.226311 1.000000
11.542682 -2.830883 -1.247041 21.000000
8.244907 -6.379287 -1.075446 13.000000
21.381996 33.588879 -0.479532 7.000000
14.504909 2.547167 -1.252181 1.000000
11.527824 -2.872073 -1.242372 30.000000
8.171212 -6.370282 -1.059735 17.000000
11.518059 -2.914517 -1.234078 24.000000
8.160124 -6.409861 -1.054017 14.000000
15.210348 2.556257 -1.319562 1.000000
11.526466 -2.963783 -1.231990 14.000000
8.117790 -6.424859 -1.042457 20.000000
15.597906 2.562642 -1.355139 1.000000
11.520545 -3.007320 -1.230427 17.000000
8.086973 -6.448816 -1.034234 9.000000
11.533899 -3.056003 -1.228832 8.000000
8.122446 -6.525948 -1.028967 12.000000
20.867575 3.267775 -1.818212 4.000000
11.551854 -3.106117 -1.227729 9.000000
8.137706 -6.587433 -1.026572 7.000000
21.022537 3.213145 -1.826936 3.000000
11.521473 -3.145435 -1.217350 180.000000
8.111496 -6.613218 -1.016951 3.000000
23.824135 35.413986 -0.834438 1.000000
20.890968 3.114721 -1.818212 8.000000
11.481511 -3.179789 -1.210149 230.000000
16.918026 -13.896624 -2.108127 7.000000
23.988121 35.416988 -0.873624 11.000000
20.974810 3.056155 -1.828344 4.000000
11.479763 -3.224654 -1.206998 217.000000
16.868109 -13.959473 -2.092842 8.000000
24.189968 35.447876 -0.921424 10.000000
11.482626 -3.270912 -1.204341 217.000000
16.783819 -13.993678 -2.069491 8.000000
24.392824 35.465248 -0.969291 1.000000
21.100147 2.912874 -1.844802 9.000000
11.489502 -3.320619 -1.202173 217.000000
16.802681 -14.114122 -2.054998 7.000000
24.538652 35.411896 -1.015308 1.000000
21.056055 2.828182 -1.843765 155.000000
11.501929 -3.369938 -1.196306 216.000000
16.752199 -14.176765 -2.035848 7.000000
21.100536 2.755462 -1.850505 243.000000
11.499439 -3.415024 -1.193112 214.000000
16.746939 -14.277981 -2.022186 7.000000
10.239140 1.298951 -0.895728 4.000000
11.515831 -3.465872 -1.191884 180.000000
16.699606 -14.343655 -2.003433 7.000000
26.242683 37.009060 -1.203878 1.000000
10.233788 1.260178 -0.896663 5.000000
11.532004 -3.516886 -1.190634 2.000000
16.629147 -14.389385 -1.985816 6.000000
26.315760 36.838909 -1.248768 28.000000
10.248289 1.222035 -0.899331 1.000000
11.552090 -3.571551 -1.189853 1.000000
16.678953 -14.539729 -1.978649 7.000000
26.449253 36.753860 -1.296463 11.000000
10.262441 1.185590 -0.902002 6.000000
11.567809 -3.622914 -1.188560 3.000000
16.660521 -14.631475 -1.963308 8.000000
23.478695 32.375023 -1.186946 8.000000
11.588053 -3.675947 -1.187732 1.000000
16.591967 -14.674170 -1.941774 7.000000
23.496347 32.162540 -1.230863 10.000000
11.561975 -3.709918 -1.182034 1.000000
16.647188 -14.832104 -1.934980 7.000000
23.642920 32.115395 -1.274170 10.000000
7.597580 0.761018 -0.670714 8.000000
11.618567 -3.779586 -1.182904 1.000000
16.586552 -14.887486 -1.914667 7.000000
23.858397 32.172256 -1.314713 10.000000
7.555582 0.728851 -0.668101 8.000000
11.642175 -3.836761 -1.182480 1.000000
9.194228 -8.313455 -1.051770 14.000000
20.481470 27.408052 -1.158955 8.000000
7.558086 0.701142 -0.669426 8.000000
11.656751 -3.888986 -1.181071 1.000000
9.090704 -8.280609 -1.032585 26.000000
20.474100 27.199667 -1.188851 8.000000
7.555644 0.672994 -0.668987 8.000000
11.652436 -3.935067 -1.175588 1.000000
9.042596 -8.297634 -1.019783 36.000000
20.518538 27.051777 -1.221267 8.000000
7.528168 0.642745 -0.667670 7.000000
11.694842 -3.997200 -1.176983 1.000000
9.005324 -8.324437 -1.010394 29.000000
20.639357 27.014694 -1.258486 9.000000
7.485788 0.610183 -0.665020 5.000000
11.765564 -4.069593 -1.176824 1.000000
8.976981 -8.356537 -0.997551 1.000000
20.728411 26.926109 -1.287585 8.000000
7.522732 0.585447 -0.668107 3.000000
17.642590 -6.174890 -1.763621 8.000000
7.543522 -7.073935 -0.833869 1.000000
20.879379 26.946659 -1.327449 8.000000
7.479816 0.557159 -0.665447 1.000000
17.433794 -6.170206 -1.738379 8.000000
16.367615 -15.451049 -1.795178 6.000000
7.481992 0.527129 -0.665447 1.000000
17.217600 -6.171574 -1.709617 9.000000
16.277924 -15.490424 -1.768468 7.000000
23.105934 29.362406 -1.533335 24.000000
7.479021 0.499378 -0.663697 1.000000
17.036846 -6.177344 -1.681144 8.000000
7.492229 -7.182280 -0.805891 12.000000
23.243423 29.315390 -1.574564 9.000000
7.490592 0.471268 -0.667199 1.000000
16.869738 -6.186805 -1.660555 9.000000
7.424575 -7.167325 -0.792241 22.000000
23.226292 29.084661 -1.599056 8.000000
7.437466 0.440564 -0.663629 1.000000
16.686529 -6.182469 -1.635134 6.000000
7.223608 -7.024652 -0.764695 24.000000
15.340472 19.066067 -1.076999 5.000000
7.473839 0.415236 -0.666734 1.000000
7.646737 -2.865084 -0.747463 1.000000
7.255276 -7.107372 -0.761886 14.000000
15.522291 19.168434 -1.107098 5.000000
7.415377 0.387326 -0.662707 4.000000
7.649770 -2.899765 -0.747402 1.000000
7.175145 -7.075654 -0.750625 13.000000
15.623517 19.135859 -1.139073 7.000000
7.446719 0.358994 -0.665374 4.000000
7.527093 -2.887873 -0.729450 1.000000
7.145031 -7.100278 -0.737948 40.000000
15.752852 19.164192 -1.165559 7.000000
7.452901 0.333221 -0.665818 3.000000
7.522117 -2.914617 -0.729900 1.000000
7.136002 -7.138494 -0.730601 28.000000
15.857395 19.141075 -1.193936 7.000000
7.459271 0.303507 -0.664960 3.000000
7.146453 -7.206576 -0.723944 12.000000
15.981035 19.147034 -1.224132 7.000000
7.385451 0.273394 -0.660886 3.000000
7.036456 -7.147862 -0.706653 4.000000
16.123926 19.195328 -1.252382 6.000000
7.446045 0.250914 -0.666230 4.000000
7.339648 -7.508097 -0.730522 30.000000
16.225574 19.173206 -1.281180 7.000000
7.441976 0.222173 -0.665784 3.000000
7.239657 -7.460317 -0.712348 142.000000
16.346582 19.180023 -1.311901 7.000000
7.467515 0.195544 -0.669315 4.000000
7.070793 -7.339945 -0.689440 29.000000
16.468061 19.179718 -1.338121 7.000000
7.433330 0.167388 -0.666191 4.000000
7.102872 -7.427539 -0.686209 38.000000
16.599463 19.183231 -1.369445 6.000000
7.468796 0.138192 -0.669315 3.000000
6.826591 -7.188700 -0.651510 32.000000
16.796486 19.281328 -1.407274 7.000000
7.469233 0.112120 -0.669315 1.000000
6.951139 -2.964912 -0.650525 1.000000
6.837186 -7.247838 -0.649572 27.000000
16.839828 19.175123 -1.431252 7.000000
7.474573 0.084800 -0.669761 3.000000
6.881060 -2.964876 -0.641028 1.000000
6.876685 -7.348585 -0.645539 39.000000
16.995018 19.229654 -1.461767 6.000000
7.454914 0.057251 -0.667976 2.000000
6.815637 -2.966353 -0.632021 1.000000
6.842467 -7.360795 -0.635809 98.000000
17.107508 19.214544 -1.492405 7.000000
7.415234 0.029767 -0.664406 3.000000
6.902649 -7.482949 -0.631579 43.000000
17.296919 19.284502 -1.525437 7.000000
7.475054 0.002609 -0.669761 1.000000
6.982688 -7.620267 -0.632158 13.000000
17.430094 19.310583 -1.554605 6.000000
7.430085 -0.022046 -0.667042 5.000000
17.580231 19.333975 -1.589129 7.000000
7.474647 -0.050879 -0.672370 4.000000
17.774755 19.404539 -1.623323 6.000000
7.429595 -0.077805 -0.668339 2.000000
17.824301 19.322775 -1.649314 7.000000
7.484032 -0.105810 -0.673266 6.000000
6.879011 -7.723546 -0.596363 80.000000
17.982330 19.351292 -1.680508 7.000000
7.458699 -0.132796 -0.671026 4.000000
6.845803 -7.740495 -0.584967 36.000000
18.103073 19.338598 -1.713010 7.000000
6.482543 2.718356 -0.600163 1.000000
7.478076 -0.160561 -0.672818 7.000000
6.772277 -7.719584 -0.570540 136.000000
18.275318 19.386515 -1.750914 6.000000
7.472427 -0.189147 -0.672370 4.000000
6.393461 -3.034471 -0.570648 35.000000
6.705667 -7.692269 -0.558029 44.000000
18.430862 19.408504 -1.787140 6.000000
7.516560 -0.215208 -0.676402 8.000000
6.333300 -3.034409 -0.560099 25.000000
6.677745 -7.717161 -0.549123 7.000000
18.593897 19.437016 -1.819608 7.000000
7.520612 -0.245542 -0.676850 6.000000
6.313424 -3.053388 -0.555632 28.000000
6.594481 -7.677626 -0.533958 7.000000
18.684748 19.395988 -1.845474 7.000000
7.544663 -0.274013 -0.677772 8.000000
6.289013 -3.070074 -0.550783 10.000000
18.823830 19.397570 -1.880617 7.000000
7.583125 -0.304570 -0.683998 9.000000
6.263398 -3.088766 -0.547168 8.000000
18.841345 19.273767 -1.898933 7.000000
7.572245 -0.331935 -0.680454 9.000000
6.231059 -3.098548 -0.541572 3.000000
17.892368 18.169308 -1.818931 7.000000
7.595737 -0.358206 -0.685344 9.000000
6.446746 -7.726650 -0.493918 32.000000
17.957844 18.108921 -1.845995 7.000000
7.619359 -0.387313 -0.686257 8.000000
6.393226 -7.719850 -0.481461 38.000000
17.983953 18.002796 -1.868672 8.000000
7.600990 2.932978 -0.731421 1.000000
7.697302 -0.422261 -0.693424 7.000000
6.424099 -7.818044 -0.475422 29.000000
18.080484 17.967236 -1.894213 10.000000
7.607692 2.900532 -0.735237 1.000000
6.430438 -7.884496 -0.467349 36.000000
18.145220 17.906115 -1.921281 8.000000
6.374840 -7.872272 -0.456445 122.000000
18.245136 17.873198 -1.947327 14.000000
7.627394 2.847215 -0.739500 1.000000
6.365016 -7.919313 -0.447156 36.000000
18.359331 17.853670 -1.974998 10.000000
7.511171 2.772507 -0.732878 1.000000
6.294000 -7.887180 -0.433511 33.000000
18.491539 17.850836 -2.004733 14.000000
7.526556 2.743906 -0.737529 1.000000
10.383003 -0.720587 -0.936212 1.000000
6.193990 -7.820477 -0.418128 82.000000
18.447613 17.684444 -2.024680 10.000000
7.503061 2.705707 -0.737104 1.000000
10.281091 -0.749584 -0.927253 1.000000
6.279397 -7.982556 -0.418576 59.000000
18.305220 17.419643 -2.024222 8.000000
7.521942 2.681402 -0.742206 1.000000
10.233747 -0.783850 -0.921430 5.000000
6.248641 -8.000773 -0.409511 56.000000
18.280703 17.269079 -2.036587 7.000000
7.596963 2.676804 -0.754307 1.000000
26.269491 -2.108979 -2.365942 39.000000
6.244020 -8.055548 -0.400450 33.000000
18.183943 17.063917 -2.041397 7.000000
26.177629 -2.198197 -2.353757 187.000000
6.353237 -8.255805 -0.398375 154.000000
18.035795 16.789251 -2.038832 7.000000
26.287245 -2.313706 -2.369072 204.000000
6.441022 -3.595341 -0.522287 1.000000
6.132312 -8.035254 -0.377708 67.000000
17.945860 16.583174 -2.043252 7.000000
12.219885 4.155229 -1.224620 6.000000
26.477379 -2.423609 -2.386955 206.000000
6.423771 -3.616655 -0.516787 1.000000
6.034858 -7.959282 -0.361024 24.000000
17.763704 16.300264 -2.037209 7.000000
12.173800 4.087477 -1.225204 5.000000
26.657122 -2.538618 -2.399271 141.000000
6.402031 -3.635382 -0.512233 1.000000
6.019495 -8.002659 -0.351441 255.000000
17.751499 16.169621 -2.058548 7.000000
12.150499 4.030160 -1.225874 5.000000
26.786821 -2.650074 -2.407066 10.000000
6.008022 -8.042789 -0.345309 24.000000
17.295717 15.638850 -2.019532 6.000000
12.141133 3.977718 -1.227950 5.000000
22.838417 -2.344007 -2.053020 6.000000
6.054700 -8.170522 -0.337354 164.000000
17.225307 15.460812 -2.029104 6.000000
12.116728 3.920604 -1.235238 1.000000
22.086084 -2.352524 -1.990096 1.000000
6.107685 -8.299416 -0.334636 72.000000
17.249130 15.379219 -2.046215 8.000000
12.102161 3.866947 -1.236776 1.000000
21.612347 -2.382207 -1.944357 3.000000
6.266058 -8.580321 -0.333896 33.000000
17.217196 15.232489 -2.055693 10.000000
12.116508 3.820320 -1.241211 1.000000
18.035639 -10.585678 -1.407351 1.000000
6.192221 -8.547934 -0.320644 100.000000
17.342648 15.230526 -2.084297 6.000000
12.115346 3.771190 -1.248611 1.000000
20.476822 -2.409097 -1.840112 6.000000
18.079136 -10.700491 -1.399064 8.000000
6.110063 -8.490538 -0.306806 35.000000
17.309406 15.099956 -2.090440 6.000000
12.095374 3.716402 -1.249601 1.000000
20.103167 -2.432751 -1.803687 8.000000
18.074175 -10.778646 -1.390371 9.000000
6.026805 -8.439919 -0.293307 29.000000
16.795929 14.533704 -2.044820 6.000000
12.089240 3.666079 -1.254250 1.000000
19.721870 -2.470472 -1.773886 1.000000
18.041620 -10.853360 -1.383681 9.000000
5.956972 -8.410219 -0.280677 26.000000
16.880154 14.508973 -2.072714 6.000000
12.092221 3.618640 -1.262074 1.000000
19.352417 -2.496269 -1.738034 5.000000
18.019150 -10.921385 -1.369955 10.000000
5.923410 -8.421910 -0.273217 35.000000
16.583700 14.148808 -2.045283 6.000000
12.062037 3.561491 -1.261987 1.000000
19.269379 -2.557394 -1.727987 34.000000
17.996843 -10.998259 -1.356528 10.000000
5.882691 -8.426371 -0.261925 30.000000
16.535313 14.003131 -2.052049 5.000000
12.056094 3.509465 -1.264373 1.000000
19.206209 -2.613851 -1.726500 37.000000
17.961262 -11.067135 -1.345803 10.000000
5.874691 -8.480968 -0.252140 35.000000
12.082795 3.469250 -1.270264 1.000000
19.157343 -2.678752 -1.719575 35.000000
17.967602 -11.162105 -1.341921 9.000000
5.853670 -8.513958 -0.243490 64.000000
12.080644 3.420755 -1.273139 1.000000
19.141319 -2.758306 -1.715757 10.000000
17.889807 -11.213554 -1.320963 10.000000
5.843824 -8.563515 -0.229839 22.000000
12.092241 3.376215 -1.281904 1.000000
15.303921 -2.257157 -1.369729 2.000000
17.895302 -11.299830 -1.313004 9.000000
6.157200 -9.094147 -0.235803 37.000000
12.085500 3.324363 -1.284248 1.000000
15.048291 -2.281213 -1.350336 6.000000
17.850376 -11.371944 -1.301922 9.000000
6.058637 -9.016203 -0.221852 19.000000
12.097170 3.279927 -1.288623 1.000000
14.828437 -2.303514 -1.328717 3.000000
17.786133 -11.418495 -1.285325 9.000000
6.051841 -9.081220 -0.209540 22.000000
12.079409 3.227631 -1.294284 1.000000
14.692236 -2.337537 -1.314654 1.000000
17.782621 -11.508496 -1.273269 9.000000
5.991448 -9.055526 -0.199009 26.000000
12.114985 3.189610 -1.299045 1.000000
14.246247 -2.317596 -1.278002 1.000000
17.761641 -11.578669 -1.263368 9.000000
5.778811 -8.800746 -0.181936 31.000000
12.073310 3.129116 -1.302080 1.000000
13.923445 -2.317497 -1.247315 1.000000
17.740593 -11.666693 -1.254035 9.000000
5.651097 -8.675383 -0.169877 35.000000
12.093894 3.087191 -1.307475 10.000000
13.723367 -2.335919 -1.230150 2.000000
17.694275 -11.729359 -1.238920 9.000000
12.113883 3.045045 -1.317238 15.000000
13.768903 -2.395630 -1.232552 1.000000
17.680576 -11.813785 -1.233536 9.000000
5.559367 -8.669585 -0.147405 9.000000
12.071423 2.987375 -1.315810 210.000000
13.357298 -2.376892 -1.198901 1.000000
9.890629 -6.653747 -0.683154 15.000000
5.789490 -9.098187 -0.144936 23.000000
12.130443 2.952598 -1.327609 1.000000
13.123283 -2.384905 -1.176327 1.000000
9.816792 -6.656468 -0.675580 9.000000
5.725741 -9.067736 -0.132899 20.000000
12.160071 2.912642 -1.334088 1.000000
12.972439 -2.406641 -1.163589 1.000000
9.788595 -6.689851 -0.667019 5.000000
5.655374 -9.029435 -0.122734 28.000000
12.170212 2.867946 -1.338453 1.000000
12.616269 -2.388430 -1.130161 4.000000
9.793075 -6.745705 -0.662759 3.000000
5.623896 -9.049242 -0.109717 23.000000
12.150899 2.816427 -1.341791 1.000000
12.480471 -2.410138 -1.116544 1.000000
9.785066 -6.793202 -0.655556 1.000000
5.600195 -9.081663 -0.100561 25.000000
12.097699 2.755192 -1.343501 1.000000
12.368502 -2.437815 -1.107357 1.000000
17.524343 -12.261563 -1.169567 6.000000
5.705174 -9.328260 -0.093516 15.000000
12.194339 2.730227 -1.359733 1.000000
12.163967 -2.443850 -1.092021 1.000000
17.520584 -12.354834 -1.161072 7.000000
5.633711 -9.284069 -0.083398 7.000000
4.779666 3.531606 -0.665547 2.000000
12.223216 2.689685 -1.366265 1.000000
12.130531 -2.483422 -1.089829 1.000000
17.498360 -12.430840 -1.147439 7.000000
5.184609 -8.615009 -0.066687 7.000000
4.756749 3.486516 -0.664656 1.000000
12.261665 2.648826 -1.378279 1.000000
12.004511 -2.503500 -1.077168 1.000000
17.416628 -12.469081 -1.133822 8.000000
5.108402 -8.555838 -0.055655 1.000000
4.724736 3.436503 -0.664615 1.000000
12.358094 2.622286 -1.394723 1.000000
11.829600 -2.512301 -1.062292 3.000000
17.427820 -12.573964 -1.130021 8.000000
12.210900 -20.614645 -0.108727 43.000000
4.744191 3.425396 -0.671874 1.000000
12.488772 2.602216 -1.412893 5.000000
11.844028 -2.562933 -1.066595 1.000000
17.374172 -12.632343 -1.114499 7.000000
12.160629 -20.702450 -0.088001 38.000000
12.584642 2.574101 -1.434010 5.000000
11.770956 -2.592320 -1.065103 1.000000
17.380274 -12.734417 -1.114106 6.000000
12.048041 -20.675699 -0.071002 96.000000
12.641917 2.535284 -1.450810 5.000000
11.727175 -2.627782 -1.064120 1.000000
17.345692 -12.807049 -1.111118 8.000000
12.000844 -20.760962 -0.050224 95.000000
12.678382 2.542597 -1.477854 5.000000
11.729560 -2.630467 -1.087641 1.000000
17.332375 -12.797216 -1.140429 7.000000
12.576056 2.572345 -1.467066 5.000000
11.752966 -2.590509 -1.097395 6.000000
17.379995 -12.738876 -1.163260 7.000000
11.978930 -20.565346 -0.108001 101.000000
12.449327 2.593998 -1.457879 5.000000
11.766941 -2.546252 -1.106255 2.000000
17.385201 -12.645000 -1.183077 7.000000
12.117447 -20.628933 -0.141973 33.000000
12.380755 2.631611 -1.448837 1.000000
11.824326 -2.513338 -1.117159 1.000000
17.410175 -12.565856 -1.204189 6.000000
5.695975 -9.619867 -0.080002 1.000000
4.899623 3.607037 -0.706114 1.000000
12.308374 2.661165 -1.441445 1.000000
11.891172 -2.482029 -1.131161 1.000000
17.444780 -12.498449 -1.226102 6.000000
5.696146 -9.544008 -0.095056 1.000000
12.216063 2.688111 -1.431778 1.000000
12.011777 -2.461294 -1.148244 1.000000
17.448736 -12.404755 -1.245670 7.000000
12.157652 2.722013 -1.426092 1.000000
12.054683 -2.424083 -1.153654 1.000000
17.537874 -12.371609 -1.271341 7.000000
5.575849 -9.195950 -0.120132 11.000000
12.122651 2.763100 -1.425419 1.000000
12.218569 -2.410478 -1.181642 1.000000
17.538967 -12.280917 -1.290807 7.000000
5.583357 -9.132664 -0.132651 29.000000
12.112926 2.807626 -1.421079 6.000000
12.300423 -2.379822 -1.190913 1.000000
9.762830 -6.782816 -0.727088 1.000000
5.609868 -9.104461 -0.145593 25.000000
12.112226 2.854282 -1.422214 1.000000
12.386896 -2.349486 -1.202885 1.000000
9.762340 -6.729559 -0.737674 6.000000
5.630981 -9.067700 -0.156498 27.000000
12.072673 2.893936 -1.414474 1.000000
12.639880 -2.347227 -1.233360 2.000000
9.752397 -6.672606 -0.743440 9.000000
5.646564 -9.022368 -0.170920 28.000000
12.071878 2.940575 -1.413438 1.000000
12.971368 -2.359636 -1.267176 1.000000
9.784393 -6.641980 -0.756452 9.000000
5.703505 -9.039507 -0.182835 9.000000
11.998326 2.969286 -1.406091 85.000000
13.248758 -2.359963 -1.300532 1.000000
9.820648 -6.614140 -0.765676 13.000000
5.804641 -9.129032 -0.198276 25.000000
12.035493 3.027573 -1.407410 1.000000
13.487297 -2.351485 -1.327917 1.000000
9.856822 -6.586118 -0.774920 3.000000
5.601697 -8.742311 -0.202990 36.000000
12.043570 3.076584 -1.409664 1.000000
13.726164 -2.341325 -1.353034 1.000000
17.729105 -11.756901 -1.412959 9.000000
12.003833 3.113345 -1.401955 1.000000
14.009305 -2.336814 -1.382593 1.000000
17.767080 -11.688555 -1.427476 10.000000
5.516591 -8.475362 -0.220658 35.000000
12.016838 3.163769 -1.400426 1.000000
14.218830 -2.315684 -1.409998 1.000000
17.871204 -11.663429 -1.454847 9.000000
5.567922 -8.489261 -0.233934 34.000000
12.019002 3.213737 -1.402105 1.000000
14.398239 -2.290762 -1.437223 3.000000
17.904602 -11.591874 -1.469058 9.000000
5.572556 -8.431996 -0.245245 29.000000
12.026794 3.263100 -1.399995 1.000000
14.794720 -2.298276 -1.478588 2.000000
5.608819 -8.419618 -0.256082 34.000000
11.986479 3.299376 -1.392306 1.000000
14.901178 -2.258912 -1.491046 4.000000
5.732733 -8.540863 -0.271156 10.000000
11.964152 3.342702 -1.391194 1.000000
15.214272 -2.249362 -1.524250 5.000000
5.821092 -8.607422 -0.288432 17.000000
11.971410 3.392081 -1.389076 1.000000
19.186989 -2.761469 -1.924599 7.000000
5.829907 -8.552736 -0.298161 23.000000
4.821739 4.080459 -0.650528 4.000000
11.983244 3.442931 -1.387498 1.000000
19.117147 -2.679935 -1.926803 98.000000
5.907645 -8.602108 -0.311537 41.000000
4.954804 4.224330 -0.664823 8.000000
11.984856 3.490998 -1.389157 1.000000
19.160345 -2.614421 -1.940405 113.000000
5.897573 -8.523533 -0.323921 9.000000
12.014952 3.549869 -1.387574 1.000000
19.243439 -2.553951 -1.951281 65.000000
6.031483 -8.649145 -0.340585 7.000000
11.988042 3.589744 -1.381555 5.000000
19.311975 -2.487626 -1.960680 7.000000
6.026957 -8.578674 -0.349628 56.000000
15.274087 13.240164 -2.024737 4.000000
11.994288 3.639571 -1.379374 1.000000
19.656290 -2.458773 -1.998202 2.000000
6.152322 -3.670431 -0.548726 1.000000
6.081244 -8.588849 -0.361982 24.000000
15.395159 13.444256 -2.032893 6.000000
11.980225 3.685598 -1.379374 1.000000
19.901165 -2.415354 -2.032785 3.000000
6.183468 -8.668903 -0.379288 31.000000
15.384466 13.534626 -2.019961 6.000000
11.967094 3.729626 -1.374999 1.000000
20.354521 -2.394708 -2.078183 7.000000
6.111404 -8.504919 -0.384026 28.000000
15.514298 13.750047 -2.032652 6.000000
12.005711 3.789994 -1.378799 1.000000
6.019136 -8.312056 -0.390660 115.000000
15.599284 13.927786 -2.024669 6.000000
12.025795 3.844860 -1.373795 1.000000
22.685205 -2.496455 -2.322215 7.000000
5.947839 -8.153534 -0.391240 81.000000
15.552878 13.989136 -2.010547 6.000000
12.044044 3.901730 -1.377581 1.000000
22.594875 -2.402730 -2.316058 9.000000
6.101636 -8.300297 -0.413759 157.000000
15.655024 14.175206 -2.014938 6.000000
22.552837 -2.322653 -2.314944 30.000000
6.103554 -8.242462 -0.422693 28.000000
15.766073 14.381272 -2.017212 6.000000
22.620178 -2.241846 -2.328974 124.000000
6.287337 -8.428967 -0.444412 200.000000
15.852160 14.576807 -2.020529 6.000000
22.539463 -2.142514 -2.323752 135.000000
6.137624 -8.159707 -0.444008 64.000000
16.064421 14.870609 -2.034588 6.000000
22.734253 -2.084983 -2.347135 114.000000
6.108672 -8.068328 -0.450696 10.000000
16.164040 15.073212 -2.034736 6.000000
22.548512 -1.984636 -2.327192 7.000000
6.059144 -7.942254 -0.455373 33.000000
16.108984 15.127343 -2.014994 9.000000
22.421743 -1.886747 -2.317313 7.000000
6.098710 -7.936514 -0.466766 103.000000
16.221365 15.345147 -2.012497 9.000000
22.397959 -1.802097 -2.322083 7.000000
16.058119 15.302631 -1.979676 19.000000
22.617237 -1.736331 -2.348143 7.000000
6.366645 -8.163609 -0.504521 37.000000
16.118139 15.472949 -1.974402 7.000000
6.275860 -7.986663 -0.505666 27.000000
16.223680 15.688930 -1.974513 6.000000
6.272323 -7.925061 -0.515529 27.000000
16.616390 16.181320 -2.004699 6.000000
6.014686 -3.127045 -0.594278 1.000000
6.319666 -7.925015 -0.527672 33.000000
16.529764 16.215424 -1.981048 6.000000
7.511966 -0.434453 -0.781565 8.000000
5.977035 -3.079695 -0.594169 7.000000
6.365760 -7.925903 -0.538103 40.000000
16.751402 16.553762 -1.994168 7.000000
7.394588 2.803035 -0.815820 1.000000
7.473715 -0.403454 -0.778739 9.000000
5.988004 -3.057626 -0.597690 9.000000
6.372424 -7.874907 -0.546861 25.000000
16.903467 16.826935 -2.002829 7.000000
7.325721 2.816483 -0.808294 1.000000
7.464938 -0.375545 -0.780313 10.000000
6.028741 -3.053265 -0.606686 17.000000
6.424741 -7.883127 -0.559668 27.000000
16.955498 17.002913 -1.995264 7.000000
7.311106 2.841665 -0.803674 1.000000
7.426389 -0.346323 -0.777458 19.000000
6.052959 -3.037706 -0.611574 21.000000
6.472160 -7.882141 -0.573777 230.000000
17.027487 17.194729 -1.981020 7.000000
7.393100 -0.317619 -0.771234 11.000000
6.081503 -3.024178 -0.618114 16.000000
17.195896 17.492563 -1.990821 7.000000
7.384057 -0.288830 -0.772777 13.000000
6.136920 -3.023731 -0.626228 8.000000
6.620272 -7.945898 -0.603584 255.000000
17.310642 17.738874 -1.985495 7.000000
7.365187 -0.261059 -0.770697 39.000000
17.204721 17.753897 -1.958730 9.000000
7.350966 -0.236151 -0.770421 39.000000
6.769642 -8.007955 -0.632164 26.000000
17.199463 17.879131 -1.943795 9.000000
7.327037 -0.204663 -0.767816 32.000000
7.473274 -8.777964 -0.707123 40.000000
17.111115 17.918276 -1.915117 10.000000
7.317795 -0.177565 -0.766774 30.000000
7.355205 -8.569350 -0.704562 35.000000
16.943346 17.873295 -1.886363 17.000000
6.364779 2.680737 -0.683252 1.000000
7.318129 -0.150737 -0.769329 37.000000
6.758512 -7.824289 -0.657728 22.000000
16.841188 17.890194 -1.856053 10.000000
6.501647 2.766484 -0.696538 1.000000
7.318632 -0.123914 -0.769329 35.000000
6.701603 -7.701165 -0.658384 33.000000
16.776606 17.952976 -1.834610 9.000000
6.500940 2.794368 -0.693814 1.000000
7.309110 -0.095681 -0.768284 35.000000
6.670199 -7.608583 -0.661422 31.000000
16.677349 17.965822 -1.808752 7.000000
7.299442 -0.071346 -0.767239 36.000000
7.071025 -3.229907 -0.751269 1.000000
6.755611 -7.651962 -0.679763 33.000000
16.653440 18.078791 -1.787796 7.000000
7.294698 -0.042015 -0.766716 32.000000
7.029274 -3.176793 -0.748190 1.000000
6.858763 -7.706227 -0.697877 6.000000
16.796980 18.369268 -1.784219 7.000000
7.279747 -0.016517 -0.766419 36.000000
17.417761 19.175459 -1.834183 6.000000
7.279896 0.007623 -0.765148 32.000000
17.305208 19.199156 -1.802879 7.000000
7.269875 0.034259 -0.764103 38.000000
17.202559 19.213005 -1.776200 7.000000
7.274673 0.060946 -0.764626 35.000000
6.830092 -2.971226 -0.739508 1.000000
6.834649 -7.469172 -0.722165 34.000000
17.056692 19.177679 -1.749693 7.000000
7.274132 0.087605 -0.767165 33.000000
6.831441 -2.942083 -0.742415 1.000000
6.866836 -7.451950 -0.735257 27.000000
16.948116 19.190079 -1.713994 6.000000
7.269038 0.115460 -0.764103 31.000000
6.886966 -7.419045 -0.741601 24.000000
16.816158 19.181906 -1.685388 7.000000
7.268566 0.142102 -0.764103 26.000000
6.838354 -2.885821 -0.748698 1.000000
6.848869 -7.323984 -0.745161 31.000000
16.720716 19.228205 -1.652280 6.000000
7.267996 0.168741 -0.764103 36.000000
6.817626 -2.844887 -0.746475 1.000000
6.884199 -7.310445 -0.755036 25.000000
16.533930 19.134478 -1.617594 7.000000
7.272266 0.196782 -0.764626 19.000000
6.905063 -2.853114 -0.761541 1.000000
7.037259 -7.418316 -0.781400 100.000000
16.445288 19.173496 -1.589228 6.000000
7.261765 0.220598 -0.762312 25.000000
6.954711 -7.282777 -0.776620 45.000000
16.269115 19.116144 -1.552896 7.000000
7.265791 0.249918 -0.762834 30.000000
6.978599 -7.251838 -0.786775 164.000000
16.158112 19.127314 -1.522663 7.000000
7.269795 0.276736 -0.763356 36.000000
7.250977 -7.479815 -0.823534 8.000000
16.111483 19.200918 -1.502307 7.000000
7.268680 0.304648 -0.763356 45.000000
7.225605 -7.399184 -0.826649 14.000000
15.911170 19.097179 -1.463714 7.000000
7.267647 0.331293 -0.762086 38.000000
7.145845 -7.266590 -0.827149 24.000000
15.781435 19.083258 -1.436520 6.000000
7.276317 0.358417 -0.763128 30.000000
7.105185 -7.172467 -0.830037 32.000000
15.671147 19.098747 -1.402863 7.000000
7.270054 0.386097 -0.761337 36.000000
7.113415 -7.128330 -0.835019 27.000000
15.542263 19.070286 -1.375442 7.000000
7.273556 0.413022 -0.761857 35.000000
7.110716 -7.073582 -0.840467 31.000000
15.445094 19.086721 -1.346940 7.000000
7.281921 0.440279 -0.762897 37.000000
7.120662 -7.034194 -0.847532 28.000000
15.312973 19.079569 -1.316391 7.000000
7.275428 0.466656 -0.761104 34.000000
7.174106 -7.035222 -0.863183 1.000000
15.225792 19.093515 -1.288400 7.000000
7.278544 0.494925 -0.761623 37.000000
7.267117 -7.074370 -0.880165 16.000000
15.113153 19.095425 -1.259211 7.000000
7.266893 0.520897 -0.759313 73.000000
7.299717 -7.054182 -0.888117 1.000000
14.976115 19.058611 -1.232121 7.000000
7.274985 0.548286 -0.759077 90.000000
16.260118 -15.598343 -1.991127 6.000000
14.820956 19.004120 -1.199777 7.000000
5.210775 2.829220 -0.495813 1.000000
7.277884 0.575338 -0.759594 82.000000
7.964658 -2.854897 -0.913168 1.000000
16.352869 -15.578070 -2.015678 3.000000
14.706373 18.993544 -1.170644 7.000000
7.295578 0.604934 -0.760386 105.000000
7.927762 -2.808925 -0.912207 1.000000
16.368256 -15.478691 -2.038313 6.000000
14.597836 18.996796 -1.142393 7.000000
5.095448 2.812838 -0.479537 1.000000
7.313131 0.633386 -0.762452 36.000000
7.975234 -2.792887 -0.919469 1.000000
16.361858 -15.359436 -2.050239 8.000000
14.444420 18.933575 -1.106393 7.000000
