VERSION .7
FIELDS x y z intensity
SIZE 4 4 4 4
TYPE F F F F
COUNT 1 1 1 1
WIDTH 1236
HEIGHT 1
VIEWPOINT 0 0 0 1 0 0 0
POINTS 1236
DATA ascii
15.994823 19.068645 -1.674922 10.000000
5.450223 0.182707 -0.633860 27.000000
7.084007 -2.877957 -0.864426 1.000000
7.091541 -7.277129 -0.890762 71.000000
16.140852 19.093359 -1.708827 9.000000
5.455878 0.160974 -0.634438 31.000000
6.940036 -2.850562 -0.844209 1.000000
7.176188 -7.418193 -0.895728 18.000000
16.212700 19.043123 -1.735700 8.000000
5.446415 0.139766 -0.634234 30.000000
6.957485 -2.887577 -0.843620 1.000000
16.261713 18.959469 -1.759781 9.000000
5.456821 0.120021 -0.635390 27.000000
7.110341 -7.456163 -0.874220 113.000000
15.778615 18.260363 -1.729881 7.000000
5.447072 0.099834 -0.636136 31.000000
6.918504 -2.931032 -0.834837 1.000000
7.026194 -7.427394 -0.856750 30.000000
15.717102 18.074085 -1.737914 7.000000
5.452353 0.080893 -0.636716 27.000000
6.903414 -2.954529 -0.831664 1.000000
6.892840 -7.334997 -0.834606 28.000000
15.709743 17.932463 -1.754920 8.000000
5.452612 0.060909 -0.636716 29.000000
6.933993 -2.997734 -0.832662 1.000000
6.888187 -7.381509 -0.826513 19.000000
15.771020 17.876129 -1.779885 9.000000
5.462739 0.040045 -0.637875 27.000000
6.837769 -7.381534 -0.816633 33.000000
15.868307 17.854067 -1.808623 10.000000
5.457882 0.020004 -0.637295 33.000000
6.814712 -7.410944 -0.804738 23.000000
15.965836 17.831747 -1.833285 10.000000
5.472817 0.000000 -0.639035 27.000000
6.789179 -7.435100 -0.797709 6.000000
16.093895 17.861540 -1.866865 16.000000
5.482608 -0.018181 -0.641152 29.000000
6.822792 -7.527130 -0.792406 8.000000
16.198355 17.845509 -1.892542 9.000000
5.472677 -0.039162 -0.639035 30.000000
16.309168 17.835796 -1.927551 9.000000
5.482205 -0.059325 -0.642109 27.000000
6.842094 -7.652466 -0.782656 9.000000
16.228390 17.623531 -1.931762 8.000000
5.482175 -0.079422 -0.640195 28.000000
6.936906 -7.815972 -0.787601 10.000000
16.189587 17.452587 -1.948792 7.000000
5.476641 -0.100376 -0.641527 33.000000
16.020927 17.144312 -1.941529 7.000000
5.476236 -0.120448 -0.641527 29.000000
7.252511 -3.388067 -0.851235 1.000000
15.918787 16.916252 -1.946476 6.000000
5.485687 -0.140774 -0.642690 28.000000
7.213728 -3.402215 -0.841102 1.000000
6.441517 -7.417958 -0.709394 255.000000
15.787560 16.654072 -1.943122 6.000000
5.485106 -0.161836 -0.642690 25.000000
6.461582 -7.493744 -0.705801 8.000000
15.699137 16.439693 -1.948787 6.000000
5.494402 -0.182268 -0.643854 28.000000
6.379416 -7.453516 -0.689480 5.000000
15.737977 16.365608 -1.966466 6.000000
5.508698 -0.202958 -0.644636 26.000000
6.140821 -3.009686 -0.705505 1.000000
15.602337 16.105988 -1.965790 6.000000
5.507877 -0.224108 -0.644636 27.000000
7.037677 -8.342723 -0.744087 19.000000
15.499809 15.883245 -1.968945 6.000000
5.521904 -0.244954 -0.646379 24.000000
6.174841 -7.374559 -0.645595 38.000000
15.174271 15.446843 -1.940120 6.000000
5.536056 -0.263979 -0.647154 30.000000
6.337676 -7.622932 -0.654971 101.000000
15.141189 15.295242 -1.947301 8.000000
5.534901 -0.287166 -0.647154 28.000000
6.484791 -7.858294 -0.662431 36.000000
15.276565 15.319285 -1.980321 8.000000
5.553646 -0.308552 -0.649473 23.000000
5.989089 -3.072690 -0.674248 1.000000
6.508284 -7.943080 -0.658661 32.000000
15.285015 15.215811 -2.000747 9.000000
5.567463 -0.329793 -0.650239 23.000000
5.902884 -3.055844 -0.663456 8.000000
6.466964 -7.951925 -0.646648 34.000000
15.124367 14.951141 -1.991595 6.000000
5.585982 -0.352419 -0.652555 23.000000
5.878721 -3.070709 -0.658494 10.000000
6.440009 -7.981190 -0.634434 37.000000
15.138487 14.855789 -2.008679 6.000000
5.614401 -0.372908 -0.657012 15.000000
5.841421 -3.078529 -0.650920 35.000000
6.448113 -8.045683 -0.630631 38.000000
15.102441 14.712147 -2.015294 6.000000
5.642721 -0.395567 -0.660491 9.000000
5.821610 -3.095405 -0.646487 28.000000
6.540161 -8.222109 -0.631534 34.000000
14.825847 14.337170 -1.989524 6.000000
5.670846 -0.421417 -0.662978 9.000000
5.801851 -3.112229 -0.640915 15.000000
6.490172 -8.217984 -0.618469 45.000000
14.637145 14.056147 -1.982632 6.000000
5.718699 -0.444046 -0.670770 8.000000
5.825067 -3.153544 -0.642478 8.000000
6.466563 -8.250078 -0.608081 28.000000
14.640486 13.956572 -1.993963 6.000000
5.771434 -0.471456 -0.676148 8.000000
6.407455 -8.233704 -0.594261 28.000000
5.843804 -0.499963 -0.684846 7.000000
6.319571 -8.182471 -0.579836 55.000000
5.960958 -0.529904 -0.697719 6.000000
6.254883 -8.157416 -0.565712 148.000000
6.107258 -0.567628 -0.714019 4.000000
6.136209 -8.066603 -0.547131 23.000000
10.681591 3.588527 -1.359620 1.000000
19.358662 -1.860617 -2.270836 5.000000
6.609127 -8.812136 -0.571498 6.000000
10.651371 3.534982 -1.362064 1.000000
19.198910 -1.916306 -2.249492 6.000000
10.659471 3.492291 -1.367335 1.000000
19.043173 -1.971280 -2.235463 8.000000
6.101399 -8.257617 -0.512928 14.000000
10.600166 3.433979 -1.358260 1.000000
19.076128 -2.048753 -2.230057 7.000000
6.103889 -8.324655 -0.504862 9.000000
10.702552 3.419737 -1.379561 1.000000
18.930279 -2.103300 -2.213893 6.000000
10.634685 3.353103 -1.373094 1.000000
19.094749 -2.192453 -2.237453 9.000000
10.616862 3.308817 -1.373310 1.000000
19.042192 -2.260532 -2.228903 8.000000
6.458244 -9.007487 -0.505237 7.000000
10.652855 3.273176 -1.384155 1.000000
19.019373 -2.328547 -2.223826 8.000000
7.168828 -4.293855 -0.750199 1.000000
6.413857 -9.015174 -0.494671 21.000000
10.630850 3.223820 -1.385657 1.000000
19.168781 -2.418181 -2.238899 7.000000
7.319751 -4.420785 -0.761665 1.000000
10.617809 3.179437 -1.386432 1.000000
19.085091 -2.482108 -2.233626 9.000000
6.985327 -4.252156 -0.726968 1.000000
6.293995 -8.978747 -0.467240 31.000000
10.671747 3.153013 -1.395902 1.000000
19.105789 -2.556045 -2.233720 7.000000
6.987853 -4.287196 -0.723015 1.000000
6.292699 -9.047267 -0.458042 51.000000
10.635136 3.099859 -1.393545 6.000000
19.062233 -2.621370 -2.226332 9.000000
6.980993 -4.318285 -0.718163 1.000000
6.235847 -9.032628 -0.442763 29.000000
10.661393 3.059119 -1.403161 5.000000
6.169035 -9.006277 -0.430819 22.000000
10.657744 3.015838 -1.405145 3.000000
15.523268 -2.253533 -1.809382 2.000000
6.019830 -8.854586 -0.411325 40.000000
10.667779 2.976490 -1.412878 7.000000
15.234562 -2.268666 -1.779412 4.000000
5.762711 -8.540354 -0.386788 16.000000
10.687191 2.941736 -1.418012 16.000000
14.873711 -2.265372 -1.735471 5.000000
5.753902 -8.595077 -0.373847 30.000000
10.683064 2.898520 -1.419973 27.000000
14.707564 -2.297884 -1.719735 3.000000
5.685330 -8.557109 -0.362353 33.000000
4.288931 3.459496 -0.662913 1.000000
10.698443 2.856635 -1.428340 7.000000
14.448393 -2.316844 -1.687916 2.000000
5.603366 -8.497951 -0.348345 29.000000
4.316537 3.455725 -0.671092 1.000000
10.798977 2.843133 -1.444392 1.000000
14.205632 -2.326261 -1.657902 1.000000
5.638000 -8.619050 -0.343462 45.000000
4.313171 3.427165 -0.673490 1.000000
10.824215 2.803364 -1.450219 1.000000
13.970432 -2.347876 -1.631586 4.000000
5.501982 -8.475548 -0.324617 33.000000
4.301768 3.392458 -0.675587 1.000000
10.866095 2.775793 -1.462550 1.000000
13.742539 -2.356462 -1.603409 1.000000
5.502286 -8.541150 -0.317517 49.000000
4.344966 3.400770 -0.685298 5.000000
10.799246 2.714587 -1.456092 1.000000
13.410623 -2.350177 -1.568085 1.000000
5.565311 -8.708930 -0.312161 25.000000
4.325393 3.359958 -0.687060 7.000000
10.827382 2.679506 -1.466473 1.000000
13.089110 -2.345670 -1.526830 1.000000
6.227901 -4.234067 -0.603274 1.000000
5.816114 -9.171803 -0.314742 27.000000
4.301939 3.316529 -0.685251 18.000000
10.942842 2.665554 -1.482777 1.000000
12.845630 -2.350662 -1.501732 6.000000
6.192129 -4.243015 -0.596038 5.000000
4.293798 3.285232 -0.687784 33.000000
11.024294 2.640594 -1.500481 1.000000
12.621830 -2.357552 -1.478840 6.000000
6.041719 -9.680046 -0.310759 19.000000
4.301380 3.266109 -0.691867 1.000000
11.130274 2.618781 -1.521586 1.000000
12.408257 -2.367002 -1.450403 1.000000
9.703328 -6.711390 -0.932682 13.000000
6.008088 -9.701392 -0.296818 19.000000
11.182282 2.589857 -1.531529 1.000000
12.228596 -2.379213 -1.432615 1.000000
9.679197 -6.747280 -0.924445 8.000000
5.976938 -9.726782 -0.286986 10.000000
11.331044 2.580590 -1.556791 1.000000
12.025142 -2.385405 -1.407627 1.000000
9.724138 -6.831703 -0.924862 2.000000
11.470463 2.568156 -1.578819 1.000000
11.982716 -2.422669 -1.399367 1.000000
9.793136 -6.933926 -0.925408 1.000000
5.188463 -8.580686 -0.229304 6.000000
11.503085 2.529117 -1.592426 1.000000
11.890140 -2.451510 -1.393938 1.000000
17.498419 -12.486111 -1.654062 7.000000
5.137989 -8.564587 -0.221417 6.000000
11.952444 2.582026 -1.657658 1.000000
11.861867 -2.491040 -1.389541 1.000000
17.504473 -12.582872 -1.639853 7.000000
12.097097 -20.333391 -0.495602 33.000000
12.048497 2.556592 -1.674047 1.000000
11.764780 -2.517855 -1.379291 1.000000
17.483387 -12.665164 -1.627057 8.000000
12.028804 -20.380165 -0.475055 32.000000
11.682435 -2.545047 -1.372835 1.000000
17.437534 -12.729659 -1.615753 7.000000
11.912368 -20.344795 -0.448561 30.000000
11.697276 -2.593224 -1.375687 1.000000
17.386972 -12.790698 -1.611613 6.000000
11.883095 -20.466471 -0.429621 25.000000
11.618930 -2.622701 -1.371860 3.000000
17.352667 -12.863749 -1.601420 8.000000
11.794333 -20.477879 -0.404239 32.000000
11.659698 -2.631903 -1.402046 1.000000
17.336136 -12.856182 -1.637983 7.000000
11.761642 -20.421120 -0.431919 26.000000
14.675228 2.999048 -2.099765 6.000000
11.707571 -2.597650 -1.410892 1.000000
17.377499 -12.788404 -1.663965 8.000000
4.864544 -8.378293 -0.191096 1.000000
14.567184 3.032631 -2.085882 4.000000
11.706346 -2.552396 -1.418089 1.000000
17.448792 -12.747216 -1.689287 7.000000
11.883064 -20.302876 -0.496881 32.000000
12.022157 2.551003 -1.722848 1.000000
11.700330 -2.506197 -1.422591 1.000000
17.477812 -12.670430 -1.710335 8.000000
11.989107 -20.321011 -0.527185 33.000000
11.848168 2.559500 -1.699248 1.000000
11.820142 -2.484432 -1.448817 1.000000
17.490305 -12.581949 -1.729739 8.000000
5.145740 -8.652647 -0.240761 8.000000
11.513968 2.533617 -1.654798 1.000000
11.916434 -2.459100 -1.461659 1.000000
17.488020 -12.487905 -1.747842 6.000000
5.150057 -8.591501 -0.251804 9.000000
11.456286 2.564982 -1.647848 1.000000
11.953555 -2.421117 -1.473752 1.000000
9.725498 -6.891135 -0.984145 12.000000
5.143642 -8.513270 -0.263933 1.000000
11.354627 2.588046 -1.634643 1.000000
12.102772 -2.405195 -1.497608 1.000000
6.032550 -4.214629 -0.619245 5.000000
4.317078 3.297075 -0.722869 1.000000
11.297382 2.618593 -1.623645 1.000000
12.208841 -2.377581 -1.513999 1.000000
6.087718 -4.221627 -0.629903 4.000000
12.427876 -20.232861 -0.692289 36.000000
4.254394 3.273960 -0.709610 55.000000
11.114285 2.621162 -1.594701 1.000000
12.456098 -2.378381 -1.545815 5.000000
6.139724 -4.224450 -0.638919 1.000000
6.122338 -9.893588 -0.351407 12.000000
4.242756 3.289833 -0.705862 192.000000
10.969501 2.629495 -1.577307 1.000000
12.600526 -2.358124 -1.569468 5.000000
6.162837 -4.207156 -0.647587 1.000000
6.146785 -9.848383 -0.366862 5.000000
4.250785 3.321078 -0.703473 168.000000
10.912210 2.658092 -1.566462 1.000000
12.881900 -2.361947 -1.608066 4.000000
6.066491 -4.108868 -0.641030 1.000000
4.249977 3.346805 -0.702580 182.000000
10.908202 2.697487 -1.563231 1.000000
13.207533 -2.369271 -1.654700 2.000000
5.866535 -9.262035 -0.373280 6.000000
4.245834 3.368828 -0.700084 172.000000
10.902089 2.742461 -1.563920 1.000000
13.382018 -2.349979 -1.677877 2.000000
4.241681 3.390941 -0.696627 143.000000
10.896276 2.785529 -1.564609 1.000000
13.756149 -2.363739 -1.733583 2.000000
5.529577 -8.586806 -0.372716 29.000000
4.241095 3.416026 -0.695684 153.000000
10.843378 2.814386 -1.554498 1.000000
14.238438 -2.392917 -1.800921 1.000000
5.610641 -8.652849 -0.388963 51.000000
4.248274 3.447556 -0.694078 134.000000
10.742023 2.832149 -1.537563 1.000000
14.330441 -2.351836 -1.813977 5.000000
5.656944 -8.657903 -0.402729 34.000000
4.239918 3.466627 -0.689928 124.000000
10.674672 2.856276 -1.525480 140.000000
14.612983 -2.343237 -1.851265 3.000000
5.673379 -8.610670 -0.414160 14.000000
4.239042 3.491912 -0.687968 110.000000
10.654572 2.892786 -1.524112 158.000000
14.826693 -2.321798 -1.882569 3.000000
5.723922 -8.618459 -0.430011 27.000000
4.241948 3.520483 -0.685644 83.000000
10.658223 2.937765 -1.522304 148.000000
15.060104 -2.299140 -1.919174 6.000000
5.792410 -8.662408 -0.442219 54.000000
4.237087 3.542755 -0.682059 100.000000
10.634109 2.969097 -1.520258 106.000000
15.077127 -2.250602 -1.923084 1.000000
5.855800 -8.691394 -0.457567 10.000000
4.263645 3.589051 -0.684296 119.000000
10.623396 3.010124 -1.514477 165.000000
15.413836 -2.243141 -1.967732 6.000000
6.170767 -9.086829 -0.491098 40.000000
10.627083 3.053290 -1.512656 206.000000
6.159750 -9.002827 -0.502979 30.000000
10.615247 3.096072 -1.508796 106.000000
16.875044 -2.320596 -2.157918 6.000000
7.013979 -4.345463 -0.803202 1.000000
6.241859 -9.054851 -0.518642 33.000000
10.623378 3.138722 -1.511500 1.000000
16.861860 -2.261835 -2.164312 6.000000
7.012421 -4.309011 -0.807011 1.000000
6.300284 -9.068297 -0.534253 31.000000
10.682637 3.202913 -1.515801 1.000000
16.806870 -2.182831 -2.159067 6.000000
6.985196 -4.257092 -0.807842 1.000000
5.827509 -8.319455 -0.505666 27.000000
10.695034 3.249400 -1.515266 1.000000
16.656918 -2.101305 -2.141778 6.000000
7.059135 -4.268431 -0.820481 1.000000
10.693604 3.289782 -1.512704 1.000000
16.688393 -2.046120 -2.147876 6.000000
7.197722 -4.316284 -0.843621 1.000000
10.718909 3.344726 -1.512184 1.000000
16.660879 -1.974894 -2.152226 6.000000
7.174633 -4.266762 -0.843492 1.000000
6.545763 -9.136287 -0.596888 34.000000
10.683542 3.374659 -1.508848 1.000000
16.548725 -1.905972 -2.139865 6.000000
10.667383 3.412604 -1.500362 1.000000
16.610138 -1.848449 -2.146873 6.000000
10.677417 3.463123 -1.501722 1.000000
6.189974 -8.448242 -0.592879 251.000000
10.707527 3.516315 -1.503755 1.000000
6.554018 -8.879915 -0.636370 35.000000
4.288445 3.954492 -0.654323 8.000000
10.610039 3.529490 -1.485997 1.000000
6.639737 -8.927387 -0.653202 29.000000
4.297576 3.989363 -0.652550 28.000000
5.648104 -3.163090 -0.688390 2.000000
6.646399 -8.877962 -0.662765 26.000000
4.302191 4.021697 -0.650176 29.000000
7.784739 2.650141 -1.087021 1.000000
5.734435 -0.506741 -0.746654 10.000000
5.624570 -3.122885 -0.687528 9.000000
6.678473 -8.852983 -0.674378 9.000000
4.298771 4.048125 -0.645639 38.000000
7.713762 2.659073 -1.077079 1.000000
5.706480 -0.483199 -0.743795 11.000000
5.639699 -3.104298 -0.694802 10.000000
6.953316 -9.150703 -0.715010 206.000000
4.392502 4.166872 -0.656659 4.000000
7.587825 2.646816 -1.053707 1.000000
5.673617 -0.459478 -0.739287 19.000000
5.650826 -3.083490 -0.697049 31.000000
6.287191 -8.214387 -0.654435 96.000000
5.670009 -0.437279 -0.741620 30.000000
5.679040 -3.071926 -0.704837 32.000000
6.173616 -8.005037 -0.650184 27.000000
5.647108 -0.414698 -0.736411 20.000000
5.698586 -3.055555 -0.710436 30.000000
6.243951 -8.038059 -0.665335 25.000000
13.332187 12.825369 -1.977043 3.000000
5.628489 -0.391608 -0.736786 30.000000
5.753303 -3.057798 -0.719308 9.000000
6.035709 -7.705931 -0.651855 153.000000
13.407726 12.992990 -1.978816 2.000000
5.609842 -0.369655 -0.736159 21.000000
5.908131 -7.494428 -0.645570 41.000000
13.475354 13.154640 -1.975960 2.000000
5.601390 -0.348484 -0.733881 22.000000
5.912047 -7.445790 -0.654823 126.000000
13.568646 13.338528 -1.983026 4.000000
5.577685 -0.325514 -0.732590 32.000000
5.963794 -7.454691 -0.667569 80.000000
13.605706 13.473372 -1.978756 6.000000
5.568813 -0.304521 -0.732263 18.000000
6.374152 -7.910868 -0.722882 38.000000
13.687987 13.654583 -1.977527 6.000000
5.569637 -0.284095 -0.734210 24.000000
6.179460 -7.611964 -0.707954 36.000000
13.716498 13.783694 -1.968358 6.000000
12.650743 4.894204 -1.735241 19.000000
5.555831 -0.262006 -0.732252 26.000000
6.151861 -7.524140 -0.712010 26.000000
13.812879 13.977793 -1.971855 6.000000
12.559658 4.911964 -1.718029 14.000000
5.541769 -0.240990 -0.731262 25.000000
6.121197 -7.425605 -0.716826 31.000000
13.818742 14.086621 -1.959179 6.000000
12.560856 4.965588 -1.713484 1.000000
5.527793 -0.219120 -0.729302 26.000000
6.191763 -7.463314 -0.732553 10.000000
13.910301 14.284309 -1.965513 6.000000
12.700024 5.074505 -1.727719 1.000000
5.523606 -0.198680 -0.728648 31.000000
6.320891 -7.562384 -0.754927 10.000000
14.039371 14.522968 -1.966343 6.000000
5.519469 -0.178278 -0.727031 29.000000
14.093409 14.681075 -1.959566 6.000000
5.514904 -0.156935 -0.728304 27.000000
6.149418 -2.955551 -0.803910 1.000000
14.171163 14.870789 -1.959852 6.000000
5.505531 -0.136475 -0.726995 27.000000
6.402709 -7.496610 -0.786285 180.000000
14.220592 15.032598 -1.952430 9.000000
5.505974 -0.117257 -0.726995 32.000000
6.494614 -7.548020 -0.804663 76.000000
14.302358 15.225138 -1.948873 10.000000
5.496455 -0.096901 -0.725687 26.000000
6.547792 -7.553649 -0.818354 89.000000
14.281568 15.315106 -1.935244 17.000000
5.492095 -0.074772 -0.723115 31.000000
6.632007 -7.591707 -0.834086 50.000000
14.219945 15.361522 -1.912404 7.000000
5.492070 -0.055598 -0.725032 27.000000
6.679500 -7.595091 -0.849330 7.000000
14.454035 15.724153 -1.928705 6.000000
5.492249 -0.033551 -0.725032 30.000000
6.899678 -7.784967 -0.884491 15.000000
14.514923 15.907018 -1.925653 6.000000
5.472379 -0.014327 -0.723370 31.000000
6.858609 -7.687122 -0.885009 17.000000
14.660791 16.174273 -1.929069 6.000000
5.477732 0.003824 -0.721157 30.000000
7.006808 -7.800993 -0.908164 21.000000
14.809777 16.465254 -1.933607 6.000000
5.472724 0.023879 -0.720505 29.000000
14.872377 16.645540 -1.929350 6.000000
5.467383 0.044850 -0.721761 31.000000
6.819527 -7.484059 -0.900076 28.000000
14.941522 16.846800 -1.922562 6.000000
5.472138 0.064948 -0.722415 33.000000
7.206796 -3.136596 -0.974808 1.000000
6.728405 -7.329914 -0.895001 24.000000
14.900412 16.919050 -1.901081 6.000000
5.471863 0.085004 -0.722415 31.000000
6.756691 -7.309347 -0.905873 31.000000
15.072444 17.241386 -1.906929 6.000000
5.471497 0.106013 -0.722415 27.000000
6.967360 -2.948862 -0.949064 1.000000
6.839637 -7.339747 -0.923630 23.000000
15.241509 17.545715 -1.914862 8.000000
5.471072 0.126067 -0.722415 34.000000
6.894295 -2.891018 -0.941776 1.000000
6.859978 -7.312805 -0.931922 42.000000
15.191416 17.618067 -1.892145 10.000000
5.470547 0.147073 -0.722415 35.000000
6.895225 -2.861737 -0.944436 1.000000
6.888207 -7.291719 -0.942889 23.000000
15.144315 17.706667 -1.874650 17.000000
5.470097 0.167127 -0.721460 36.000000
7.058320 -7.417149 -0.973265 20.000000
15.128818 17.801466 -1.850921 12.000000
5.469448 0.187174 -0.721460 16.000000
6.957098 -2.826399 -0.956637 1.000000
7.022870 -7.325941 -0.973605 31.000000
15.003438 17.785631 -1.823113 10.000000
5.473642 0.208363 -0.722113 34.000000
6.943626 -2.791320 -0.960009 1.000000
6.995723 -7.246814 -0.978749 29.000000
14.929878 17.824303 -1.793146 9.000000
5.467889 0.228216 -0.721460 32.000000
6.990519 -2.780452 -0.966411 1.000000
7.143183 -7.345496 -1.002828 45.000000
14.868828 17.884171 -1.769176 9.000000
5.472051 0.249441 -0.721157 32.000000
7.032976 -2.766110 -0.974828 6.000000
7.169318 -7.318511 -1.013557 211.000000
14.715744 17.838934 -1.730684 11.000000
5.471100 0.269496 -0.721157 37.000000
7.079559 -2.754513 -0.983923 8.000000
7.125453 -7.220600 -1.014335 9.000000
14.707885 17.963127 -1.721194 8.000000
5.470201 0.289553 -0.720201 39.000000
6.976860 -7.015935 -1.001551 7.000000
14.737446 18.127958 -1.707450 6.000000
5.464099 0.310274 -0.719549 28.000000
7.232801 -2.753263 -1.012004 8.000000
6.841107 -6.833947 -0.987330 255.000000
14.791343 18.318024 -1.691806 7.000000
5.467999 0.330606 -0.719245 36.000000
7.278360 -2.744458 -1.018548 9.000000
6.784389 -6.727788 -0.982320 132.000000
15.158568 18.914221 -1.720466 9.000000
5.466439 0.351583 -0.721157 30.000000
7.326808 -2.740839 -1.028486 10.000000
6.785711 -6.682282 -0.990888 23.000000
15.050272 18.914009 -1.685981 7.000000
5.465489 0.371641 -0.718289 28.000000
7.389251 -2.743635 -1.036308 9.000000
6.709970 -6.559427 -0.984588 9.000000
14.938859 18.909092 -1.655527 7.000000
5.479061 0.390822 -0.720239 38.000000
7.437933 -2.739575 -1.044940 10.000000
6.693974 -6.495980 -0.988617 9.000000
14.852221 18.941740 -1.624065 7.000000
5.477645 0.411866 -0.719280 29.000000
7.489327 -2.727373 -1.054995 10.000000
6.706497 -6.460573 -0.993538 13.000000
14.701238 18.884571 -1.589579 7.000000
5.485832 0.434635 -0.720579 32.000000
7.569355 -2.723643 -1.067645 18.000000
6.729502 -6.435348 -1.001664 12.000000
14.587177 18.880411 -1.559625 7.000000
5.464564 0.453110 -0.717025 35.000000
7.648802 -2.720608 -1.081763 13.000000
6.771169 -6.425599 -1.017372 12.000000
14.519133 18.928541 -1.534318 7.000000
5.463074 0.472193 -0.716068 40.000000
7.704941 -2.708804 -1.092644 17.000000
6.820722 -6.429772 -1.029887 12.000000
14.347749 18.854584 -1.494782 6.000000
5.471010 0.495013 -0.717363 51.000000
7.781040 -2.698990 -1.107676 22.000000
6.867599 -6.422090 -1.041369 10.000000
14.267873 18.879204 -1.472243 7.000000
5.479246 0.515047 -0.717697 61.000000
7.846010 -2.692411 -1.117121 15.000000
6.902886 -6.412313 -1.050148 19.000000
14.173004 18.890398 -1.440287 7.000000
5.487315 0.536102 -0.718028 79.000000
7.939923 -2.692150 -1.132060 10.000000
6.962193 -6.420028 -1.063952 10.000000
14.036010 18.851343 -1.408675 8.000000
5.490496 0.556736 -0.716747 55.000000
8.010715 -2.681903 -1.145181 10.000000
7.006977 -6.413966 -1.075591 10.000000
13.926487 18.841190 -1.379653 10.000000
5.502986 0.579358 -0.719645 67.000000
8.085967 -2.674178 -1.157557 11.000000
7.054218 -6.412096 -1.089512 10.000000
13.828660 18.853012 -1.352230 8.000000
5.530314 0.604691 -0.722543 40.000000
8.189515 -2.675164 -1.174032 15.000000
7.116083 -6.416351 -1.103552 16.000000
13.725663 18.850212 -1.315921 9.000000
5.538509 0.624180 -0.720913 25.000000
8.255720 -2.661752 -1.186676 18.000000
7.162498 -6.415268 -1.115948 10.000000
13.596241 18.810101 -1.285419 8.000000
5.550972 0.647179 -0.721862 21.000000
8.316946 -2.647880 -1.197178 19.000000
7.196367 -6.398224 -1.126081 10.000000
13.513562 18.840784 -1.255710 8.000000
5.553612 0.668127 -0.721526 21.000000
8.401601 -2.640956 -1.212660 25.000000
7.244942 -6.394021 -1.140266 10.000000
13.390551 18.807556 -1.226126 9.000000
5.560973 0.690685 -0.721827 23.000000
8.444797 -2.618948 -1.217434 30.000000
7.289986 -6.386396 -1.152240 13.000000
13.250627 18.749203 -1.195189 9.000000
5.578205 0.713595 -0.723401 25.000000
8.519826 -2.608025 -1.233204 22.000000
7.338806 -6.381776 -1.164859 18.000000
13.174045 18.786556 -1.166378 8.000000
5.595345 0.736641 -0.724968 27.000000
7.425413 -6.409444 -1.181816 16.000000
13.057726 18.759645 -1.137874 9.000000
4.488872 2.771301 -0.509824 1.000000
5.607344 0.760136 -0.725891 19.000000
7.455448 -6.387835 -1.193294 10.000000
12.981036 18.796021 -1.113207 8.000000
4.610898 2.867799 -0.521891 1.000000
5.624293 0.783437 -0.727445 28.000000
7.504479 -6.382297 -1.206115 10.000000
12.851264 18.747734 -1.075874 9.000000
4.574437 2.870651 -0.514308 1.000000
5.646309 0.807611 -0.727635 25.000000
7.568887 -6.389415 -1.219714 12.000000
12.747036 18.735586 -1.048835 9.000000
5.648200 0.830025 -0.727271 21.000000
11.550364 -3.301108 -1.681880 1.000000
7.614257 -6.380066 -1.232050 11.000000
12.656533 18.749960 -1.023297 8.000000
5.685123 0.850662 -0.733330 11.000000
11.576116 -3.262621 -1.688158 1.000000
7.662182 -6.374832 -1.246796 10.000000
12.588913 18.790901 -0.995438 8.000000
5.701958 0.874559 -0.732840 16.000000
11.554594 -3.208716 -1.687479 1.000000
7.726899 -6.380898 -1.260619 9.000000
12.460293 18.740053 -0.962888 9.000000
5.708796 0.896015 -0.733092 10.000000
11.603910 -3.176648 -1.697253 1.000000
7.772400 -6.370702 -1.273134 12.000000
12.338589 18.684057 -0.934525 6.000000
11.505252 -3.104355 -1.683268 1.000000
7.841000 -6.379028 -1.289496 9.000000
19.974699 30.489685 -1.476731 9.000000
5.859345 0.963705 -0.748047 5.000000
11.578716 -3.076531 -1.696541 1.000000
20.032377 30.811823 -1.450390 9.000000
5.948416 1.001828 -0.760973 5.000000
11.574689 -3.030086 -1.700703 1.000000
20.069212 31.105541 -1.415616 2.000000
11.571856 -2.981914 -1.698592 1.000000
21.339865 33.355389 -1.472740 10.000000
14.747869 2.550050 -1.885427 3.000000
11.586930 -2.940553 -1.703469 1.000000
5.031503 -3.946620 -0.843010 9.000000
21.189899 33.364189 -1.421666 10.000000
14.808113 2.616400 -1.883679 6.000000
11.622149 -2.902036 -1.706995 1.000000
5.026028 -3.912656 -0.843078 10.000000
21.019939 33.379101 -1.370598 10.000000
14.299382 2.588327 -1.817753 4.000000
11.617128 -2.855591 -1.713232 1.000000
5.016220 -3.875576 -0.844673 10.000000
20.987265 33.560570 -1.333836 10.000000
14.212966 2.621391 -1.805300 1.000000
11.617313 -2.810524 -1.715986 1.000000
5.014073 -3.844654 -0.847546 16.000000
20.915741 33.707359 -1.281312 10.000000
11.622238 -2.768808 -1.715276 1.000000
5.011886 -3.813888 -0.849284 17.000000
20.863586 33.900017 -1.237039 1.000000
11.670565 -2.735157 -1.723052 1.000000
4.997679 -3.774233 -0.848979 21.000000
11.706036 -2.691793 -1.726609 1.000000
4.995146 -3.743649 -0.850650 19.000000
19.384804 31.995510 -1.071084 4.000000
11.704991 -2.646422 -1.733565 1.000000
4.996312 -3.716003 -0.854059 23.000000
21.616987 35.962490 -1.142718 10.000000
12.468552 2.539022 -1.562365 1.000000
11.767294 -2.617366 -1.741428 1.000000
4.994239 -3.684762 -0.854591 30.000000
12.240313 2.541532 -1.532762 1.000000
11.849931 -2.585869 -1.754268 1.000000
4.991123 -3.654288 -0.857262 21.000000
21.686043 36.669098 -1.063484 3.000000
12.115417 2.561954 -1.509514 1.000000
11.844369 -2.541375 -1.752121 1.000000
4.983966 -3.621063 -0.858131 32.000000
24.437077 41.651985 -1.146483 9.000000
11.907517 2.563622 -1.480457 1.000000
11.886898 -2.504962 -1.761372 1.000000
4.988684 -3.596629 -0.861045 24.000000
24.307306 41.764133 -1.088158 14.000000
11.655868 2.554179 -1.448210 1.000000
11.934463 -2.469336 -1.769239 1.000000
4.997315 -3.575089 -0.864641 25.000000
24.057045 41.668022 -1.024649 31.000000
11.365958 2.536427 -1.405140 1.000000
12.021445 -2.439236 -1.780732 1.000000
4.994241 -3.562357 -0.863248 22.000000
23.904602 41.739788 -0.965565 14.000000
11.279607 2.560594 -1.391520 1.000000
12.068821 -2.402828 -1.788626 1.000000
4.990483 -3.532151 -0.865797 26.000000
23.685322 41.693707 -0.895602 1.000000
11.193458 2.584213 -1.375949 1.000000
12.174469 -2.375299 -1.807340 1.000000
5.006951 -3.516334 -0.870770 27.000000
11.126841 2.611826 -1.360835 1.000000
12.207701 -2.335369 -1.808775 1.000000
4.995672 -3.479846 -0.869730 31.000000
11.016690 2.628610 -1.340514 1.000000
12.620232 -2.364092 -1.868540 4.000000
5.012089 -3.464068 -0.873628 24.000000
10.939638 2.654662 -1.326392 1.000000
12.721922 -2.334910 -1.877706 3.000000
4.999885 -3.428622 -0.872544 36.000000
46.122822 83.207779 -1.311827 1.000000
10.956850 2.652765 -1.316343 1.000000
12.772526 -2.344197 -1.871292 1.000000
4.999445 -3.439879 -0.865843 38.000000
46.317299 82.875046 -1.391990 1.000000
11.058044 2.638477 -1.321408 1.000000
12.570853 -2.354842 -1.831606 3.000000
4.995929 -3.464508 -0.858767 31.000000
46.730469 82.899391 -1.494944 1.000000
11.116447 2.607339 -1.327181 1.000000
12.266809 -2.344457 -1.779649 1.000000
4.991804 -3.488811 -0.855915 31.000000
11.209103 2.581644 -1.336995 2.000000
12.103148 -2.361384 -1.750620 1.000000
4.987811 -3.513301 -0.850918 21.000000
23.905531 41.724522 -0.847766 29.000000
11.333846 2.570827 -1.350850 1.000000
12.046753 -2.396248 -1.737162 1.000000
4.987740 -3.540673 -0.846585 21.000000
24.075500 41.683186 -0.907458 15.000000
11.382183 2.535877 -1.357504 1.000000
11.936165 -2.421932 -1.718207 1.000000
4.995471 -3.573769 -0.844653 19.000000
24.278215 41.697407 -0.960154 11.000000
11.720829 2.566271 -1.401006 1.000000
11.908106 -2.461715 -1.713290 1.000000
4.983781 -3.608981 -0.837424 20.000000
11.896126 2.554652 -1.420722 1.000000
11.851281 -2.497457 -1.697859 1.000000
4.986083 -3.641249 -0.832579 12.000000
21.738461 36.728462 -0.946175 6.000000
12.181246 2.573653 -1.455949 1.000000
11.745509 -2.520163 -1.681880 1.000000
4.998401 -3.675722 -0.832257 10.000000
21.502439 36.042065 -0.967064 65.000000
12.273705 2.543996 -1.465822 1.000000
11.732498 -2.562389 -1.672803 1.000000
5.009369 -3.712153 -0.830804 10.000000
21.619671 35.952744 -1.025296 19.000000
12.500914 2.543340 -1.500862 1.000000
11.746743 -2.612795 -1.676252 1.000000
5.030742 -3.759369 -0.831268 9.000000
19.338100 31.893297 -0.944114 7.000000
12.929208 2.581164 -1.548804 2.000000
11.646728 -2.635385 -1.652726 1.000000
5.033463 -3.790232 -0.827295 9.000000
13.104722 2.563919 -1.568638 1.000000
11.612950 -2.674657 -1.645139 1.000000
5.079241 -3.853956 -0.832607 8.000000
20.979883 34.062336 -1.096478 3.000000
13.489277 2.587860 -1.615954 1.000000
11.613275 -2.719592 -1.642343 7.000000
5.106525 -3.901409 -0.832352 7.000000
20.916662 33.682594 -1.135192 9.000000
13.849761 2.604424 -1.660477 1.000000
11.526406 -2.743852 -1.629362 50.000000
5.143849 -3.959867 -0.835037 8.000000
20.998997 33.553272 -1.174783 10.000000
14.093491 2.594268 -1.693563 3.000000
11.497630 -2.783694 -1.618379 71.000000
5.172983 -4.012577 -0.836341 8.000000
21.043226 33.364399 -1.218972 10.000000
14.410468 2.598046 -1.733089 3.000000
11.536004 -2.837785 -1.621010 45.000000
5.186172 -4.053339 -0.835033 8.000000
21.220520 33.386646 -1.263951 10.000000
14.938208 2.636697 -1.795384 6.000000
11.472701 -2.868975 -1.609446 80.000000
5.218505 -4.109509 -0.837947 7.000000
21.363590 33.341175 -1.306697 9.000000
11.481589 -2.915952 -1.610075 69.000000
19.966553 30.922726 -1.253227 3.000000
11.495900 -2.964481 -1.605155 1.000000
8.044764 -6.392220 -1.283480 9.000000
19.801125 30.432884 -1.274235 9.000000
6.160508 0.997785 -0.744169 1.000000
11.556330 -3.027435 -1.615203 1.000000
7.958123 -6.375659 -1.262887 20.000000
19.980623 30.487118 -1.317494 9.000000
5.978067 0.944694 -0.720616 2.000000
11.503141 -3.058599 -1.600865 1.000000
7.898994 -6.371409 -1.249656 20.000000
20.028198 30.328266 -1.358105 9.000000
5.799502 0.896774 -0.699767 6.000000
11.531214 -3.109201 -1.602028 1.000000
7.857342 -6.385489 -1.235999 17.000000
20.154646 30.266371 -1.403279 9.000000
5.763659 0.867556 -0.696049 8.000000
11.519178 -3.155613 -1.597859 1.000000
7.787682 -6.378685 -1.218187 16.000000
20.382086 30.388996 -1.450467 6.000000
5.717174 0.840161 -0.693145 9.000000
11.556942 -3.207196 -1.600302 1.000000
7.731395 -6.377805 -1.207534 9.000000
12.694083 18.784372 -0.918504 5.000000
5.671191 0.812180 -0.686191 10.000000
11.506913 -3.240950 -1.590839 1.000000
7.687142 -6.386522 -1.193480 11.000000
12.820790 18.829853 -0.950789 6.000000
5.645485 0.779359 -0.684612 20.000000
11.522938 -3.295445 -1.590613 1.000000
7.613711 -6.375088 -1.178840 14.000000
12.890047 18.769167 -0.974216 6.000000
5.633557 0.755680 -0.683815 24.000000
11.545172 -3.347628 -1.586826 1.000000
7.582681 -6.398794 -1.165541 10.000000
12.999496 18.801687 -1.002001 7.000000
5.601714 0.730518 -0.680621 21.000000
11.580321 -3.406078 -1.589156 1.000000
7.531760 -6.398705 -1.153975 15.000000
13.079136 18.769438 -1.026834 8.000000
4.630188 2.803037 -0.493533 1.000000
5.579613 0.706848 -0.678612 19.000000
7.465431 -6.394129 -1.137303 14.000000
13.192737 18.792273 -1.054691 9.000000
5.562460 0.682984 -0.677194 21.000000
8.680325 -2.622398 -1.185749 9.000000
7.416368 -6.399379 -1.124732 10.000000
13.327519 18.830099 -1.087924 9.000000
5.550256 0.660846 -0.674419 21.000000
8.613700 -2.638405 -1.174825 16.000000
7.356255 -6.394695 -1.108822 10.000000
13.418208 18.825531 -1.114489 9.000000
5.547486 0.641866 -0.673820 22.000000
8.524783 -2.642122 -1.160718 22.000000
7.309562 -6.396784 -1.096390 11.000000
13.555971 18.879032 -1.144847 9.000000
5.539926 0.619444 -0.673595 31.000000
8.477582 -2.661589 -1.152458 22.000000
7.249509 -6.391302 -1.082348 13.000000
13.644858 18.856560 -1.170944 9.000000
5.527445 0.595593 -0.672766 25.000000
8.400784 -2.676186 -1.138838 19.000000
7.223023 -6.415155 -1.073362 10.000000
13.727389 18.831854 -1.200923 9.000000
5.519366 0.574266 -0.674471 23.000000
8.315784 -2.682720 -1.125540 13.000000
7.162139 -6.410442 -1.057776 10.000000
13.845485 18.855240 -1.230053 9.000000
5.501563 0.552038 -0.673022 39.000000
8.240271 -2.691744 -1.113571 13.000000
7.106055 -6.407309 -1.044504 15.000000
13.959045 18.850803 -1.253936 8.000000
5.483996 0.529015 -0.669644 58.000000
8.174761 -2.703544 -1.098413 9.000000
7.079516 -6.430580 -1.035615 9.000000
14.127803 18.953901 -1.288568 6.000000
5.480779 0.510366 -0.669041 54.000000
8.056511 -2.698798 -1.080894 9.000000
7.019886 -6.423531 -1.021930 9.000000
14.220207 18.932655 -1.319674 7.000000
5.472694 0.488425 -0.668793 72.000000
8.014631 -2.714362 -1.076477 9.000000
6.999200 -6.447376 -1.013625 11.000000
14.333413 18.945295 -1.353151 7.000000
5.479277 0.468776 -0.670357 37.000000
7.953546 -2.726210 -1.065134 15.000000
6.987103 -6.483732 -1.006896 10.000000
14.462126 18.977383 -1.384109 7.000000
5.480958 0.448691 -0.670357 30.000000
7.901541 -2.742333 -1.053640 8.000000
6.956793 -6.503222 -0.995874 10.000000
14.527656 18.919130 -1.408799 6.000000
5.482673 0.425719 -0.671317 27.000000
7.811423 -2.746240 -1.038681 1.000000
6.972221 -6.567991 -0.993236 9.000000
14.660281 18.947676 -1.435897 7.000000
5.469089 0.406423 -0.670457 31.000000
7.774564 -2.762283 -1.032066 1.000000
7.070127 -6.704612 -1.001751 45.000000
14.771416 18.954237 -1.465549 7.000000
5.465590 0.386026 -0.669850 33.000000
7.839602 -2.817795 -1.037634 1.000000
7.017611 -6.703832 -0.985804 18.000000
14.879670 18.956297 -1.495047 6.000000
5.466917 0.365029 -0.670806 29.000000
7.702355 -2.804951 -1.016656 1.000000
7.152640 -6.887949 -0.998144 105.000000
15.001120 18.953871 -1.525005 7.000000
5.473291 0.343391 -0.671414 29.000000
7.920518 -2.917323 -1.043865 1.000000
7.447060 -7.221745 -1.033598 57.000000
15.149575 19.018360 -1.563842 7.000000
5.474282 0.325232 -0.672371 34.000000
7.384419 -7.208670 -1.020941 69.000000
15.233761 18.980871 -1.590935 7.000000
5.475491 0.304210 -0.672371 32.000000
7.344514 -7.222476 -1.008185 38.000000
15.361773 19.004093 -1.618783 7.000000
5.471496 0.283876 -0.672719 37.000000
7.258635 -7.190544 -0.989206 157.000000
15.464897 18.988890 -1.648065 7.000000
5.462584 0.263342 -0.671500 27.000000
7.197608 -7.182549 -0.975515 18.000000
15.605722 19.025782 -1.686187 7.000000
5.473472 0.242806 -0.672719 29.000000
7.223221 -7.263677 -0.973738 20.000000
15.737765 19.043983 -1.718895 9.000000
5.474208 0.222738 -0.673675 28.000000
7.043141 -2.802806 -0.911953 1.000000
7.147213 -7.235071 -0.957766 14.000000
15.732791 18.903200 -1.737016 9.000000
5.465104 0.201351 -0.672455 30.000000
7.073225 -2.849156 -0.913335 1.000000
7.066657 -7.211195 -0.938400 28.000000
15.316932 18.266954 -1.708789 7.000000
5.470765 0.181484 -0.673065 28.000000
7.053981 -2.871498 -0.908158 1.000000
7.049068 -7.243656 -0.928741 28.000000
15.289291 18.098841 -1.723233 7.000000
5.466433 0.161285 -0.672455 30.000000
6.888715 -2.830888 -0.884130 1.000000
7.070337 -7.313881 -0.929363 38.000000
15.218916 17.888491 -1.728859 8.000000
5.476817 0.140546 -0.674631 29.000000
7.092536 -7.390862 -0.923217 247.000000
15.318686 17.872618 -1.761656 9.000000
5.472333 0.120362 -0.674020 25.000000
6.922564 -2.907135 -0.883341 1.000000
7.212451 -7.573819 -0.931565 26.000000
15.392797 17.832727 -1.787819 9.000000
5.467541 0.100209 -0.675318 27.000000
6.894510 -2.923706 -0.877083 1.000000
7.074790 -7.478765 -0.909739 20.000000
15.542078 17.872814 -1.818327 10.000000
5.473054 0.081200 -0.674020 33.000000
7.021122 -3.007806 -0.890533 1.000000
6.874083 -7.320154 -0.876777 25.000000
15.589971 17.802010 -1.841577 16.000000
5.473336 0.059230 -0.674020 28.000000
7.032205 -3.046022 -0.889415 1.000000
6.855450 -7.359292 -0.867550 24.000000
15.716484 17.814314 -1.873827 22.000000
5.478479 0.039204 -0.674631 31.000000
6.775276 -7.319194 -0.851542 22.000000
15.783661 17.765072 -1.903647 20.000000
5.463467 0.018118 -0.674705 31.000000
6.762489 -7.359305 -0.842778 26.000000
15.807667 17.661295 -1.919541 9.000000
5.478384 0.000000 -0.676544 28.000000
7.111051 -3.166044 -0.892382 1.000000
6.783833 -7.442277 -0.838534 46.000000
15.758275 17.489058 -1.927170 7.000000
5.483428 -0.020098 -0.676199 30.000000
7.129245 -3.199524 -0.891707 1.000000
7.025926 -7.762119 -0.860764 5.000000
15.566507 17.155428 -1.924877 6.000000
5.478244 -0.039202 -0.676544 30.000000
6.993983 -7.778519 -0.850816 13.000000
15.524724 16.995783 -1.932958 6.000000
5.478064 -0.059281 -0.676544 26.000000
6.888865 -7.712900 -0.833869 9.000000
15.426080 16.752249 -1.936306 6.000000
5.492694 -0.079574 -0.678382 27.000000
6.971710 -7.860713 -0.834294 76.000000
15.375406 16.586498 -1.942912 6.000000
5.487387 -0.100573 -0.677769 25.000000
15.268657 16.356451 -1.945802 6.000000
5.491942 -0.120794 -0.678382 20.000000
7.105613 -3.339104 -0.877864 1.000000
6.495059 -7.432323 -0.764687 225.000000
15.234973 16.200918 -1.957397 6.000000
5.501384 -0.141176 -0.679608 29.000000
7.123036 -3.373130 -0.877071 1.000000
6.489202 -7.478144 -0.756636 255.000000
15.073863 15.912325 -1.948468 6.000000
5.505761 -0.162445 -0.680220 32.000000
6.962980 -3.352553 -0.853184 1.000000
6.481702 -7.525042 -0.750255 212.000000
14.834040 15.539217 -1.936198 6.000000
5.510088 -0.182788 -0.680833 26.000000
6.452746 -7.544523 -0.737750 1.000000
14.715250 15.312789 -1.932740 10.000000
5.514460 -0.203170 -0.680483 27.000000
6.198377 -3.040579 -0.753671 1.000000
14.801582 15.295401 -1.963277 10.000000
5.523317 -0.224736 -0.683636 24.000000
14.861420 15.234381 -1.985565 8.000000
12.603422 5.028255 -1.613254 5.000000
5.537329 -0.245638 -0.685477 34.000000
6.196695 -7.411164 -0.689081 86.000000
14.893198 15.166015 -2.001793 6.000000
12.592404 4.972979 -1.616801 1.000000
5.551333 -0.267621 -0.686349 24.000000
6.242572 -7.516545 -0.688381 39.000000
14.707353 14.856992 -1.990870 6.000000
5.560226 -0.288480 -0.687574 34.000000
6.172957 -7.491060 -0.671954 36.000000
14.594657 14.650805 -1.987586 6.000000
5.559132 -0.308857 -0.687574 30.000000
6.211642 -7.589143 -0.670302 29.000000
14.551843 14.501137 -1.992599 6.000000
5.572886 -0.331090 -0.688438 30.000000
6.434107 -7.917167 -0.686554 34.000000
14.387362 14.232511 -1.987880 6.000000
5.586252 -0.352436 -0.692228 27.000000
6.399156 -7.933393 -0.676988 40.000000
14.285531 14.028553 -1.984336 6.000000
5.594946 -0.373578 -0.692477 33.000000
5.810435 -3.064791 -0.686971 9.000000
6.393769 -7.983582 -0.666812 26.000000
14.229626 13.876416 -1.990850 6.000000
5.613270 -0.396456 -0.694928 30.000000
5.786309 -3.079226 -0.681979 35.000000
6.476669 -8.148125 -0.667622 15.000000
14.061106 13.611890 -1.977531 6.000000
5.641593 -0.419243 -0.697617 24.000000
5.757335 -3.092233 -0.675347 26.000000
14.095054 13.545033 -1.995992 6.000000
5.659807 -0.441461 -0.700065 20.000000
5.742002 -3.111168 -0.670274 20.000000
6.317428 -8.065608 -0.637392 26.000000
5.692814 -0.466034 -0.703352 10.000000
5.721934 -3.127477 -0.668115 24.000000
6.299067 -8.106092 -0.627884 39.000000
4.344722 4.082820 -0.627689 6.000000
5.720659 -0.487416 -0.709023 10.000000
5.706484 -3.146251 -0.663056 8.000000
6.242056 -8.087941 -0.614133 17.000000
4.353400 4.058191 -0.631836 8.000000
5.763264 -0.514358 -0.713528 9.000000
6.314576 -8.247184 -0.611644 19.000000
4.359132 4.036601 -0.635965 1.000000
5.810781 -0.541096 -0.718629 8.000000
6.583542 -8.657798 -0.632855 14.000000
4.439364 4.080775 -0.650807 1.000000
5.937312 -0.574836 -0.733476 7.000000
6.439387 -8.529857 -0.610627 23.000000
4.427293 4.041257 -0.654375 1.000000
5.989585 -0.601008 -0.740188 5.000000
6.647916 -8.873531 -0.621833 63.000000
4.345977 3.937928 -0.644362 1.000000
10.638189 3.532669 -1.428005 1.000000
6.135553 -0.638377 -0.757418 3.000000
10.646487 3.490095 -1.431284 1.000000
10.591963 3.429279 -1.432130 1.000000
17.970533 -1.930013 -2.222395 6.000000
10.637047 3.400853 -1.440493 1.000000
17.977789 -2.000648 -2.224226 6.000000
6.275062 -8.630546 -0.553623 15.000000
10.672121 3.369003 -1.451505 1.000000
17.846697 -2.052308 -2.212106 6.000000
10.674783 3.324825 -1.456073 1.000000
17.859150 -2.120091 -2.211411 6.000000
6.468353 -9.028239 -0.552902 25.000000
10.691152 3.286985 -1.460623 1.000000
17.841410 -2.187489 -2.207054 6.000000
7.162515 -4.295170 -0.801231 1.000000
10.645709 3.230355 -1.456737 1.000000
17.931360 -2.265258 -2.222395 6.000000
7.036343 -4.254649 -0.784511 1.000000
10.586306 3.167989 -1.450857 3.000000
17.844175 -2.323888 -2.209491 6.000000
6.957415 -4.241825 -0.771699 1.000000
5.975907 -8.534480 -0.485865 31.000000
10.601626 3.130284 -1.459226 255.000000
17.875271 -2.394597 -2.211218 6.000000
6.967724 -4.283220 -0.768817 1.000000
6.268436 -9.019097 -0.502600 16.000000
10.636580 3.098266 -1.464431 255.000000
17.891340 -2.463535 -2.211109 6.000000
6.996260 -4.332795 -0.767752 1.000000
6.214616 -9.008599 -0.485491 36.000000
4.316164 3.613996 -0.677246 1.000000
10.642649 3.055751 -1.471506 255.000000
7.001139 -4.373098 -0.764311 1.000000
6.179018 -9.027609 -0.473814 34.000000
4.321198 3.591352 -0.681936 1.000000
10.648513 3.015233 -1.474711 246.000000
15.589243 -2.265889 -1.923069 1.000000
6.046640 -8.900702 -0.456635 175.000000
4.322201 3.565483 -0.686975 4.000000
10.668044 2.978572 -1.483765 247.000000
15.084711 -2.249042 -1.864537 4.000000
5.782453 -8.579297 -0.430011 32.000000
4.284862 3.508368 -0.683897 10.000000
10.669347 2.934821 -1.486300 246.000000
14.894762 -2.279219 -1.839457 5.000000
5.730536 -8.566639 -0.415758 28.000000
4.258906 3.461119 -0.680643 86.000000
10.679530 2.895561 -1.490162 255.000000
14.724814 -2.308477 -1.816862 2.000000
5.689821 -8.570358 -0.402384 24.000000
4.263190 3.438732 -0.686104 114.000000
10.689569 2.856264 -1.494025 220.000000
14.471228 -2.323097 -1.786611 2.000000
5.649066 -8.573769 -0.392643 35.000000
4.254837 3.408767 -0.686803 124.000000
10.723403 2.821235 -1.505111 1.000000
14.144168 -2.326337 -1.744784 1.000000
5.650667 -8.645000 -0.382318 44.000000
4.255090 3.383439 -0.690622 114.000000
10.776324 2.792968 -1.515050 1.000000
13.959044 -2.348467 -1.725505 3.000000
5.574408 -8.593683 -0.370235 27.000000
4.251414 3.355155 -0.692828 143.000000
10.761942 2.745185 -1.519433 1.000000
13.701173 -2.356754 -1.692223 1.000000
5.528389 -8.588253 -0.356673 23.000000
4.251883 3.329111 -0.697522 124.000000
10.809332 2.715117 -1.532636 1.000000
13.384061 -2.355154 -1.654161 3.000000
4.255647 3.306970 -0.701885 109.000000
10.886270 2.692063 -1.544130 1.000000
13.238838 -2.379658 -1.634897 5.000000
6.052511 -4.122554 -0.627814 1.000000
4.254330 3.283378 -0.704638 139.000000
12.853846 -2.359122 -1.590725 4.000000
6.092393 -4.179362 -0.630788 1.000000
4.253941 3.258270 -0.708300 168.000000
11.010550 2.635271 -1.570991 1.000000
12.650924 -2.367556 -1.562067 6.000000
5.946258 -4.111246 -0.612130 1.000000
6.077365 -9.744730 -0.354896 22.000000
4.371795 3.323186 -0.731742 7.000000
11.149212 2.625291 -1.597543 1.000000
12.466378 -2.380344 -1.542595 1.000000
6.049958 -4.215801 -0.620503 6.000000
6.056655 -9.787445 -0.343616 1.000000
11.255153 2.604665 -1.615389 1.000000
12.218585 -2.379479 -1.515207 1.000000
6.023324 -4.228553 -0.614108 7.000000
12.447943 -20.273464 -0.689448 26.000000
11.389326 2.591773 -1.639508 1.000000
12.019500 -2.388646 -1.491645 1.000000
9.696854 -6.817592 -0.991210 39.000000
12.353065 -20.285309 -0.667563 27.000000
11.456055 2.560732 -1.656044 1.000000
11.996325 -2.429780 -1.487696 1.000000
9.725077 -6.890836 -0.990386 9.000000
5.172027 -8.560249 -0.268883 7.000000
11.566628 2.540972 -1.672778 1.000000
11.846870 -2.444745 -1.465979 1.000000
17.490578 -12.489730 -1.770755 7.000000
5.155129 -8.599962 -0.257305 7.000000
11.821505 2.551581 -1.716887 1.000000
11.812860 -2.485054 -1.465078 1.000000
17.449478 -12.557203 -1.759910 6.000000
5.151783 -8.666251 -0.249918 7.000000
12.067318 2.556184 -1.759935 1.000000
11.711456 -2.508581 -1.453632 1.000000
17.448950 -12.654156 -1.745588 8.000000
11.997870 -20.343975 -0.560722 33.000000
14.299918 2.974387 -2.091745 6.000000
11.673085 -2.545144 -1.450017 1.000000
17.447206 -12.750730 -1.742484 6.000000
11.927026 -20.386148 -0.540111 27.000000
14.256458 2.908284 -2.094106 6.000000
11.692051 -2.596348 -1.455722 1.000000
17.377010 -12.797398 -1.728774 8.000000
4.886492 -8.422864 -0.212477 4.000000
14.114808 2.825541 -2.084588 6.000000
11.667437 -2.635791 -1.458088 1.000000
17.350241 -12.876032 -1.726999 6.000000
13.902987 2.783138 -2.076049 6.000000
11.625254 -2.628394 -1.478213 1.000000
17.349550 -12.880216 -1.765113 8.000000
4.797184 -8.335824 -0.213216 7.000000
13.935468 2.845336 -2.085050 5.000000
11.697525 -2.599705 -1.488305 1.000000
17.399157 -12.818391 -1.788152 8.000000
4.901349 -8.448472 -0.230179 1.000000
13.841600 2.884098 -2.072721 5.000000
11.720946 -2.557723 -1.498530 1.000000
17.440477 -12.750482 -1.810365 8.000000
11.880025 -20.313944 -0.583348 19.000000
11.977899 2.539427 -1.794956 1.000000
11.767506 -2.522735 -1.516091 1.000000
9.717299 -7.052260 -1.020892 3.000000
12.069737 -20.474001 -0.622357 24.000000
11.944332 2.578092 -1.791330 1.000000
11.781267 -2.480555 -1.518817 1.000000
9.713911 -6.995590 -1.030463 7.000000
5.121807 -8.619251 -0.276554 6.000000
11.508859 2.530387 -1.729566 1.000000
11.847528 -2.449193 -1.534773 1.000000
5.919044 -4.225131 -0.634968 5.000000
5.095161 -8.506654 -0.287367 3.000000
11.393883 2.548923 -1.709517 1.000000
11.958139 -2.424218 -1.554377 1.000000
12.253672 -20.297121 -0.716098 29.000000
11.413407 2.597252 -1.713863 1.000000
12.009652 -2.388869 -1.568613 1.000000
5.917139 -4.138610 -0.649525 1.000000
5.535860 -9.097734 -0.338399 6.000000
4.304831 3.291291 -0.746147 1.000000
11.451547 2.652220 -1.721107 1.000000
12.164087 -2.373273 -1.589835 1.000000
5.923711 -4.110957 -0.653663 1.000000
5.606583 -9.141948 -0.352012 8.000000
4.249983 3.274109 -0.734900 90.000000
11.293042 2.659158 -1.694601 1.000000
12.527727 -2.396591 -1.640730 3.000000
5.995681 -4.128426 -0.666336 1.000000
6.128641 -9.911505 -0.396759 16.000000
4.242373 3.293094 -0.730892 197.000000
11.268315 2.699044 -1.692434 1.000000
12.691959 -2.377528 -1.667904 3.000000
5.972483 -4.081793 -0.669810 1.000000
6.091549 -9.775069 -0.408247 7.000000
4.239538 3.313482 -0.729423 182.000000
12.840338 -2.361276 -1.693315 6.000000
6.163993 -4.179615 -0.697431 1.000000
4.243435 3.341654 -0.727397 163.000000
11.503159 2.846744 -1.724529 1.000000
4.238634 3.364321 -0.725898 192.000000
11.204732 2.816513 -1.681326 1.000000
5.813952 -9.115541 -0.421017 20.000000
4.238379 3.389514 -0.723157 168.000000
11.012223 2.813122 -1.649996 9.000000
13.777790 -2.374885 -1.828219 3.000000
5.823803 -9.061066 -0.434501 17.000000
4.237401 3.415490 -0.720389 143.000000
10.872084 2.823862 -1.626681 31.000000
14.163025 -2.382785 -1.883152 6.000000
5.639685 -8.697641 -0.430842 23.000000
4.237291 3.439871 -0.719499 168.000000
10.905226 2.873142 -1.633130 22.000000
14.548420 -2.390218 -1.935778 6.000000
5.694041 -8.721327 -0.443825 22.000000
4.240489 3.468329 -0.717333 140.000000
10.909515 2.917074 -1.631338 9.000000
14.878963 -2.393879 -1.981368 5.000000
5.680178 -8.634102 -0.454850 19.000000
4.235883 3.490551 -0.713842 145.000000
10.774846 2.923422 -1.610803 7.000000
15.034340 -2.357003 -2.008889 3.000000
5.715490 -8.622079 -0.467928 30.000000
4.235080 3.516032 -0.710012 95.000000
10.830882 2.983322 -1.616878 35.000000
15.047029 -2.305207 -2.012200 6.000000
5.760652 -8.621425 -0.479917 34.000000
4.241469 3.547677 -0.710315 100.000000
10.891918 3.043127 -1.623615 35.000000
15.127864 -2.260875 -2.030038 5.000000
5.960471 -8.853417 -0.508921 24.000000
4.236496 3.569989 -0.706755 110.000000
10.909268 3.093182 -1.623920 1.000000
15.449953 -2.251151 -2.072139 6.000000
6.235474 -3.903927 -0.751163 1.000000
5.895718 -8.691592 -0.511822 46.000000
4.291917 3.643676 -0.713231 7.000000
10.992994 3.160498 -1.638096 1.000000
6.189468 -3.845114 -0.749140 1.000000
6.045552 -8.842542 -0.535131 29.000000
10.825068 3.155220 -1.610769 1.000000
15.769365 -2.176960 -2.124038 6.000000
6.168647 -3.802401 -0.748844 1.000000
6.243187 -9.063545 -0.561376 10.000000
10.846910 3.206825 -1.609797 1.000000
15.801431 -2.122397 -2.130127 6.000000
6.189919 -3.785761 -0.754937 1.000000
