VERSION .7
FIELDS x y z intensity
SIZE 4 4 4 4
TYPE F F F F
COUNT 1 1 1 1
WIDTH 1215
HEIGHT 1
VIEWPOINT 0 0 0 1 0 0 0
POINTS 1215
DATA ascii
39.341400 -17.343424 -0.172593 22.000000
6.787859 -7.418038 -0.026324 30.000000
58.976086 64.745735 -0.259855 1.000000
91.321472 40.315651 -0.261341 26.000000
39.154293 -17.432615 -0.157090 9.000000
6.720296 -7.398468 -0.017445 36.000000
91.216309 39.908318 -0.312792 30.000000
39.189137 -17.587639 -0.134947 21.000000
6.682333 -7.405871 -0.010446 37.000000
25.194096 27.273912 -0.168490 8.000000
90.958130 39.398796 -0.346011 26.000000
38.977108 -17.680801 -0.119520 8.000000
6.671827 -7.448940 -0.001745 85.000000
25.290369 27.177605 -0.200865 9.000000
90.906525 39.000156 -0.397089 28.000000
38.813740 -17.762125 -0.096849 8.000000
6.668338 -7.492272 0.005252 36.000000
25.350767 27.052540 -0.232948 9.000000
91.126953 38.699871 -0.431989 17.000000
38.471535 -17.776344 -0.081364 8.000000
6.677242 -7.557875 0.014081 21.000000
25.411814 26.919258 -0.271368 9.000000
90.917503 38.218201 -0.516397 21.000000
76.505081 -1.495688 -0.213684 178.000000
38.329109 -17.881302 -0.073819 8.000000
6.633004 -7.563492 0.021070 21.000000
25.565262 26.883726 -0.304330 9.000000
90.715187 37.742512 -0.548757 16.000000
76.484085 -1.775735 -0.213642 183.000000
37.896946 -17.849110 -0.051178 19.000000
6.435802 -7.390509 0.029077 105.000000
90.565987 37.291630 -0.598308 22.000000
76.427086 -2.054708 -0.213502 128.000000
36.899632 -17.537022 -0.028522 8.000000
6.592362 -7.631938 0.038724 21.000000
90.530548 36.889549 -0.631302 27.000000
76.369064 -2.333286 -0.213363 255.000000
35.257305 -16.915174 -0.013650 8.000000
6.596301 -7.687886 0.045968 39.000000
90.349510 36.430218 -0.680114 29.000000
81.541946 -2.790513 -0.227842 104.000000
33.827053 -16.381781 0.006560 7.000000
6.572639 -7.714637 0.054835 40.000000
55.983971 57.188911 -0.907949 12.000000
90.257645 36.027412 -0.712397 33.000000
81.496239 -3.088036 -0.213510 176.000000
32.431591 -15.867021 0.025206 8.000000
6.531896 -7.729455 0.065352 36.000000
56.028236 56.835896 -0.975100 1.000000
90.160973 35.606274 -0.744438 28.000000
81.534332 -3.388790 -0.213641 164.000000
31.172586 -15.379383 0.042467 7.000000
6.435478 -7.666786 0.071629 26.000000
29.926771 30.136435 -0.555981 24.000000
77.080917 -3.486743 -0.202004 12.000000
30.052601 -14.970578 0.058599 7.000000
6.399541 -7.683694 0.082030 14.000000
30.026140 30.015657 -0.585424 10.000000
89.803314 34.706249 -0.823387 16.000000
29.051083 -14.592118 0.068089 7.000000
6.367613 -7.697122 0.088922 79.000000
89.626076 34.260723 -0.854101 20.000000
28.042980 -14.214710 0.082310 7.000000
89.904953 33.990185 -0.905896 8.000000
25.858412 -13.226724 0.091247 26.000000
6.441794 -7.901236 0.108539 24.000000
89.513176 33.467606 -0.967430 23.000000
25.818630 -13.325989 0.096350 28.000000
6.145906 -7.600405 0.110891 32.000000
89.480164 33.081963 -0.999061 30.000000
25.301796 -13.171281 0.109528 9.000000
6.331741 -7.880729 0.123514 31.000000
57.186844 55.128330 -1.428097 22.000000
76.387856 -5.127243 -0.200433 14.000000
24.469805 -12.852383 0.120602 9.000000
6.243520 -7.829527 0.131092 234.000000
57.239513 54.775772 -1.493550 7.000000
76.388535 -5.408599 -0.187120 23.000000
23.755363 -12.588436 0.131384 10.000000
56.291729 53.493599 -1.518172 5.000000
61.617161 22.025745 -0.765219 2.000000
84.525574 -6.296169 -0.207108 27.000000
23.034369 -12.314712 0.141322 11.000000
5.949778 -7.577132 0.142933 125.000000
85.351456 80.515564 -2.396366 22.000000
61.782070 21.829649 -0.789144 1.000000
84.367340 -6.595408 -0.206778 35.000000
22.394924 -12.078599 0.150993 8.000000
6.118567 -7.851160 0.156366 10.000000
85.658707 80.214096 -2.519667 34.000000
78.125610 -6.368187 -0.205211 24.000000
21.724499 -11.815085 0.151066 9.000000
6.043469 -7.808063 0.162003 27.000000
86.108246 80.044731 -2.606360 18.000000
78.089462 -6.680899 -0.205185 4.000000
21.255772 -11.661315 0.160798 9.000000
5.958212 -7.753679 0.168978 43.000000
86.465477 79.788040 -2.711028 38.000000
93.598457 31.918213 -1.329081 16.000000
20.648453 -11.426786 0.172995 9.000000
5.905429 -7.743568 0.175085 25.000000
93.761742 31.590754 -1.364289 18.000000
20.108656 -11.224534 0.180875 9.000000
94.697083 31.519886 -1.411054 11.000000
19.611761 -11.037134 0.188535 10.000000
5.957757 -7.929222 0.197363 39.000000
95.314941 31.337959 -1.453570 21.000000
72.728447 -7.259264 -0.153079 9.000000
19.105831 -10.844804 0.195556 9.000000
95.299789 30.946392 -1.521567 16.000000
72.733482 -7.554766 -0.178678 16.000000
18.636356 -10.668824 0.194898 9.000000
6.058395 -8.190441 0.220516 49.000000
96.035698 30.796717 -1.566716 19.000000
72.896965 -7.816176 -0.166346 26.000000
18.263636 -10.544515 0.202446 9.000000
5.983736 -8.145869 0.227605 36.000000
97.533806 30.883347 -1.660740 1.000000
72.708778 -8.065660 -0.178751 13.000000
17.803181 -10.361698 0.204933 13.000000
6.049417 -8.295820 0.238375 146.000000
97.717354 30.547859 -1.697696 21.000000
72.708534 -8.335514 -0.178824 1.000000
17.769300 -10.429356 0.215771 27.000000
6.024707 -8.325865 0.247575 81.000000
98.129044 30.282200 -1.738766 14.000000
17.752367 -10.507087 0.226834 20.000000
6.050885 -8.423799 0.258915 80.000000
98.712234 30.066360 -1.783166 18.000000
79.077774 -9.653496 -0.166850 1.000000
17.683546 -10.554062 0.240826 18.000000
39.340832 33.766842 -1.611179 1.000000
79.101357 -9.950749 -0.180890 1.000000
17.680836 -10.636322 0.244895 18.000000
5.779469 -8.168681 0.265524 28.000000
39.520523 33.670300 -1.649755 1.000000
17.662992 -10.713950 0.256009 11.000000
5.846996 -8.328700 0.278914 21.000000
39.417419 33.333893 -1.685436 1.000000
17.610655 -10.770696 0.270235 13.000000
39.480778 33.140049 -1.727971 8.000000
17.619642 -10.860882 0.281792 10.000000
5.866517 -8.484977 0.302555 74.000000
39.616398 33.007137 -1.764641 1.000000
102.622238 29.232712 -2.086094 1.000000
17.566893 -10.917419 0.288808 13.000000
5.853709 -8.529951 0.310657 23.000000
25.665562 21.232399 -1.163200 4.000000
102.886795 28.900799 -2.126624 1.000000
17.560524 -11.002887 0.300217 11.000000
5.757560 -8.456109 0.316133 40.000000
25.533718 20.966171 -1.188376 8.000000
17.519943 -11.067090 0.311067 19.000000
5.741810 -8.496580 0.327644 8.000000
25.629112 20.887699 -1.212357 8.000000
59.417652 -8.996683 -0.104886 147.000000
17.497553 -11.130006 0.325770 13.000000
5.785606 -8.629396 0.341022 23.000000
39.886822 32.242123 -1.934448 70.000000
59.138950 -9.197474 -0.114904 46.000000
17.461054 -11.205493 0.333169 12.000000
5.743962 -8.638814 0.349583 14.000000
39.953503 32.077545 -1.968335 132.000000
84.159004 -13.404773 -0.148737 26.000000
17.436508 -11.280183 0.344364 10.000000
5.717865 -8.661726 0.358808 27.000000
84.459648 -13.770260 -0.164292 1.000000
17.413675 -11.351832 0.351952 11.000000
5.690195 -8.685600 0.366230 35.000000
83.841484 -13.985128 -0.148353 1.000000
17.355085 -11.404497 0.362486 10.000000
5.633640 -8.668419 0.373666 156.000000
59.009991 46.319660 -3.052375 1.000000
38.888283 -6.633326 -0.055083 1.000000
17.337957 -11.484450 0.377529 12.000000
5.608549 -8.696095 0.384864 26.000000
58.916706 45.898441 -3.117170 15.000000
13.119143 3.273402 -0.313926 1.000000
38.598885 -6.722700 -0.061544 8.000000
17.326763 -11.564254 0.385436 13.000000
26.684084 20.631245 -1.431383 4.000000
13.145562 3.228860 -0.316637 1.000000
17.271648 -11.619197 0.396058 10.000000
5.671706 -8.933733 0.410221 37.000000
26.857595 20.608559 -1.466226 6.000000
13.307707 3.217015 -0.329820 1.000000
17.249516 -11.696371 0.403808 18.000000
5.691977 -9.038706 0.423416 7.000000
27.190443 20.706068 -1.504149 7.000000
31.812778 7.567139 -0.793469 9.000000
84.188393 -15.618595 -0.119555 17.000000
17.266136 -11.795831 0.419763 23.000000
27.412691 20.724535 -1.548491 8.000000
31.649939 7.405945 -0.811432 7.000000
83.988724 -15.869834 -0.134264 19.000000
9.552168 -6.577304 0.234835 79.000000
5.208338 -8.403464 0.407458 9.000000
13.092979 3.015532 -0.337748 2.000000
83.959473 -16.183245 -0.119387 17.000000
9.509628 -6.594606 0.242408 12.000000
5.202298 -8.459522 0.419711 10.000000
33.276165 7.535733 -0.875555 24.000000
83.929008 -16.496643 -0.134358 23.000000
9.534492 -6.663731 0.247726 1.000000
5.792781 -9.497551 0.477935 8.000000
33.424927 7.440736 -0.902668 7.000000
9.502928 -6.691166 0.251570 1.000000
5.239557 -8.658357 0.443631 3.000000
76.070404 -15.532013 -0.135507 5.000000
17.223948 -12.222335 0.464526 9.000000
5.179352 -8.630122 0.448249 6.000000
87.444489 18.794369 -2.451458 3.000000
36.224613 -7.534731 -0.071035 21.000000
17.199165 -12.299777 0.476147 22.000000
5.159174 -8.664907 0.459699 6.000000
87.114975 18.389767 -2.502520 1.000000
36.235889 -7.675739 -0.071112 9.000000
17.176338 -12.374299 0.480404 18.000000
5.131313 -8.686955 0.465210 5.000000
36.212410 -7.809555 -0.064656 8.000000
17.187290 -12.478134 0.493113 20.000000
5.649546 -9.644839 0.525170 1.000000
17.201885 -12.585267 0.498574 32.000000
17.190523 -12.576955 0.457331 22.000000
36.309723 -7.830542 -0.194490 1.000000
17.200537 -12.487751 0.430397 24.000000
5.665193 -9.671552 0.505060 7.000000
13.573929 2.865424 -0.438403 1.000000
36.088615 -7.644543 -0.212470 5.000000
17.183487 -12.384006 0.410395 17.000000
13.133300 2.822729 -0.426850 1.000000
75.817932 -15.783958 -0.486598 20.000000
17.208769 -12.306645 0.387756 21.000000
5.198184 -8.730426 0.432969 10.000000
13.113102 2.868710 -0.426532 1.000000
75.997383 -15.530919 -0.541536 14.000000
17.231510 -12.232224 0.368857 9.000000
5.164589 -8.605523 0.417138 8.000000
12.687795 2.824435 -0.415303 1.000000
83.696114 -16.784906 -0.640651 3.000000
9.535404 -6.716523 0.191369 1.000000
5.201528 -8.595514 0.405279 5.000000
83.845276 -16.495382 -0.656241 37.000000
9.502669 -6.641490 0.184150 1.000000
5.806662 -9.520310 0.438140 1.000000
12.457272 2.869118 -0.410668 1.000000
83.948753 -16.196373 -0.731197 36.000000
9.517781 -6.602720 0.167817 152.000000
5.653311 -9.192920 0.412705 8.000000
12.461408 2.918208 -0.406682 1.000000
84.022034 -15.891317 -0.761174 35.000000
9.562580 -6.582013 0.162101 1.000000
5.235514 -8.447311 0.367891 60.000000
27.116163 20.656981 -1.691041 8.000000
12.412697 2.950254 -0.407639 1.000000
84.128464 -15.592289 -0.806419 32.000000
17.295002 -11.811126 0.270506 23.000000
5.348759 -8.559803 0.361293 9.000000
26.961971 20.696125 -1.662358 8.000000
12.264886 2.967188 -0.398763 1.000000
84.182236 -15.298506 -0.821352 24.000000
17.278303 -11.711489 0.258673 19.000000
5.751558 -9.133319 0.376915 28.000000
26.641691 20.605898 -1.629579 8.000000
12.255113 3.007877 -0.394358 1.000000
84.261902 -15.024505 -0.836579 19.000000
17.292303 -11.637478 0.243750 10.000000
5.637894 -8.880473 0.356302 37.000000
26.429003 20.596651 -1.597730 8.000000
12.335131 3.080067 -0.395107 1.000000
38.523140 -6.709508 -0.389025 10.000000
17.330698 -11.562510 0.229088 11.000000
5.736385 -8.966288 0.349387 59.000000
26.184862 20.561090 -1.575869 8.000000
12.542859 3.176161 -0.402096 1.000000
38.751961 -6.617033 -0.411698 8.000000
17.371265 -11.510875 0.210958 22.000000
5.705562 -8.849906 0.334588 21.000000
25.945675 20.527449 -1.542843 8.000000
12.099405 3.115605 -0.383912 1.000000
84.583984 -14.093807 -0.912974 30.000000
17.379814 -11.416404 0.199615 17.000000
5.596532 -8.611321 0.315576 43.000000
25.738100 20.517052 -1.517690 8.000000
12.398418 3.236480 -0.395977 1.000000
84.639641 -13.814771 -0.957984 35.000000
17.396776 -11.345141 0.181250 11.000000
5.629473 -8.596187 0.304969 26.000000
39.908955 32.053234 -2.324399 39.000000
12.174044 3.225615 -0.384785 1.000000
84.694244 -13.474869 -0.972952 37.000000
17.465500 -11.294615 0.166991 21.000000
5.644595 -8.550732 0.293350 7.000000
39.796650 32.203697 -2.279952 18.000000
59.171326 -9.191933 -0.689810 66.000000
17.456375 -11.198191 0.152031 13.000000
5.860008 -8.810009 0.293704 8.000000
25.400888 20.709078 -1.448094 8.000000
12.124938 3.312459 -0.379634 1.000000
59.317944 -8.992176 -0.722549 165.000000
17.501623 -11.136886 0.133964 10.000000
5.889671 -8.784613 0.280644 28.000000
12.396872 3.435627 -0.388540 1.000000
17.536257 -11.073113 0.115833 11.000000
5.861677 -8.677219 0.268721 43.000000
12.356605 3.468631 -0.385395 1.000000
17.551748 -11.001655 0.104848 12.000000
5.738896 -8.428699 0.249208 23.000000
39.575741 32.984970 -2.168310 5.000000
12.175698 3.466042 -0.375723 1.000000
17.583517 -10.932006 0.090342 20.000000
5.740128 -8.367571 0.239132 74.000000
39.547546 33.207863 -2.137304 16.000000
12.282956 3.545293 -0.379431 1.000000
74.728523 -10.249822 -1.013743 1.000000
17.621168 -10.861823 0.072256 10.000000
5.765234 -8.338487 0.226511 23.000000
39.426697 33.353546 -2.101252 17.000000
12.250819 3.584711 -0.374382 1.000000
74.904167 -9.994349 -1.028814 1.000000
17.631037 -10.778933 0.057707 22.000000
5.808702 -8.338980 0.218201 49.000000
39.324581 33.515213 -2.057179 17.000000
12.356232 3.669468 -0.373548 1.000000
74.821304 -9.704312 -1.027180 1.000000
17.674725 -10.716846 0.046899 17.000000
5.770421 -8.219624 0.205108 32.000000
39.338482 33.776749 -2.046241 17.000000
12.419399 3.737815 -0.371338 1.000000
17.696764 -10.641697 0.036041 18.000000
5.793396 -8.185335 0.194301 17.000000
39.275681 33.973694 -2.022205 13.000000
12.440402 3.789172 -0.372340 4.000000
17.712355 -10.567065 0.014399 16.000000
5.774197 -8.101105 0.182333 57.000000
39.091946 34.066048 -1.973844 14.000000
12.469536 3.848045 -0.369072 3.000000
17.763882 -10.509715 0.003602 18.000000
5.965817 -8.308432 0.178538 42.000000
39.300545 34.489929 -1.953887 5.000000
12.517487 3.913147 -0.366332 3.000000
72.590393 -8.334807 -1.058544 155.000000
17.780718 -10.431886 -0.007196 22.000000
5.893759 -8.144900 0.164956 113.000000
39.085861 34.531635 -1.912435 5.000000
12.474592 3.949986 -0.360927 2.000000
72.580521 -8.064256 -1.070711 255.000000
17.832493 -10.382925 -0.018007 10.000000
5.851558 -8.027431 0.154318 67.000000
38.922943 34.642536 -1.865132 9.000000
12.450631 3.992667 -0.356087 1.000000
72.609406 -7.798162 -1.083456 255.000000
18.202002 -10.513167 -0.029349 9.000000
5.978690 -8.139001 0.148068 12.000000
31.453850 28.221926 -1.483101 9.000000
12.455045 4.044487 -0.352060 1.000000
72.617424 -7.529901 -1.095902 255.000000
18.730064 -10.718128 -0.052730 9.000000
6.082919 -8.217593 0.140979 255.000000
38.825363 35.069099 -1.808726 6.000000
95.110077 31.270605 -2.691649 23.000000
72.503593 -7.262382 -1.119236 169.000000
19.130699 -10.863334 -0.065275 10.000000
6.102699 -8.184418 0.128299 161.000000
38.692818 35.232452 -1.763405 8.000000
94.502502 31.455118 -2.642907 19.000000
19.688337 -11.075706 -0.078854 10.000000
5.976550 -7.954233 0.116350 25.000000
38.819801 35.584259 -1.737755 14.000000
94.073967 31.695950 -2.634154 26.000000
20.137682 -11.245346 -0.100640 9.000000
38.645039 35.673103 -1.689551 204.000000
93.348602 31.833008 -2.548190 29.000000
20.638052 -11.425736 -0.107048 9.000000
5.784826 -7.585426 0.093241 115.000000
38.598846 35.893379 -1.665646 13.000000
93.548286 32.284328 -2.539571 10.000000
77.709892 -6.662088 -1.252475 21.000000
21.188147 -11.629026 -0.130772 9.000000
5.893561 -7.672317 0.084429 15.000000
85.652748 80.236580 -3.626800 22.000000
78.084579 -6.378561 -1.271768 10.000000
21.797121 -11.859511 -0.147254 9.000000
85.407616 80.596710 -3.526330 29.000000
22.403654 -12.083307 -0.164380 8.000000
6.028326 -7.732583 0.066740 64.000000
56.221855 53.445869 -2.275171 20.000000
90.992996 32.508560 -2.378356 23.000000
23.001137 -12.302106 -0.182106 18.000000
6.065927 -7.722275 0.058273 73.000000
90.539856 32.721363 -2.352819 14.000000
23.761549 -12.597027 -0.211231 10.000000
6.491404 -8.201870 0.051117 127.000000
57.164722 55.126255 -2.190514 11.000000
89.913063 32.867924 -2.306209 17.000000
84.688271 -5.669529 -1.437093 12.000000
24.533325 -12.891210 -0.232182 10.000000
6.563652 -8.233929 0.042270 37.000000
56.665546 55.047134 -2.137706 1.000000
89.384842 33.046722 -2.262467 27.000000
25.334156 -13.193748 -0.254259 10.000000
6.537454 -8.139676 0.030976 46.000000
89.596283 33.498680 -2.237504 32.000000
25.790968 -13.311711 -0.273550 27.000000
6.257674 -7.735863 0.020839 7.000000
68.810379 67.832558 -2.462677 35.000000
89.684395 33.906799 -2.192563 28.000000
25.886108 -13.246591 -0.289294 30.000000
6.497634 -7.972567 0.012565 8.000000
56.318432 55.907097 -1.953277 8.000000
89.737663 34.303375 -2.163372 24.000000
28.141617 -14.270883 -0.330437 7.000000
6.450664 -7.855962 0.003548 10.000000
30.032970 30.032970 -1.008350 11.000000
89.910782 34.747780 -2.120106 23.000000
28.993122 -14.569343 -0.368126 8.000000
6.442996 -7.791012 -0.005294 151.000000
29.905569 30.125597 -0.978122 21.000000
77.315605 -3.470316 -1.337396 24.000000
30.017342 -14.946475 -0.397992 9.000000
6.417094 -7.702035 -0.013998 24.000000
55.952389 56.778763 -1.781149 15.000000
90.105339 35.584297 -2.096954 29.000000
31.210573 -15.398125 -0.431287 10.000000
6.498561 -7.744683 -0.026468 26.000000
56.121330 57.329227 -1.736533 8.000000
90.312874 36.012917 -2.053620 33.000000
32.499031 -15.892987 -0.467268 19.000000
6.517201 -7.709337 -0.035238 36.000000
90.349045 36.448368 -2.023731 28.000000
76.538055 -2.619270 -1.363500 1.000000
33.780647 -16.366585 -0.504486 8.000000
6.457860 -7.582595 -0.043459 82.000000
55.733162 57.794071 -1.597703 1.000000
90.410233 36.858925 -1.976970 21.000000
76.411819 -2.347941 -1.361097 1.000000
35.341148 -16.962988 -0.540545 8.000000
6.474496 -7.548590 -0.052072 34.000000
55.470051 57.944767 -1.526211 17.000000
91.132179 37.524765 -1.961193 1.000000
36.937954 -17.563139 -0.585400 8.000000
6.475935 -7.494506 -0.060506 255.000000
25.612328 26.942635 -0.674833 9.000000
90.810364 37.782108 -1.905715 19.000000
37.969692 -17.883373 -0.622689 8.000000
6.523020 -7.493304 -0.069359 26.000000
25.441748 26.960392 -0.640578 9.000000
90.920425 38.219429 -1.893732 29.000000
38.297256 -17.866442 -0.663870 8.000000
6.608413 -7.538104 -0.080485 28.000000
25.346478 27.057426 -0.614781 9.000000
91.024208 38.656239 -1.864299 32.000000
38.646652 -17.849075 -0.691028 8.000000
6.582283 -7.447772 -0.088477 25.000000
25.301964 27.209105 -0.583684 9.000000
90.951721 39.019547 -1.813893 29.000000
38.897987 -17.792467 -0.709287 8.000000
6.596184 -7.408600 -0.096955 26.000000
25.251261 27.345371 -0.552224 8.000000
91.024261 39.446312 -1.783571 19.000000
39.056599 -17.708639 -0.733564 8.000000
6.706113 -7.484591 -0.106995 24.000000
55.117100 60.086567 -1.138546 1.000000
91.131798 39.890289 -1.736427 29.000000
39.184856 -17.593933 -0.749755 20.000000
6.783685 -7.515561 -0.116629 31.000000
54.916477 60.352425 -1.068176 1.000000
91.159554 40.301216 -1.687556 21.000000
39.210648 -17.449507 -0.771616 18.000000
6.751355 -7.430057 -0.122659 25.000000
54.948406 60.769947 -1.015299 1.000000
91.669693 40.890686 -1.664453 16.000000
39.365582 -17.345881 -0.788430 21.000000
6.716424 -7.339972 -0.130241 36.000000
54.742565 60.990173 -0.944090 1.000000
91.501755 41.218536 -1.611575 26.000000
39.616379 -17.283274 -0.814818 17.000000
6.716093 -7.285811 -0.138365 36.000000
18.036697 20.243946 -0.288675 6.000000
91.667549 41.678741 -1.564309 36.000000
26.090155 -11.268599 -0.550647 63.000000
6.783490 -7.305017 -0.147902 33.000000
17.913078 20.247051 -0.264232 13.000000
91.873596 42.179447 -1.535156 17.000000
26.218433 -11.210162 -0.562441 97.000000
6.987724 -7.469858 -0.160686 35.000000
87.060806 40.356888 -1.406943 34.000000
26.668795 -11.287287 -0.586380 38.000000
7.065077 -7.499900 -0.170856 42.000000
26.921692 -11.278153 -0.611414 26.000000
59.218056 28.245564 -0.858874 3.000000
27.102934 -11.126777 -0.639285 6.000000
6.895884 -7.163381 -0.189183 37.000000
27.120066 -11.017831 -0.654067 9.000000
6.848892 -7.062574 -0.195771 25.000000
27.937386 32.989296 -0.203716 1.000000
27.183243 -10.927593 -0.664852 6.000000
6.930526 -7.094539 -0.204287 31.000000
27.959902 33.238758 -0.166778 1.000000
94.398697 46.245445 -1.229273 9.000000
27.236719 -10.833301 -0.680540 8.000000
7.065047 -7.179412 -0.216269 46.000000
94.383133 46.708557 -1.176355 20.000000
7.016039 -7.080006 -0.222713 36.000000
94.073181 46.985188 -1.119566 13.000000
49.743748 60.494419 -0.082016 1.000000
93.606186 47.181400 -1.061166 14.000000
30.380737 -11.698590 -0.795634 24.000000
49.606144 60.736523 -0.027374 23.000000
93.531151 47.574276 -1.007336 14.000000
30.493214 -11.613746 -0.808856 9.000000
7.751136 -7.651668 -0.269990 22.000000
73.344429 38.278366 -0.664232 4.000000
33.319717 -12.272476 -0.923608 9.000000
8.080982 -7.806440 -0.307956 31.000000
94.178131 49.591492 -0.798816 19.000000
33.284325 -12.121084 -0.933762 7.000000
8.181489 -7.845767 -0.320588 14.000000
94.000504 49.938873 -0.743120 29.000000
100.076698 7.120920 -1.751262 1.000000
33.145660 -11.946243 -0.928756 35.000000
8.282467 -7.884531 -0.329403 65.000000
94.138855 50.434509 -0.689680 1.000000
100.169868 7.496648 -1.735824 1.000000
33.200241 -11.822074 -0.947472 9.000000
94.402008 51.064270 -0.655638 31.000000
33.421867 -11.763142 -0.977315 8.000000
16.009487 -15.023396 -0.674610 29.000000
94.460800 51.501698 -0.582115 30.000000
33.549728 -11.670123 -0.979796 12.000000
16.031271 -14.933718 -0.684700 32.000000
20.630247 26.993006 0.266836 1.000000
94.644135 52.052567 -0.509007 25.000000
93.397293 8.023394 -1.603528 6.000000
33.554840 -11.547307 -0.991218 23.000000
16.063528 -14.854173 -0.699037 31.000000
20.493437 27.008894 0.295873 8.000000
94.758995 52.569016 -0.453917 34.000000
33.459377 -11.377470 -0.999506 45.000000
16.132135 -14.808298 -0.718786 31.000000
20.379074 27.063595 0.331133 8.000000
94.688553 52.963028 -0.397654 1.000000
33.646603 -11.290654 -1.016135 25.000000
16.120567 -14.694324 -0.731226 27.000000
20.282553 27.141865 0.360750 8.000000
101.578972 9.852520 -1.710119 10.000000
33.787872 -11.213536 -1.031710 7.000000
16.155312 -14.617944 -0.749401 39.000000
20.250050 27.296560 0.391528 8.000000
64.012672 36.423393 -0.192815 7.000000
101.298744 10.200247 -1.688245 1.000000
33.861645 -11.100408 -1.045163 7.000000
16.193516 -14.544924 -0.763910 28.000000
20.152575 27.374277 0.427183 7.000000
101.270912 10.572526 -1.670640 8.000000
16.205189 -14.448447 -0.780928 31.000000
16.242657 -14.375344 -0.795352 40.000000
33.470203 19.527075 -0.033816 9.000000
99.201721 -31.278183 -3.196144 1.000000
16.272293 -14.295559 -0.809374 23.000000
73.110718 8.433338 -1.181827 152.000000
99.395554 -30.977301 -3.199062 1.000000
16.297682 -14.212365 -0.826938 28.000000
50.565380 70.733246 1.411435 1.000000
73.002930 8.666307 -1.180542 231.000000
16.339199 -14.148467 -0.841645 29.000000
50.390690 71.064079 1.520628 1.000000
66.020401 39.481102 0.067130 19.000000
72.841850 8.918046 -1.165647 235.000000
16.375225 -14.074973 -0.859711 24.000000
50.186638 71.328941 1.598484 1.000000
65.917992 39.748585 0.134347 25.000000
72.771347 9.206062 -1.126684 226.000000
79.946198 -23.954596 -2.651931 26.000000
16.415071 -14.004939 -0.866646 27.000000
65.404404 39.766502 0.160315 20.000000
72.786491 9.479152 -1.140263 8.000000
80.267387 -23.730576 -2.688929 10.000000
16.419844 -13.905344 -0.886771 35.000000
26.798306 38.672813 0.952703 14.000000
65.036438 39.869999 0.213028 18.000000
84.320435 -24.593134 -2.852358 15.000000
16.454926 -13.831810 -0.900955 34.000000
26.664858 38.739643 0.993340 7.000000
64.632973 39.933723 0.278462 23.000000
84.860970 -24.413656 -2.883025 28.000000
16.474461 -13.745500 -0.910514 27.000000
26.820917 39.273804 1.054335 8.000000
64.252625 40.024860 0.317090 21.000000
84.945068 -24.101095 -2.882862 28.000000
16.485638 -13.652651 -0.927074 32.000000
63.952858 40.164230 0.369059 18.000000
85.104050 -23.809517 -2.916157 28.000000
16.550497 -13.604411 -0.942896 32.000000
26.518490 39.433937 1.144796 1.000000
63.522018 40.219051 0.406788 23.000000
44.531445 -12.282728 -1.540495 2.000000
16.564901 -13.514819 -0.955843 30.000000
45.864624 68.719124 2.076877 1.000000
29.492371 18.817671 0.213710 8.000000
24.139515 -6.563085 -0.842972 9.000000
8.881397 -7.192013 -0.518953 17.000000
45.625229 68.906067 2.149625 13.000000
29.448332 18.941805 0.232227 8.000000
24.066730 -6.448661 -0.843953 11.000000
8.906163 -7.160739 -0.526931 36.000000
25.914022 39.435326 1.276862 14.000000
29.395269 19.060347 0.269047 8.000000
24.080254 -6.357781 -0.852308 15.000000
8.912613 -7.112299 -0.531750 23.000000
25.367268 38.943020 1.314440 14.000000
29.361923 19.184641 0.287719 8.000000
24.021177 -6.248095 -0.849401 22.000000
8.997055 -7.125866 -0.543256 1.000000
25.328325 39.151630 1.359515 9.000000
29.312109 19.305761 0.312427 9.000000
24.082500 -6.169896 -0.855108 15.000000
16.717844 -13.150923 -1.021694 10.000000
25.518579 39.764538 1.427063 9.000000
29.357647 19.490404 0.332124 8.000000
24.250015 -6.118187 -0.868995 16.000000
16.761917 -13.077010 -1.039767 10.000000
29.372242 19.648159 0.370073 7.000000
24.359272 -6.050875 -0.880882 6.000000
16.777857 -12.990805 -1.045220 9.000000
29.333029 19.777929 0.389016 8.000000
13.037733 -3.187901 -0.468700 1.000000
16.840614 -12.940948 -1.061032 9.000000
29.351080 19.946974 0.415000 8.000000
12.976136 -3.122482 -0.475401 1.000000
16.875427 -12.869600 -1.075100 8.000000
20.912149 33.636017 1.355417 8.000000
13.050787 -3.089886 -0.475374 2.000000
16.905619 -12.804181 -1.085445 8.000000
20.809595 33.733101 1.397949 8.000000
13.091060 -3.048794 -0.481128 2.000000
17.028137 -12.789735 -1.104914 8.000000
20.651682 33.740124 1.443637 9.000000
37.977093 7.354488 -0.425355 8.000000
13.136323 -3.008620 -0.480028 1.000000
17.066269 -12.720805 -1.119256 7.000000
20.576481 33.895653 1.481705 9.000000
28.758495 20.151878 0.514868 6.000000
37.872784 7.471540 -0.417738 7.000000
13.151973 -2.961513 -0.484912 1.000000
17.023838 -12.592379 -1.128263 7.000000
23.555714 39.110458 1.753939 8.000000
28.724976 20.285774 0.540151 10.000000
37.776588 7.596515 -0.410255 15.000000
13.016799 -2.878605 -0.481847 1.000000
17.105461 -12.556020 -1.145471 7.000000
23.493073 39.331917 1.816055 9.000000
60.455734 43.011314 1.230309 2.000000
37.944687 7.775124 -0.385344 8.000000
17.175255 -12.510641 -1.154506 7.000000
60.195763 43.159527 1.254092 13.000000
33.447517 6.981458 -0.333967 64.000000
36.068047 -7.699404 -1.339462 1.000000
17.163689 -12.406187 -1.165493 7.000000
23.758438 40.430584 1.949064 14.000000
59.902721 43.282722 1.302893 17.000000
33.392422 7.097778 -0.327715 112.000000
9.452033 -6.779476 -0.648290 8.000000
20.388311 34.974442 1.725065 10.000000
59.924122 43.617371 1.371363 9.000000
33.310268 7.195850 -0.303348 179.000000
9.448070 -6.724325 -0.652415 9.000000
20.307697 35.117321 1.771165 10.000000
33.276287 7.328444 -0.297357 217.000000
83.839149 -16.935394 -3.136335 4.000000
9.431595 -6.660656 -0.655652 8.000000
59.653034 44.092606 1.502036 8.000000
33.245770 7.443496 -0.279475 251.000000
83.910469 -16.629940 -3.136702 18.000000
9.504719 -6.660221 -0.665131 10.000000
59.553814 44.341557 1.568248 9.000000
33.225964 7.554852 -0.255728 243.000000
84.053688 -16.338383 -3.154761 27.000000
9.524583 -6.622223 -0.672943 8.000000
18.802343 33.341564 1.798439 6.000000
36.666420 27.509916 1.000212 9.000000
33.183475 7.673210 -0.249671 255.000000
83.877953 -15.985404 -3.131022 27.000000
17.231850 -11.887456 -1.221733 7.000000
18.657784 33.356823 1.849225 5.000000
59.431831 44.882751 1.703091 9.000000
33.140690 7.791388 -0.225793 255.000000
85.287247 -15.930263 -3.166264 12.000000
17.332592 -11.872316 -1.233436 7.000000
59.393021 45.196228 1.771880 1.000000
17.330221 -11.777607 -1.237527 9.000000
59.275894 45.107101 1.859443 1.000000
38.747334 -7.090497 -1.382439 7.000000
17.318899 -11.769911 -1.214715 8.000000
18.671453 33.381264 1.890729 5.000000
33.155651 7.794905 -0.160503 255.000000
85.352005 -15.942359 -3.001760 18.000000
17.330051 -11.870576 -1.200149 8.000000
18.798319 33.334427 1.865000 8.000000
36.766754 27.555119 1.114884 7.000000
33.208382 7.678970 -0.154672 255.000000
83.946053 -16.043938 -2.909849 32.000000
17.262632 -11.917588 -1.180132 8.000000
59.545742 44.303246 1.762031 13.000000
33.246052 7.559420 -0.154718 255.000000
83.986092 -16.340454 -2.898149 34.000000
9.548272 -6.643640 -0.644230 9.000000
59.760975 44.124023 1.711713 5.000000
33.273510 7.437511 -0.160668 255.000000
83.824165 -16.628040 -2.849849 30.000000
9.475172 -6.644450 -0.632833 10.000000
20.335636 35.165638 1.865956 10.000000
33.305458 7.316586 -0.154740 255.000000
83.656830 -16.913765 -2.786598 1.000000
9.434983 -6.667987 -0.619643 9.000000
20.403574 35.000626 1.832625 10.000000
33.332050 7.194467 -0.154740 255.000000
9.455479 -6.734572 -0.616510 6.000000
23.691942 40.301323 2.065647 13.000000
59.997662 43.303528 1.601606 9.000000
33.348389 7.070171 -0.160645 64.000000
9.459646 -6.789937 -0.606173 1.000000
60.112553 43.068108 1.561913 20.000000
33.481712 6.970303 -0.173101 26.000000
36.118450 -7.729939 -1.173678 6.000000
17.041327 -12.326799 -1.080171 18.000000
60.180809 42.784084 1.533815 8.000000
37.852200 7.735523 -0.188805 9.000000
17.000822 -12.392668 -1.062068 22.000000
23.555504 39.110111 1.889603 9.000000
28.692348 20.240225 0.704856 17.000000
37.796925 7.580016 -0.195118 10.000000
83.337456 -18.444952 -2.637631 37.000000
16.959906 -12.458289 -1.047629 17.000000
20.576410 33.895535 1.613392 10.000000
28.747225 20.136501 0.692304 4.000000
37.841511 7.458509 -0.188488 9.000000
83.172234 -18.728420 -2.619662 30.000000
16.938942 -12.538733 -1.030730 25.000000
20.693552 33.808529 1.571273 9.000000
60.498661 42.032005 1.401610 14.000000
37.820713 7.303661 -0.201689 9.000000
83.128273 -19.038916 -2.590662 30.000000
16.897446 -12.604146 -1.016258 21.000000
20.749056 33.634964 1.538931 9.000000
60.632519 41.796345 1.349723 19.000000
83.037895 -19.369360 -2.545561 33.000000
16.853910 -12.663476 -1.001540 29.000000
20.925810 33.644890 1.501331 9.000000
60.636234 41.518494 1.308404 15.000000
82.925423 -19.633307 -2.514322 27.000000
16.839794 -12.749702 -0.988693 30.000000
25.029665 39.931664 1.744568 1.000000
60.734978 41.259953 1.255988 17.000000
82.877625 -19.943060 -2.500182 30.000000
16.825262 -12.835988 -0.975789 33.000000
60.956623 41.084812 1.231782 6.000000
16.770983 -12.892097 -0.953177 32.000000
25.525881 40.083042 1.667765 10.000000
29.351982 19.619778 0.566949 1.000000
43.821087 -10.901456 -1.285004 8.000000
16.767582 -12.987531 -0.940847 31.000000
25.580053 39.860329 1.620822 14.000000
29.369614 19.476202 0.559755 5.000000
24.320774 -6.145069 -0.705072 10.000000
16.744007 -13.067740 -0.927348 32.000000
25.384872 39.239040 1.550336 14.000000
29.286737 19.267073 0.520106 8.000000
24.225588 -6.215567 -0.698599 29.000000
16.688652 -13.123243 -0.912091 26.000000
25.683290 39.398087 1.527284 14.000000
29.391642 19.189423 0.508521 8.000000
24.125488 -6.284219 -0.687663 23.000000
8.990020 -7.122848 -0.484736 25.000000
25.979326 39.534706 1.486671 13.000000
29.358839 19.029448 0.488537 11.000000
124.944000 19.923330 -0.794975 12.000000
24.143295 -6.374426 -0.684408 28.000000
8.913361 -7.115443 -0.474029 22.000000
29.390753 18.897518 0.469613 10.000000
24.168276 -6.475870 -0.677044 10.000000
8.871904 -7.135744 -0.465250 9.000000
29.401075 18.752199 0.444327 8.000000
44.469700 -12.090485 -1.214800 5.000000
8.857710 -7.177953 -0.453924 1.000000
63.575638 40.237457 0.945532 22.000000
44.444565 -12.258765 -1.207281 3.000000
16.552563 -13.514380 -0.832112 32.000000
26.615313 39.266350 1.325021 9.000000
63.982838 40.136360 0.896446 14.000000
85.089577 -23.837500 -2.283066 28.000000
16.534235 -13.600715 -0.818722 26.000000
26.815125 39.265320 1.270003 1.000000
64.311462 40.045937 0.833063 22.000000
125.076355 17.622862 -0.903883 179.000000
85.015633 -24.121117 -2.252348 28.000000
16.473059 -13.651931 -0.806947 34.000000
26.840326 38.994572 1.231347 14.000000
64.754288 39.977451 0.810237 16.000000
84.942886 -24.469330 -2.222129 28.000000
16.479649 -13.754707 -0.787107 37.000000
26.791855 38.634697 1.173663 14.000000
65.028763 39.818459 0.758601 20.000000
85.021301 -24.829760 -2.195609 4.000000
16.452488 -13.834661 -0.773199 26.000000
65.455582 39.781971 0.721927 20.000000
72.872734 9.451583 -0.525843 29.000000
16.398264 -13.891986 -0.758016 26.000000
65.819649 39.673622 0.684091 15.000000
72.792694 9.170042 -0.537825 238.000000
79.901436 -23.941181 -1.994825 25.000000
16.389448 -13.988019 -0.744912 27.000000
50.300465 70.884384 1.957267 1.000000
66.095352 39.525925 0.645192 24.000000
72.900177 8.912272 -0.551193 255.000000
79.699020 -24.199219 -1.962882 21.000000
16.368870 -14.074479 -0.727455 28.000000
50.424431 70.510071 1.861201 1.000000
66.502472 39.439198 0.593769 13.000000
73.030045 8.669526 -0.564779 250.000000
99.600243 -30.641035 -2.419377 1.000000
16.321331 -14.137980 -0.712549 37.000000
66.836479 39.306870 0.554860 1.000000
73.155701 8.412652 -0.565509 112.000000
99.535789 -31.021004 -2.384145 1.000000
16.299896 -14.224317 -0.698765 30.000000
33.481445 19.525803 0.270594 7.000000
16.266958 -14.300937 -0.676891 26.000000
83.351624 8.966578 -0.643800 64.000000
16.228516 -14.367879 -0.662228 36.000000
20.177166 27.377647 0.605515 8.000000
63.537041 36.417465 0.421801 164.000000
83.353981 8.657908 -0.658196 75.000000
16.213469 -14.460910 -0.644796 34.000000
20.212749 27.246283 0.574397 8.000000
63.827137 36.303078 0.384477 179.000000
83.307610 8.373948 -0.657607 16.000000
16.173193 -14.521569 -0.629918 25.000000
20.285826 27.136366 0.544069 8.000000
64.155914 36.179512 0.347090 178.000000
34.060333 -11.303962 -0.751728 7.000000
16.157251 -14.614571 -0.616157 34.000000
20.374689 27.057772 0.514351 8.000000
94.810616 53.031303 0.436088 1.000000
34.118435 -11.462238 -0.741363 6.000000
16.128391 -14.706610 -0.598241 34.000000
20.555965 27.071672 0.486510 8.000000
94.772789 52.555038 0.378282 31.000000
36.698429 -12.478871 -0.784877 15.000000
16.089407 -14.779428 -0.583536 26.000000
94.566216 51.988220 0.320190 30.000000
93.309441 7.999441 -0.784593 25.000000
36.723602 -12.637781 -0.772838 9.000000
16.060102 -14.856205 -0.565246 32.000000
34.095032 -11.873147 -0.699521 7.000000
16.038740 -14.945903 -0.551103 28.000000
49.205757 63.412815 0.938632 1.000000
16.000303 -15.009526 -0.536164 28.000000
49.467407 63.292622 0.855271 24.000000
94.158363 50.444962 0.149149 29.000000
33.564899 -11.965126 -0.665539 10.000000
8.218910 -7.772237 -0.266579 57.000000
94.095383 49.968224 0.092974 28.000000
100.219032 7.113467 -0.876799 18.000000
33.793797 -12.186506 -0.658415 20.000000
8.157960 -7.771436 -0.255686 33.000000
73.009186 38.428265 0.028800 201.000000
30.463495 -11.105873 -0.582959 25.000000
7.856752 -7.536988 -0.239464 123.000000
72.923470 38.042477 0.000000 229.000000
30.422775 -11.217523 -0.571641 25.000000
72.944771 37.730255 -0.057334 229.000000
30.714312 -11.453071 -0.560735 22.000000
7.858865 -7.650423 -0.223996 22.000000
30.709732 -11.579747 -0.549962 11.000000
7.823771 -7.672310 -0.214229 18.000000
49.641380 60.758015 0.410814 28.000000
93.319496 47.405136 -0.182684 18.000000
7.738824 -7.644850 -0.203172 9.000000
49.917885 60.641441 0.370133 1.000000
93.349670 46.990829 -0.200645 23.000000
30.316664 -11.686070 -0.510409 10.000000
7.694517 -7.654333 -0.191340 32.000000
53.011101 63.942963 0.289934 1.000000
93.834290 46.804501 -0.292824 27.000000
53.049706 63.514294 0.231095 1.000000
94.561775 46.755878 -0.312995 30.000000
27.127850 -10.685944 -0.442759 35.000000
28.011562 33.300175 0.075948 4.000000
94.359550 46.226265 -0.403458 33.000000
29.875616 -11.894993 -0.471473 10.000000
6.902069 -7.018694 -0.152920 33.000000
28.091433 33.147728 0.045501 1.000000
29.813416 -11.997006 -0.459962 10.000000
6.919551 -7.085778 -0.143481 33.000000
59.219006 28.474728 -0.321118 1.000000
29.755499 -12.100608 -0.448535 30.000000
6.858787 -7.075248 -0.137597 39.000000
58.925686 28.068247 -0.330360 7.000000
41.157593 -16.896746 -0.597952 9.000000
6.890870 -7.155673 -0.128311 36.000000
94.144470 44.421501 -0.599570 28.000000
26.994869 -11.203727 -0.382609 24.000000
6.889778 -7.212261 -0.121865 26.000000
94.475502 44.175156 -0.618895 22.000000
26.529684 -11.124820 -0.356504 29.000000
86.996025 40.289970 -0.652595 182.000000
26.387512 -11.179100 -0.350139 34.000000
7.098616 -7.538138 -0.110243 38.000000
17.904257 20.222853 -0.117853 13.000000
91.705681 42.063602 -0.721983 16.000000
26.332735 -11.269908 -0.334959 60.000000
6.777373 -7.250064 -0.097004 25.000000
17.954885 20.130890 -0.141240 5.000000
91.572083 41.596767 -0.772391 22.000000
26.557528 -11.481464 -0.328250 31.000000
6.667040 -7.182128 -0.087230 28.000000
54.956963 61.186050 -0.488049 1.000000
91.554855 41.184799 -0.823536 18.000000
39.550919 -17.271151 -0.467027 12.000000
6.684766 -7.254367 -0.079200 31.000000
54.998295 60.825123 -0.558186 1.000000
91.412605 40.718636 -0.855842 27.000000
39.341110 -17.351496 -0.450287 21.000000
6.722295 -7.348963 -0.071272 35.000000
91.189949 40.257587 -0.904700 26.000000
39.193729 -17.450172 -0.426828 8.000000
6.676463 -7.350212 -0.064125 32.000000
91.159981 39.864716 -0.955117 26.000000
39.193581 -17.597851 -0.412428 21.000000
6.661355 -7.377442 -0.057250 35.000000
25.228573 27.301674 -0.343873 8.000000
91.103287 39.442791 -0.987659 25.000000
39.012077 -17.696663 -0.388798 8.000000
6.631722 -7.404164 -0.046841 37.000000
25.256716 27.131943 -0.375250 9.000000
91.076721 39.035534 -1.037701 28.000000
76.785355 -0.978368 -0.723765 1.000000
38.806217 -17.775066 -0.365043 8.000000
6.637784 -7.465811 -0.040102 22.000000
25.321556 27.002470 -0.407048 9.000000
90.993324 38.605629 -1.069639 35.000000
76.721260 -1.258809 -0.723200 1.000000
38.559406 -17.833284 -0.348503 8.000000
6.568684 -7.440232 -0.031180 36.000000
25.439436 26.939096 -0.439767 9.000000
90.824821 38.141937 -1.117593 33.000000
76.481461 -1.521934 -0.720985 167.000000
38.358036 -17.911104 -0.325106 8.000000
6.630361 -7.565804 -0.022825 14.000000
25.624859 26.955818 -0.467394 9.000000
90.769745 37.728046 -1.149524 23.000000
76.515984 -1.776475 -0.721362 139.000000
37.882435 -17.842276 -0.299649 9.000000
6.520556 -7.495757 -0.013872 24.000000
90.661789 37.294067 -1.197755 28.000000
76.413277 -2.081029 -0.720466 41.000000
36.847561 -17.528042 -0.270627 8.000000
90.487221 36.835068 -1.227765 15.000000
76.245209 -2.356142 -0.718958 213.000000
35.313805 -16.957449 -0.246142 8.000000
90.385696 36.444813 -1.275777 21.000000
76.611740 -2.621792 -0.722493 255.000000
33.664494 -16.303057 -0.215436 8.000000
6.500638 -7.638223 0.012254 37.000000
55.914429 57.137821 -1.283785 23.000000
90.296570 36.006413 -1.340437 30.000000
76.691429 -2.905974 -0.736736 243.000000
32.480495 -15.890947 -0.201954 8.000000
6.528792 -7.725782 0.019419 27.000000
55.935390 56.702106 -1.348555 1.000000
90.139145 35.561283 -1.369987 32.000000
76.790161 -3.191610 -0.737792 242.000000
31.153391 -15.383437 -0.175859 8.000000
6.468286 -7.711336 0.028107 28.000000
29.956299 30.166168 -0.756916 25.000000
76.907806 -3.478913 -0.739040 116.000000
29.974386 -14.925087 -0.151950 9.000000
6.391456 -7.671264 0.034854 12.000000
30.046679 30.025705 -0.793362 11.000000
28.947538 -14.552766 -0.130062 8.000000
6.435199 -7.784350 0.045832 30.000000
89.808250 34.294437 -1.493402 7.000000
6.489058 -7.908347 0.055349 16.000000
89.881401 33.945427 -1.526085 1.000000
90.812363 -5.108999 -0.857265 3.000000
25.862707 -13.240313 -0.086208 19.000000
6.442432 -7.907652 0.064088 35.000000
89.494225 33.424919 -1.550776 17.000000
90.827957 -5.443902 -0.857595 1.000000
25.827358 -13.341913 -0.076105 37.000000
6.180726 -7.643466 0.070341 33.000000
56.710876 55.071938 -1.738700 1.000000
89.432198 33.028751 -1.614169 30.000000
25.295172 -13.173446 -0.069687 9.000000
57.189514 55.150162 -1.816829 22.000000
24.432337 -12.838145 -0.052988 9.000000
6.480736 -8.127002 0.088898 39.000000
23.654055 -12.545327 -0.032712 9.000000
56.140747 53.350121 -1.892761 14.000000
22.990606 -12.291314 -0.022750 10.000000
22.439499 -12.112755 -0.004451 8.000000
6.042095 -7.753034 0.111515 38.000000
85.686150 80.267876 -3.074482 25.000000
78.060265 -6.390290 -0.751854 25.000000
21.736017 -11.826265 0.000000 9.000000
5.997942 -7.749243 0.118016 37.000000
86.029022 79.999077 -3.178834 22.000000
93.444878 32.212139 -1.932361 19.000000
78.136078 -6.684887 -0.739127 3.000000
21.155743 -11.616048 0.012637 9.000000
5.831056 -7.593689 0.123662 69.000000
86.422829 79.776627 -3.264732 33.000000
93.384926 31.845396 -1.963381 25.000000
20.675245 -11.441613 0.024745 9.000000
5.808806 -7.616871 0.132086 81.000000
93.874611 31.628782 -2.005819 16.000000
20.139811 -11.241924 0.036230 9.000000
94.572639 31.478464 -2.053062 17.000000
19.636620 -11.055637 0.047197 10.000000
5.955215 -7.925838 0.154008 193.000000
38.959381 35.177807 -1.585407 2.000000
95.156471 31.285858 -2.115704 22.000000
72.577530 -7.282583 -0.662019 191.000000
19.078543 -10.833717 0.057439 10.000000
6.041160 -8.104837 0.167622 76.000000
31.308046 28.071383 -1.299433 5.000000
95.417183 30.984512 -2.153996 23.000000
72.654785 -7.559410 -0.662972 253.000000
18.689093 -10.699014 0.071413 9.000000
6.046999 -8.175035 0.177491 18.000000
39.036263 34.743393 -1.669674 1.000000
72.619263 -7.799220 -0.675628 255.000000
18.221062 -10.519936 0.073443 9.000000
6.052337 -8.239259 0.185588 49.000000
39.162460 34.599308 -1.706157 1.000000
97.236382 30.789171 -2.278959 1.000000
72.605217 -8.067000 -0.663017 255.000000
17.819391 -10.375298 0.082774 10.000000
5.887952 -8.074397 0.190134 192.000000
39.423134 34.573158 -1.757790 3.000000
97.458237 30.429516 -2.334764 20.000000
72.607010 -8.362394 -0.663335 109.000000
17.746712 -10.420262 0.093389 23.000000
5.981326 -8.271993 0.204914 33.000000
39.209431 34.132324 -1.779006 8.000000
98.169609 30.294718 -2.367326 23.000000
17.774712 -10.520311 0.108149 25.000000
5.920206 -8.241873 0.212566 160.000000
39.340401 33.993683 -1.833795 17.000000
117.966812 -14.421809 -1.078634 4.000000
17.718843 -10.575129 0.111646 14.000000
5.826040 -8.173841 0.217270 26.000000
39.275810 33.699131 -1.861466 17.000000
118.136574 -14.882226 -1.059894 6.000000
17.692745 -10.647693 0.126143 19.000000
5.745392 -8.120517 0.224003 67.000000
39.485554 33.628616 -1.901809 12.000000
12.828643 3.804888 -0.327025 1.000000
118.118622 -15.299005 -1.060205 10.000000
17.670641 -10.722808 0.137088 13.000000
5.732708 -8.165904 0.233385 30.000000
39.351696 33.290096 -1.926067 13.000000
12.607325 3.689029 -0.325624 1.000000
17.628773 -10.781775 0.147874 17.000000
5.881205 -8.439924 0.251407 163.000000
39.533203 33.172298 -1.982538 9.000000
12.505283 3.609465 -0.331737 5.000000
17.618883 -10.864659 0.155350 13.000000
5.878557 -8.502391 0.259845 21.000000
39.584076 32.968506 -2.024040 16.000000
12.542411 3.570433 -0.334650 5.000000
17.595858 -10.939677 0.166349 18.000000
5.814615 -8.479327 0.269230 16.000000
25.460171 21.047522 -1.320992 8.000000
12.454240 3.496038 -0.336472 5.000000
17.557459 -11.000967 0.180814 18.000000
5.741350 -8.432302 0.274258 136.000000
25.459608 20.905317 -1.340394 20.000000
12.539114 3.470335 -0.342964 5.000000
59.681026 -8.844860 -0.505455 7.000000
17.533848 -11.075873 0.191847 11.000000
5.922872 -8.767809 0.295551 5.000000
25.557716 20.814671 -1.375725 10.000000
12.551514 3.424289 -0.352047 2.000000
59.356476 -9.019215 -0.513463 167.000000
17.497293 -11.142713 0.199135 14.000000
5.853149 -8.730138 0.300934 8.000000
39.863754 32.223473 -2.175270 82.000000
12.525309 3.367864 -0.353228 4.000000
59.224304 -9.221335 -0.502146 79.000000
17.468868 -11.214815 0.210148 25.000000
5.868018 -8.822053 0.312613 6.000000
39.939129 32.054539 -2.226992 95.000000
12.484182 3.307789 -0.360748 5.000000
84.795578 -13.521339 -0.734361 32.000000
17.446344 -11.286546 0.217604 18.000000
5.754145 -8.723306 0.317456 29.000000
25.747490 20.509842 -1.454495 6.000000
12.573473 3.282176 -0.367517 5.000000
84.661690 -13.818369 -0.718662 25.000000
17.404728 -11.350327 0.232110 11.000000
5.692176 -8.691934 0.324701 75.000000
26.076374 20.616058 -1.492048 8.000000
12.478866 3.208672 -0.366656 3.000000
84.526756 -14.114599 -0.702993 25.000000
17.375441 -11.422215 0.243165 17.000000
5.628633 -8.667334 0.333806 11.000000
26.190914 20.565844 -1.517987 8.000000
12.645457 3.202141 -0.375761 1.000000
38.861263 -6.635697 -0.316521 6.000000
17.356157 -11.496505 0.257991 10.000000
5.696013 -8.831710 0.348627 37.000000
26.469917 20.628536 -1.559113 8.000000
12.559928 3.131542 -0.379659 1.000000
38.566906 -6.724066 -0.321146 10.000000
17.334656 -11.573896 0.261939 13.000000
5.666166 -8.856530 0.356133 44.000000
26.673927 20.615953 -1.595727 8.000000
12.493532 3.066394 -0.381805 1.000000
84.251068 -15.007401 -0.687073 20.000000
17.283667 -11.631666 0.276358 10.000000
5.624300 -8.859061 0.366445 38.000000
26.923719 20.666763 -1.624373 8.000000
12.509415 3.021724 -0.386445 2.000000
84.220207 -15.320590 -0.672333 32.000000
17.263485 -11.705844 0.291251 23.000000
5.746055 -9.124581 0.385976 8.000000
27.128279 20.651249 -1.667487 8.000000
12.476315 2.965375 -0.396286 4.000000
84.074890 -15.612719 -0.686551 37.000000
17.269915 -11.802833 0.299391 24.000000
27.370716 20.692802 -1.708178 3.000000
12.418765 2.903650 -0.400801 1.000000
83.972649 -15.912339 -0.716023 33.000000
9.560234 -6.585318 0.166153 84.000000
5.230181 -8.438707 0.370986 24.000000
12.609392 2.899519 -0.411129 1.000000
83.982613 -16.233316 -0.701681 29.000000
9.511320 -6.603157 0.171786 3.000000
12.629472 2.855441 -0.418226 1.000000
83.874237 -16.501081 -0.716149 36.000000
9.557808 -6.684995 0.177119 1.000000
12.766546 2.837289 -0.426988 1.000000
83.773117 -16.830770 -0.700943 17.000000
9.516794 -6.708385 0.184944 1.000000
5.219744 -8.625615 0.401411 2.000000
12.913340 2.820286 -0.438477 1.000000
76.005836 -15.560288 -0.649967 10.000000
17.247971 -12.252965 0.343445 9.000000
5.167346 -8.610116 0.408582 153.000000
13.138347 2.819016 -0.452807 1.000000
75.831451 -15.786773 -0.648920 27.000000
17.188734 -12.301389 0.350498 22.000000
5.175449 -8.692242 0.418694 10.000000
13.446547 2.833632 -0.472673 1.000000
36.120792 -7.657947 -0.315783 5.000000
17.180195 -12.381633 0.358554 17.000000
5.678432 -9.613188 0.471858 9.000000
13.667503 2.825429 -0.487371 1.000000
17.199314 -12.491447 0.367328 25.000000
5.685913 -9.706925 0.483301 8.000000
13.941784 2.828887 -0.509209 1.000000
17.195541 -12.589844 0.371998 19.000000
13.823279 2.804841 -0.531997 1.000000
17.194248 -12.584289 0.331004 11.000000
13.861746 2.865584 -0.536352 1.000000
17.179808 -12.477280 0.311310 16.000000
5.489380 -9.371406 0.447606 16.000000
13.235108 2.786662 -0.512497 1.000000
75.816017 -16.087532 -0.960467 4.000000
17.174847 -12.382333 0.288258 22.000000
5.686584 -9.626989 0.447123 9.000000
13.019358 2.791109 -0.511518 1.000000
75.922913 -15.819639 -1.001693 28.000000
17.179649 -12.290353 0.269144 21.000000
5.694869 -9.564614 0.431526 9.000000
75.974609 -15.540080 -1.069302 22.000000
17.281948 -12.268027 0.240444 8.000000
5.173089 -8.619685 0.379163 6.000000
12.818166 2.846414 -0.502124 1.000000
83.799149 -16.851217 -1.193557 18.000000
9.516266 -6.710500 0.126009 1.000000
5.194535 -8.583958 0.366152 6.000000
12.641948 2.855942 -0.495628 1.000000
83.869316 -16.545732 -1.253377 37.000000
9.544997 -6.678515 0.113863 1.000000
5.240275 -8.591691 0.356707 6.000000
12.290533 2.823940 -0.482253 1.000000
83.953285 -16.242846 -1.298517 34.000000
9.499668 -6.595067 0.102941 71.000000
5.285075 -8.594127 0.343506 17.000000
12.460200 2.911044 -0.487089 1.000000
83.982552 -15.929400 -1.312980 18.000000
17.324507 -11.929077 0.172549 11.000000
5.249413 -8.469736 0.328818 20.000000
27.021000 20.577034 -1.863202 8.000000
12.196667 2.896659 -0.477199 1.000000
38.770912 -7.206764 -0.626379 7.000000
17.244392 -11.789807 0.153130 36.000000
5.475041 -8.765301 0.330199 10.000000
26.819923 20.579651 -1.824938 8.000000
38.746544 -7.062400 -0.632459 8.000000
17.240017 -11.698717 0.138182 15.000000
5.760307 -9.147212 0.334047 25.000000
26.611019 20.574753 -1.792291 8.000000
38.703045 -6.908002 -0.645059 8.000000
17.266262 -11.624331 0.123518 11.000000
26.394613 20.562447 -1.759356 8.000000
38.614723 -6.746293 -0.650014 8.000000
17.312962 -11.563781 0.112646 11.000000
5.758614 -9.001032 0.309672 20.000000
26.143042 20.520878 -1.730139 8.000000
38.599430 -6.597921 -0.669854 8.000000
17.342813 -11.492022 0.090779 16.000000
