VERSION .7
FIELDS x y z intensity
SIZE 4 4 4 4
TYPE F F F F
COUNT 1 1 1 1
WIDTH 1215
HEIGHT 1
VIEWPOINT 0 0 0 1 0 0 0
POINTS 1215
DATA ascii
16.817505 0.698982 -1.203582 59.000000
11.324899 -11.468114 -0.943437 7.000000
38.620495 46.634422 -2.199106 22.000000
16.775181 0.758823 -1.197798 75.000000
11.039793 -4.315338 -0.868367 1.000000
15.625542 -15.707571 -1.316305 8.000000
41.281090 50.220669 -2.292905 6.000000
16.802591 0.821784 -1.194060 61.000000
11.102509 -4.290782 -0.876175 1.000000
15.725377 -15.697955 -1.339551 9.000000
41.345638 50.622566 -2.248204 1.000000
16.823952 0.884650 -1.201711 8.000000
11.005949 -4.207166 -0.873535 1.000000
15.828053 -15.685049 -1.362909 8.000000
41.231148 50.898060 -2.207288 1.000000
16.945126 0.956280 -1.207643 6.000000
10.993026 -4.156111 -0.875420 1.000000
16.066019 -15.804577 -1.398143 19.000000
16.976357 1.020476 -1.210127 6.000000
11.171212 -4.176745 -0.894664 1.000000
16.265766 -15.884185 -1.430368 18.000000
41.650742 52.137646 -2.108786 10.000000
46.802334 24.446871 -2.952120 7.000000
16.992624 1.083974 -1.208574 6.000000
11.097300 -4.102814 -0.891688 1.000000
16.470659 -15.972331 -1.463577 12.000000
46.704498 24.614071 -2.933134 2.000000
17.063179 1.151284 -1.213885 4.000000
10.961978 -4.007176 -0.885774 1.000000
16.664762 -16.042461 -1.495859 12.000000
46.796043 24.881899 -2.916755 1.000000
17.123728 1.218432 -1.215490 1.000000
10.971611 -3.965172 -0.889468 1.000000
16.852352 -16.104458 -1.527817 10.000000
17.193752 1.286769 -1.220788 4.000000
11.041967 -3.944902 -0.900169 1.000000
17.029736 -16.154968 -1.559093 10.000000
10.980843 -3.877739 -0.898111 1.000000
17.258530 -16.252247 -1.595356 17.000000
64.144043 83.322815 -2.790258 31.000000
10.891140 -3.801224 -0.893679 1.000000
17.456232 -16.323828 -1.629306 10.000000
50.400322 27.742188 -3.015074 1.000000
10.937541 -3.772505 -0.902441 1.000000
17.661127 -16.394506 -1.663939 9.000000
20.703814 27.296043 -0.843270 14.000000
50.326324 27.942284 -2.976459 1.000000
10.810093 -3.682161 -0.894763 1.000000
13.637559 -12.566761 -1.296773 6.000000
10.955497 -3.686932 -0.909733 1.000000
39.958832 53.472416 -1.491532 14.000000
10.940407 -3.637268 -0.909392 1.000000
39.727875 53.552181 -1.443306 1.000000
53.750320 5.421849 -3.777662 20.000000
10.976735 -3.604722 -0.919424 1.000000
14.235552 -12.831250 -1.387203 30.000000
52.669762 5.507934 -3.684537 20.000000
10.956686 -3.553702 -0.916647 1.000000
14.301639 -12.800622 -1.406119 10.000000
70.609947 40.914692 -3.991271 3.000000
52.544449 5.689596 -3.686474 20.000000
10.912068 -3.495080 -0.919887 1.000000
14.395996 -12.790353 -1.427674 9.000000
70.478302 41.167698 -3.920533 1.000000
53.208183 5.968254 -3.706452 4.000000
10.872228 -3.438434 -0.919466 1.000000
70.488518 41.520908 -3.872297 1.000000
10.785441 -3.365487 -0.911027 1.000000
13.472475 18.852892 -0.376150 3.000000
10.925997 -3.365451 -0.925868 1.000000
13.406362 18.906483 -0.356005 5.000000
10.742305 -3.265810 -0.915199 1.000000
13.432575 19.084286 -0.334024 9.000000
10.830266 -3.249236 -0.925645 1.000000
13.357004 19.125469 -0.309452 9.000000
53.818317 7.018435 -3.700032 21.000000
10.817901 -3.202354 -0.927544 1.000000
4.499253 -3.795438 -0.469465 4.000000
52.601322 7.055895 -3.608810 20.000000
10.791298 -3.151508 -0.924266 1.000000
4.505834 -3.771472 -0.473798 4.000000
52.189030 7.195412 -3.591547 45.000000
10.725543 -3.089686 -0.925504 1.000000
68.638344 42.823399 -3.447362 1.000000
52.211029 7.402841 -3.585744 18.000000
10.745693 -3.054909 -0.928280 1.000000
4.477665 -3.695042 -0.477292 3.000000
68.774734 43.259487 -3.405328 1.000000
10.805539 -3.025094 -0.936337 2.000000
4.403655 -3.612058 -0.471261 5.000000
19.307947 28.722429 -0.277864 12.000000
68.807556 43.632919 -3.357870 1.000000
10.825844 -2.988034 -0.941089 1.000000
4.435233 -3.612135 -0.478314 5.000000
19.135576 28.681740 -0.240714 1.000000
68.968307 44.073162 -3.315966 1.000000
20.928747 3.202549 -1.421114 2.000000
10.937366 -2.975717 -0.953814 1.000000
4.393316 -3.552562 -0.476426 5.000000
39.046131 58.992271 -0.407460 1.000000
69.085907 44.505768 -3.257610 21.000000
20.724897 3.249138 -1.404393 19.000000
11.044447 -2.961417 -0.962199 1.000000
4.363371 -3.501976 -0.474734 4.000000
38.974697 59.333309 -0.334531 7.000000
69.170975 44.920155 -3.226110 21.000000
20.688463 3.321162 -1.399066 13.000000
11.132485 -2.939251 -0.972926 1.000000
4.407025 -3.510532 -0.483033 4.000000
69.242294 45.328152 -3.164834 15.000000
20.583570 3.381757 -1.378175 11.000000
4.388335 -3.469430 -0.483522 4.000000
12.888722 19.930559 -0.062138 1.000000
20.551594 3.453909 -1.373219 30.000000
11.379048 -2.919526 -0.998864 1.000000
4.345826 -3.410013 -0.482314 5.000000
12.839581 19.992025 -0.041469 8.000000
69.506447 46.214954 -3.075234 17.000000
20.539034 3.529252 -1.369582 30.000000
11.572876 -2.924090 -1.019128 1.000000
4.326591 -3.369372 -0.482664 5.000000
69.537598 46.604107 -3.025630 17.000000
20.477053 3.595918 -1.362674 29.000000
11.912942 -2.959190 -1.052336 1.000000
4.371280 -3.376072 -0.490991 5.000000
69.468277 46.927540 -2.942176 1.000000
20.454615 3.669310 -1.351139 29.000000
11.991966 -2.929979 -1.058316 1.000000
4.391325 -3.365930 -0.494773 3.000000
38.462555 61.314564 0.138960 1.000000
20.437237 3.739874 -1.343563 30.000000
12.059556 -2.904149 -1.065606 1.000000
4.410111 -3.357172 -0.499534 2.000000
38.252975 61.527763 0.214963 1.000000
78.764236 54.032021 -3.218653 27.000000
20.451715 3.827435 -1.341867 24.000000
12.258801 -2.904636 -1.086694 1.000000
4.465812 -3.373793 -0.508378 2.000000
78.900459 54.551811 -3.165327 25.000000
20.442678 3.903347 -1.338557 27.000000
12.323361 -2.867736 -1.095837 1.000000
4.346325 -3.258571 -0.498193 1.000000
79.405235 55.311485 -3.091859 17.000000
20.443386 3.981198 -1.332249 12.000000
12.478654 -2.860286 -1.106545 1.000000
4.362590 -3.244673 -0.501497 1.000000
79.326439 55.689526 -3.028985 30.000000
20.434233 4.057207 -1.321660 18.000000
12.874087 -2.894218 -1.145166 1.000000
4.298063 -3.172280 -0.496501 1.000000
79.391541 56.129173 -2.987604 29.000000
20.420893 4.124993 -1.318024 13.000000
4.337494 -3.176892 -0.503493 1.000000
79.629135 56.715076 -2.901507 25.000000
20.430525 4.204934 -1.312322 14.000000
13.283175 -2.888916 -1.182123 4.000000
4.220039 -3.067163 -0.491307 1.000000
20.434734 4.283930 -1.309934 10.000000
13.337111 -2.849491 -1.190782 3.000000
4.525688 -3.264029 -0.529425 1.000000
20.473471 4.370448 -1.298763 9.000000
13.171767 -2.763724 -1.177474 1.000000
4.310655 -3.084988 -0.506678 1.000000
20.462412 4.446565 -1.295417 56.000000
16.411991 -3.377854 -1.465960 1.000000
4.329687 -3.074674 -0.512264 2.000000
20.549187 4.544358 -1.287208 21.000000
16.365423 -3.305794 -1.463644 6.000000
4.298481 -3.041242 -0.507943 1.000000
52.487095 38.838406 -1.652768 6.000000
20.556955 4.625171 -1.285057 12.000000
16.382317 -3.246757 -1.464081 26.000000
4.358184 -3.059575 -0.517422 1.000000
52.520439 39.147530 -1.612351 8.000000
20.633177 4.721838 -1.276063 38.000000
16.379187 -3.183791 -1.465683 32.000000
4.283397 -2.983695 -0.510000 1.000000
52.158104 39.175648 -1.537275 8.000000
20.674711 4.811156 -1.268560 6.000000
16.352398 -3.113471 -1.459278 31.000000
4.355486 -3.010262 -0.520065 3.000000
51.848015 39.240803 -1.464236 9.000000
16.353905 -3.051688 -1.458404 30.000000
4.341718 -2.977290 -0.518970 3.000000
51.699989 39.413364 -1.395820 8.000000
16.350531 -2.989086 -1.454194 28.000000
4.364717 -2.969600 -0.523206 4.000000
51.637516 39.365738 -1.326108 6.000000
46.995754 11.300034 -2.778526 7.000000
16.361820 -2.991150 -1.437648 25.000000
4.405780 -3.007674 -0.522113 1.000000
51.896687 39.263397 -1.351784 10.000000
16.376461 -3.055897 -1.425263 21.000000
4.325549 -2.976203 -0.507419 3.000000
52.211571 39.201557 -1.390435 8.000000
16.380020 -3.121693 -1.417811 33.000000
4.383515 -3.042086 -0.510008 6.000000
52.572140 39.186066 -1.419285 8.000000
20.642878 4.720267 -1.206150 20.000000
16.408321 -3.189455 -1.412448 37.000000
4.320726 -3.019789 -0.499224 2.000000
52.533764 38.858749 -1.460035 8.000000
20.635483 4.639055 -1.208420 6.000000
16.411425 -3.252526 -1.410791 38.000000
4.455329 -3.140560 -0.512389 2.000000
80.213631 58.879677 -2.275437 18.000000
20.588568 4.549298 -1.212072 6.000000
16.424774 -3.317782 -1.401194 4.000000
4.399579 -3.125462 -0.501590 3.000000
80.121185 58.361137 -2.301350 28.000000
20.561405 4.464319 -1.205817 5.000000
4.358361 -3.132953 -0.491320 3.000000
74.611145 53.949947 -2.234134 14.000000
20.616274 4.397170 -1.215464 4.000000
4.314250 -3.126440 -0.484884 4.000000
20.608030 4.316504 -1.210351 6.000000
4.403642 -3.215903 -0.491455 1.000000
79.558655 56.643951 -2.489176 23.000000
20.496174 4.214716 -1.210194 7.000000
4.376057 -3.220417 -0.485867 2.000000
79.458847 56.135166 -2.513581 30.000000
20.521477 4.141583 -1.207118 7.000000
4.376632 -3.245636 -0.481497 1.000000
79.358200 55.649818 -2.571950 27.000000
20.492243 4.057573 -1.208173 6.000000
12.966261 -2.919695 -1.083371 1.000000
4.325142 -3.232089 -0.472384 2.000000
79.552681 55.352356 -2.605515 23.000000
20.526161 3.986164 -1.216627 6.000000
12.848816 -2.945132 -1.065232 1.000000
4.345429 -3.272138 -0.471124 1.000000
79.047562 54.612747 -2.650151 26.000000
20.466873 3.896861 -1.215907 5.000000
12.673089 -2.953784 -1.049268 1.000000
4.365482 -3.312380 -0.469793 4.000000
78.937668 54.090229 -2.706341 23.000000
20.550173 3.831013 -1.223634 5.000000
12.298807 -2.914115 -1.014716 1.000000
4.456474 -3.407232 -0.476981 1.000000
38.478081 61.315540 0.391666 5.000000
78.559288 53.408886 -2.753013 25.000000
20.539526 3.751184 -1.222173 5.000000
12.283371 -2.958048 -1.012111 1.000000
4.377121 -3.372054 -0.465922 1.000000
39.127663 61.869926 0.332193 6.000000
20.611887 3.686385 -1.229333 6.000000
12.321545 -3.015063 -1.007248 1.000000
4.503488 -3.494523 -0.474658 2.000000
12.691730 19.914354 0.082432 1.000000
69.608704 46.616562 -2.544964 13.000000
20.575882 3.602169 -1.230049 5.000000
11.971626 -2.978204 -0.975238 1.000000
4.455644 -3.483636 -0.465988 3.000000
12.851158 20.002375 0.058093 7.000000
69.631775 46.228214 -2.582805 8.000000
20.633436 3.534351 -1.229040 7.000000
11.868975 -2.998904 -0.965614 1.000000
4.450930 -3.506311 -0.462854 3.000000
12.948101 19.999405 0.033266 1.000000
20.655674 3.460280 -1.236937 9.000000
11.660271 -2.991679 -0.945293 1.000000
4.457818 -3.538293 -0.460916 5.000000
42.326824 64.854965 0.040550 17.000000
69.272461 45.278847 -2.644143 15.000000
20.671745 3.392538 -1.240888 8.000000
4.421839 -3.536230 -0.452565 5.000000
38.850933 59.122402 -0.037042 10.000000
69.198090 44.903435 -2.707668 22.000000
20.713396 3.321456 -1.246323 16.000000
11.263061 -2.977932 -0.902562 1.000000
4.420675 -3.561943 -0.450788 6.000000
39.047993 58.950359 -0.111071 1.000000
69.137901 44.505116 -2.756378 19.000000
20.740007 3.247798 -1.250877 12.000000
11.117408 -2.983060 -0.889739 1.000000
4.489226 -3.644394 -0.453044 2.000000
19.049393 28.541771 -0.083847 1.000000
68.934059 44.034332 -2.770692 19.000000
11.067691 -3.015324 -0.882652 1.000000
4.480001 -3.664227 -0.448384 3.000000
19.306742 28.688177 -0.120707 17.000000
68.889076 43.617210 -2.818814 18.000000
10.989588 -3.037357 -0.873302 1.000000
4.555271 -3.753741 -0.453146 4.000000
19.337164 28.528685 -0.156397 1.000000
68.752853 43.212238 -2.849931 19.000000
10.997876 -3.083081 -0.870843 1.000000
4.564800 -3.789770 -0.450265 5.000000
68.692810 42.824078 -2.897501 25.000000
23.503496 3.324120 -1.422734 5.000000
11.063523 -3.145266 -0.872910 1.000000
4.600747 -3.856382 -0.449276 5.000000
68.654144 42.418221 -2.945078 129.000000
23.470778 3.231791 -1.424177 1.000000
10.989932 -3.167926 -0.863998 1.000000
4.617297 -3.899157 -0.448043 6.000000
68.900726 42.272060 -2.992326 25.000000
23.452541 3.141736 -1.426507 4.000000
10.997968 -3.213948 -0.857506 1.000000
4.626747 -3.934886 -0.444961 6.000000
13.388215 19.141674 -0.203852 9.000000
69.324219 42.149784 -3.060066 24.000000
11.000745 -3.258569 -0.854621 1.000000
4.654302 -3.987811 -0.442561 6.000000
13.399242 19.029873 -0.223421 10.000000
69.632874 42.021812 -3.124384 88.000000
11.079170 -3.328126 -0.857639 1.000000
4.673924 -4.034423 -0.440414 4.000000
13.416726 18.907108 -0.238742 6.000000
70.137024 41.976147 -3.168655 24.000000
11.043332 -3.361538 -0.851762 1.000000
13.462836 18.818565 -0.270586 4.000000
76.348747 45.278515 -3.518631 22.000000
10.907328 -3.363869 -0.838211 1.000000
76.146805 44.800209 -3.563873 22.000000
11.004679 -3.438114 -0.842609 1.000000
76.129387 44.450779 -3.602374 1.000000
11.220498 -3.550732 -0.855995 1.000000
75.888626 43.938030 -3.613998 1.000000
11.074999 -3.549397 -0.837720 1.000000
76.120049 43.700283 -3.694095 1.000000
11.171017 -3.625373 -0.845982 1.000000
76.165703 43.356102 -3.719222 1.000000
11.106092 -3.649350 -0.833869 1.000000
14.267190 -12.859768 -1.279125 24.000000
39.969528 53.447819 -1.153300 13.000000
62.858463 6.074727 -3.873563 1.000000
11.017199 -3.664934 -0.824125 1.000000
14.173087 -12.869411 -1.251418 7.000000
40.095215 53.208145 -1.221082 1.000000
63.138027 5.868252 -3.900548 1.000000
11.093257 -3.737605 -0.824722 1.000000
20.721769 27.299921 -0.664070 23.000000
62.924805 5.615890 -3.897146 1.000000
11.117522 -3.791210 -0.823433 1.000000
13.617444 -12.548225 -1.181238 7.000000
13.670857 -12.690412 -1.173555 7.000000
64.117096 83.227699 -2.237408 28.000000
19.770941 1.618519 -1.227189 7.000000
11.198281 -3.910615 -0.823194 1.000000
19.796640 1.547600 -1.228424 10.000000
11.133781 -3.929562 -0.815265 1.000000
17.301636 -16.292839 -1.453566 27.000000
19.821871 1.476498 -1.233128 9.000000
11.184080 -3.997875 -0.813868 1.000000
17.068916 -16.192135 -1.418383 22.000000
11.230603 -4.060988 -0.814143 1.000000
16.887653 -16.138191 -1.387769 10.000000
41.808502 52.692501 -1.679139 1.000000
11.286318 -4.127973 -0.812952 1.000000
16.667437 -16.045036 -1.354236 11.000000
41.709976 52.174435 -1.737485 14.000000
17.092714 1.081373 -1.065529 9.000000
11.304130 -4.181525 -0.811107 1.000000
16.473021 -15.974621 -1.327114 10.000000
41.903015 52.042400 -1.819637 1.000000
16.936970 1.009208 -1.058555 9.000000
11.373232 -4.254540 -0.810792 1.000000
16.289410 -15.907273 -1.296853 9.000000
41.910038 51.662342 -1.858185 1.000000
16.905346 0.951075 -1.056376 17.000000
11.331324 -4.281751 -0.804565 1.000000
16.085886 -15.824121 -1.265504 8.000000
42.037979 51.433594 -1.913502 14.000000
16.879002 0.887545 -1.051558 33.000000
20.324659 -7.765297 -1.437508 9.000000
12.475324 -12.362612 -0.969639 3.000000
42.145863 51.199802 -1.991355 11.000000
16.821962 0.822731 -1.053711 36.000000
20.371227 -7.868773 -1.431347 9.000000
12.342188 -12.320665 -0.947530 1.000000
38.628059 46.610428 -1.860131 13.000000
16.825232 0.761087 -1.047832 24.000000
20.361767 -7.951005 -1.417395 6.000000
12.282079 -12.346557 -0.930977 7.000000
38.856518 46.521355 -1.936643 8.000000
16.822615 0.693312 -1.056337 21.000000
20.496971 -8.098777 -1.425196 6.000000
11.426868 -11.571373 -0.855129 31.000000
38.816521 46.128773 -1.978876 1.000000
16.795013 0.633457 -1.054459 22.000000
11.329072 -11.556757 -0.833982 6.000000
41.589638 49.075531 -2.178943 1.000000
16.792234 0.571726 -1.054146 24.000000
41.761482 48.913700 -2.234732 10.000000
16.794216 0.510176 -1.054146 18.000000
41.759720 48.550156 -2.292245 14.000000
16.775837 0.448081 -1.055823 22.000000
11.159883 -11.633353 -0.788435 7.000000
41.858910 48.323246 -2.344281 8.000000
16.817276 0.387511 -1.058334 22.000000
29.033903 -12.085648 -1.962063 5.000000
14.561768 -15.291363 -1.014258 21.000000
16.169029 7.556928 -0.985349 2.000000
16.803247 0.325573 -1.063259 22.000000
28.948324 -12.174702 -1.953780 7.000000
14.386024 -15.218113 -0.991242 10.000000
41.912193 47.707645 -2.439545 1.000000
15.847616 7.336057 -0.967175 7.000000
16.819664 0.264224 -1.058334 19.000000
28.858828 -12.261736 -1.928785 7.000000
14.213871 -15.141530 -0.961220 10.000000
42.282124 47.757645 -2.517283 4.000000
15.883012 7.281872 -0.976876 1.000000
16.840479 0.202816 -1.059590 18.000000
28.865061 -12.389476 -1.915715 7.000000
14.094149 -15.124704 -0.938787 32.000000
42.146137 47.253952 -2.554203 10.000000
15.759125 7.155290 -0.976728 1.000000
16.841110 0.141091 -1.059590 21.000000
13.930737 -15.059636 -0.910046 21.000000
42.247696 47.052776 -2.606164 12.000000
15.629979 7.027670 -0.976123 1.000000
16.871468 0.076561 -1.061474 9.000000
13.770375 -14.990915 -0.888745 28.000000
17.522785 19.379248 -1.104168 10.000000
16.896587 0.014745 -1.063043 9.000000
35.534752 -15.731997 -2.308797 5.000000
13.604882 -14.920153 -0.860404 29.000000
17.505581 19.218157 -1.121365 5.000000
14.873964 6.563301 -0.943105 24.000000
16.951252 -0.038461 -1.069456 9.000000
35.410202 -15.817504 -2.290515 170.000000
13.439974 -14.848246 -0.835902 24.000000
42.570976 46.425526 -2.772190 16.000000
14.856299 6.490558 -0.948988 25.000000
17.026016 -0.104007 -1.071206 6.000000
35.440559 -15.972248 -2.275468 4.000000
13.276811 -14.760928 -0.811279 20.000000
42.624557 46.127136 -2.841009 8.000000
14.851892 6.423910 -0.958532 36.000000
17.169851 -0.167821 -1.086305 1.000000
13.133154 -14.709288 -0.792001 17.000000
42.754196 45.928551 -2.893283 11.000000
14.865697 6.365304 -0.966408 36.000000
19.968273 -0.268370 -1.263409 3.000000
12.996762 -14.664361 -0.769885 24.000000
42.802067 45.675327 -2.941001 9.000000
14.874674 6.304735 -0.973972 36.000000
19.877346 -0.340020 -1.257727 7.000000
54.555241 -25.312126 -3.446664 12.000000
12.880004 -14.635224 -0.745544 22.000000
42.777798 45.331245 -2.982957 9.000000
14.860394 6.234530 -0.980003 37.000000
19.875967 -0.412872 -1.257727 6.000000
54.757561 -25.650318 -3.433599 12.000000
12.731370 -14.573692 -0.723116 23.000000
43.041996 45.277603 -3.033502 8.000000
14.878218 6.177976 -0.985323 19.000000
54.810287 -25.920408 -3.389761 12.000000
12.609534 -14.541453 -0.702399 20.000000
43.091457 44.998199 -3.090745 1.000000
15.084919 6.199082 -1.006073 10.000000
48.984856 -23.385571 -3.025262 31.000000
12.480921 -14.495050 -0.677992 10.000000
43.324062 44.894733 -3.160541 1.000000
15.037706 6.115353 -1.009955 16.000000
48.765312 -23.500614 -2.988572 10.000000
12.337185 -14.434781 -0.656462 19.000000
38.648758 39.785049 -2.848656 1.000000
41.725525 -1.486254 -2.634129 55.000000
55.194790 -26.836872 -3.356090 13.000000
12.206325 -14.383023 -0.632389 10.000000
38.694427 39.541046 -2.899412 1.000000
41.699856 -1.638392 -2.632869 238.000000
55.429298 -27.202534 -3.343963 11.000000
12.063728 -14.321064 -0.611358 25.000000
38.907406 39.468262 -2.953011 4.000000
40.657196 -1.732476 -2.567386 143.000000
55.465004 -27.472763 -3.319667 32.000000
11.955577 -14.288571 -0.592000 15.000000
30.337261 30.560467 -2.339664 7.000000
30.921610 12.049615 -2.134438 7.000000
40.614124 -1.894001 -2.579375 240.000000
55.373394 -27.680593 -3.309398 17.000000
11.830720 -14.250172 -0.572344 11.000000
30.271105 30.271105 -2.363461 10.000000
30.824848 11.881959 -2.142108 8.000000
40.657909 -2.031184 -2.575436 8.000000
51.609215 -26.035780 -3.049645 8.000000
11.683375 -14.178108 -0.551678 18.000000
30.394548 30.172556 -2.401938 11.000000
30.756170 11.738489 -2.146158 8.000000
60.133179 -3.225120 -3.809801 1.000000
51.439213 -26.186974 -3.014944 6.000000
11.580312 -14.153415 -0.533169 19.000000
30.361202 29.919315 -2.427938 23.000000
30.680611 11.568766 -2.154870 7.000000
60.084877 -3.464473 -3.807591 1.000000
51.317635 -26.362360 -2.983172 11.000000
11.446783 -14.095313 -0.510366 24.000000
30.467497 29.815151 -2.465424 27.000000
30.717422 11.454230 -2.165986 8.000000
60.137188 -3.688683 -3.801179 1.000000
51.337307 -26.610733 -2.959608 11.000000
11.323178 -14.048014 -0.491389 19.000000
30.438969 29.569609 -2.491488 38.000000
30.556850 11.266959 -2.168864 120.000000
56.435677 -29.516401 -3.226312 14.000000
11.118233 -13.892723 -0.465950 10.000000
30.509001 29.421064 -2.540341 34.000000
30.569183 11.156493 -2.189922 115.000000
56.602921 -29.868591 -3.197316 14.000000
10.921421 -13.749800 -0.441410 20.000000
30.572399 29.266705 -2.558912 11.000000
30.744774 11.080924 -2.205026 5.000000
30.676146 -16.331404 -1.717924 9.000000
10.799306 -13.693938 -0.423176 17.000000
30.782743 29.252604 -2.604722 6.000000
30.489281 -16.375626 -1.692644 36.000000
10.700015 -13.670788 -0.403055 12.000000
27.170076 25.639620 -2.324169 1.000000
24.227802 -13.121791 -1.328285 10.000000
10.563493 -13.593861 -0.384667 10.000000
27.123688 25.408550 -2.351292 5.000000
24.179750 -13.210613 -1.323477 6.000000
10.474112 -13.581286 -0.368248 18.000000
27.149345 25.246393 -2.377964 9.000000
21.844130 -12.038718 -1.184954 2.000000
10.372131 -13.546574 -0.351427 11.000000
27.251165 25.155458 -2.411289 7.000000
61.953629 -5.616417 -3.902876 6.000000
21.739462 -12.085124 -1.164268 32.000000
10.274235 -13.521098 -0.331996 20.000000
26.249130 24.052896 -2.346011 1.000000
11.266721 3.785105 -0.837372 1.000000
61.689190 -5.820482 -3.887535 1.000000
21.525646 -12.069751 -1.142229 35.000000
10.266919 -13.614771 -0.318484 21.000000
26.323717 23.952738 -2.382625 1.000000
11.324015 3.753832 -0.846781 1.000000
62.028244 -6.092853 -3.921268 19.000000
21.255873 -12.021097 -1.113160 38.000000
10.228482 -13.662748 -0.303870 13.000000
11.408225 3.735395 -0.860472 1.000000
61.852280 -6.304540 -3.900684 13.000000
21.125067 -12.049524 -1.104362 109.000000
10.115911 -13.616120 -0.284238 24.000000
12.013640 3.889565 -0.905158 1.000000
21.103069 -12.139705 -1.088500 92.000000
10.025727 -13.583669 -0.268165 17.000000
23.093834 20.568626 -2.146258 5.000000
12.293526 3.930459 -0.929682 1.000000
21.115091 -12.249841 -1.078622 92.000000
9.922834 -13.547909 -0.252081 16.000000
23.443352 20.711767 -2.209403 3.000000
11.885297 3.747420 -0.906411 1.000000
21.021107 -12.293589 -1.058972 37.000000
9.797448 -13.485031 -0.229840 9.000000
23.424364 20.549850 -2.222703 5.000000
20.993433 -12.380889 -1.051334 54.000000
9.710039 -13.468256 -0.217353 9.000000
23.343859 20.328297 -2.235131 2.000000
50.272980 -6.056993 -3.159164 12.000000
20.772346 -12.353340 -1.029845 38.000000
9.631088 -13.457522 -0.199303 12.000000
16.565414 14.319075 -1.604123 6.000000
20.783239 -12.463159 -1.015694 62.000000
9.515233 -13.399137 -0.180709 10.000000
16.430361 14.107412 -1.601707 8.000000
20.832071 -12.596481 -1.003305 37.000000
9.428163 -13.375182 -0.165659 18.000000
16.416372 13.991201 -1.614261 9.000000
17.915688 -2.355464 -1.127361 1.000000
20.828733 -12.688977 -1.000901 35.000000
9.335096 -13.336853 -0.150592 18.000000
16.368086 13.837002 -1.630372 9.000000
10.937407 3.187963 -0.860609 1.000000
17.723314 -2.402586 -1.112720 1.000000
18.286112 -11.236498 -0.865777 22.000000
9.232581 -13.298796 -0.132806 10.000000
16.294653 13.682532 -1.633470 108.000000
10.718734 3.081647 -0.846423 1.000000
17.216204 -2.392009 -1.078329 4.000000
18.253809 -11.309021 -0.851189 31.000000
9.118088 -13.232238 -0.114994 9.000000
16.313175 13.596450 -1.645235 169.000000
10.820804 3.068099 -0.857539 1.000000
17.068808 -2.435330 -1.072670 2.000000
18.174477 -11.352263 -0.838187 98.000000
9.030065 -13.207848 -0.103323 16.000000
16.316566 13.488647 -1.658689 176.000000
10.865005 3.037653 -0.868076 1.000000
16.897005 -2.474042 -1.059443 3.000000
18.196411 -11.458891 -0.833612 92.000000
8.936234 -13.169036 -0.086108 18.000000
16.323671 13.398876 -1.676900 155.000000
10.827713 2.984482 -0.868160 1.000000
16.719849 -2.510733 -1.051868 6.000000
18.133684 -11.512425 -0.817648 106.000000
8.846068 -13.139554 -0.069115 12.000000
16.397779 13.368937 -1.698530 16.000000
10.867150 2.952539 -0.874403 1.000000
16.676189 -2.566711 -1.046750 3.000000
18.098072 -11.578652 -0.802839 53.000000
8.772406 -13.128833 -0.052362 9.000000
16.407528 13.267598 -1.712543 15.000000
10.829661 2.897748 -0.878359 1.000000
16.681641 -2.630176 -1.044731 1.000000
17.950773 -11.577355 -0.790716 71.000000
8.657948 -13.060910 -0.038289 19.000000
16.415295 13.184091 -1.727276 16.000000
10.844882 2.859267 -0.880707 1.000000
16.676634 -2.692065 -1.047988 1.000000
17.833014 -11.585320 -0.776066 110.000000
8.579344 -13.040954 -0.021796 13.000000
16.446735 13.110468 -1.743996 27.000000
10.864637 2.821928 -0.885409 1.000000
16.641737 -2.752038 -1.043496 5.000000
17.966633 -11.774958 -0.765162 181.000000
8.503710 -13.024779 -0.008145 10.000000
16.470272 13.030791 -1.756180 36.000000
11.014340 2.817759 -0.904748 1.000000
16.484098 -2.788077 -1.031317 6.000000
17.769314 -11.738966 -0.751142 81.000000
8.404271 -12.976123 0.005397 9.000000
16.508629 12.963041 -1.777328 16.000000
11.048452 2.783381 -0.910708 1.000000
16.601625 -2.870583 -1.039321 6.000000
17.870092 -11.895352 -0.742148 148.000000
8.315664 -12.938071 0.021475 22.000000
16.629709 12.959866 -1.800063 24.000000
11.150025 2.765549 -0.924293 1.000000
16.645229 -2.940995 -1.039757 4.000000
18.009127 -12.074276 -0.745792 93.000000
8.246670 -12.934713 0.034805 17.000000
16.636194 12.867189 -1.817834 25.000000
11.358759 2.771067 -0.944815 1.000000
16.589958 -2.993973 -1.039937 5.000000
17.720898 -11.975409 -0.720720 131.000000
8.147131 -12.867589 0.047846 10.000000
16.674078 12.799093 -1.835317 21.000000
16.579052 -3.054791 -1.036994 4.000000
17.549261 -11.953349 -0.700676 14.000000
8.066146 -12.853555 0.063565 9.000000
16.747070 12.757849 -1.860410 9.000000
11.969653 2.827300 -1.004682 1.000000
16.547947 -3.111813 -1.038705 4.000000
17.452007 -11.989947 -0.687611 68.000000
7.978904 -12.813659 0.079037 17.000000
16.844322 12.734640 -1.880874 9.000000
11.979592 2.783331 -1.008975 1.000000
16.561295 -3.177214 -1.034358 1.000000
17.595488 -12.170068 -0.679815 144.000000
7.904394 -12.783329 0.089189 11.000000
16.988884 12.746344 -1.914206 9.000000
16.598337 -3.247440 -1.040371 1.000000
17.391069 -12.123156 -0.666222 125.000000
7.828681 -12.765243 0.104544 10.000000
17.161673 12.777945 -1.950975 6.000000
16.488262 -3.288695 -1.037166 1.000000
17.538904 -12.321975 -0.666122 108.000000
7.750237 -12.736884 0.117102 9.000000
17.319139 12.796788 -1.982481 6.000000
16.715139 -3.400734 -1.052251 2.000000
17.767090 -12.579801 -0.668928 135.000000
7.659897 -12.697958 0.129415 10.000000
17.380585 12.743973 -2.003123 8.000000
59.819553 12.966234 -5.150594 7.000000
16.653875 -3.451883 -1.046204 6.000000
18.002043 -12.845475 -0.660226 59.000000
7.579149 -12.658820 0.144211 13.000000
17.534439 12.758229 -2.034541 9.000000
12.786586 2.722538 -1.106980 1.000000
16.616697 -3.507746 -1.044669 6.000000
18.074965 -12.992964 -0.656782 8.000000
7.519527 -12.659294 0.156767 14.000000
19.326788 13.954309 -2.261745 24.000000
13.102933 2.739732 -1.142904 1.000000
16.647461 -3.578025 -1.050404 1.000000
17.764322 -12.868677 -0.639540 33.000000
7.424794 -12.604798 0.168522 10.000000
19.375868 13.881992 -2.286706 97.000000
13.137170 2.694284 -1.152052 1.000000
16.439226 -3.596355 -1.038090 1.000000
18.044283 -13.172594 -0.639646 10.000000
7.342835 -12.565757 0.180359 9.000000
16.552052 -3.684659 -1.054973 1.000000
7.281626 -12.566519 0.190126 11.000000
18.835672 13.395713 -2.274431 6.000000
16.452177 -3.665440 -1.078183 6.000000
7.266682 -12.540729 0.174556 12.000000
18.851482 13.511271 -2.278218 8.000000
16.485332 -3.603427 -1.094186 6.000000
18.084862 -13.207058 -0.703758 19.000000
7.348369 -12.580266 0.152574 9.000000
18.734219 13.531437 -2.257808 12.000000
60.001945 12.535060 -5.459857 19.000000
16.462296 -3.541233 -1.103678 10.000000
17.816912 -12.911515 -0.714550 117.000000
7.424969 -12.605095 0.135329 11.000000
17.631275 12.833394 -2.119012 6.000000
59.792629 12.731132 -5.445218 124.000000
16.451405 -3.469853 -1.110846 7.000000
17.893816 -12.872222 -0.735085 22.000000
7.514949 -12.656616 0.118178 10.000000
17.388081 12.754135 -2.087789 8.000000
12.825218 2.779940 -1.168892 1.000000
16.452477 -3.413134 -1.118985 10.000000
17.899563 -12.777064 -0.756449 65.000000
7.582261 -12.669034 0.100501 16.000000
17.287834 12.782989 -2.070268 6.000000
12.284648 2.709947 -1.122735 1.000000
16.444937 -3.348750 -1.123514 10.000000
17.570477 -12.445196 -0.763184 144.000000
7.657494 -12.693974 0.080211 9.000000
17.154499 12.781913 -2.041057 5.000000
12.017088 2.697150 -1.099178 1.000000
16.402710 -3.277585 -1.128599 10.000000
17.351767 -12.199551 -0.766657 112.000000
7.753376 -12.747051 0.065101 10.000000
17.096447 12.836376 -2.028439 5.000000
16.418734 -3.218252 -1.140617 10.000000
17.383402 -12.126829 -0.788311 120.000000
7.829219 -12.771119 0.047061 10.000000
16.935286 12.812703 -1.999918 6.000000
11.797801 2.741093 -1.078841 1.000000
16.411726 -3.148520 -1.142173 33.000000
17.455801 -12.082462 -0.811844 125.000000
7.897428 -12.782035 0.028846 9.000000
16.833616 12.833066 -1.982272 6.000000
11.788041 2.784403 -1.074613 1.000000
16.387175 -3.087503 -1.148517 10.000000
17.493280 -12.018303 -0.826470 56.000000
7.994464 -12.833657 0.013195 12.000000
16.720442 12.843962 -1.959627 6.000000
11.312844 2.715974 -1.032194 1.000000
16.418331 -3.028141 -1.152806 11.000000
17.524105 -11.945172 -0.848096 97.000000
8.079093 -12.869197 -0.007956 9.000000
16.674063 12.905784 -1.948587 8.000000
11.264454 2.748061 -1.024612 1.000000
16.428524 -2.967800 -1.164461 27.000000
17.629347 -11.922508 -0.865951 102.000000
8.134648 -12.857803 -0.023900 10.000000
16.545528 12.903547 -1.920615 10.000000
10.983278 2.724190 -0.997990 1.000000
16.404709 -2.901450 -1.164933 11.000000
18.004168 -12.080061 -0.901133 98.000000
8.251605 -12.937473 -0.042851 15.000000
16.530499 12.989542 -1.909584 10.000000
10.736562 2.704808 -0.976466 1.000000
16.415031 -2.841270 -1.167841 38.000000
17.659002 -11.759288 -0.896635 170.000000
8.310204 -12.929575 -0.059016 9.000000
16.499435 13.063231 -1.896702 17.000000
10.886144 2.784963 -0.987039 1.000000
16.395226 -2.775989 -1.174450 10.000000
17.613930 -11.636314 -0.906940 110.000000
8.393299 -12.959183 -0.075454 10.000000
16.448586 13.121335 -1.881564 14.000000
10.678535 2.773591 -0.965250 1.000000
16.469055 -2.726434 -1.181943 9.000000
17.747843 -11.631566 -0.926476 168.000000
8.517228 -13.045485 -0.092453 17.000000
16.436594 13.210637 -1.867171 13.000000
10.701520 2.823468 -0.968300 1.000000
16.478529 -2.665988 -1.187770 9.000000
17.751842 -11.541400 -0.946687 124.000000
8.568141 -13.023924 -0.111559 18.000000
16.400944 13.271747 -1.860688 9.000000
10.652931 2.852452 -0.960965 1.000000
16.487572 -2.605476 -1.196510 9.000000
17.850077 -11.516822 -0.968352 96.000000
8.663180 -13.068805 -0.134096 17.000000
16.414148 13.391824 -1.853367 9.000000
10.435711 2.835320 -0.942301 1.000000
16.540749 -2.551776 -1.208490 7.000000
17.900009 -11.456339 -0.983644 151.000000
8.752621 -13.099221 -0.148485 10.000000
16.385437 13.468732 -1.837037 27.000000
10.636862 2.931877 -0.957547 1.000000
16.623753 -2.502237 -1.216826 6.000000
18.190071 -11.548223 -1.012326 91.000000
8.837291 -13.126516 -0.165716 16.000000
16.267885 13.472319 -1.814525 106.000000
10.563680 2.953408 -0.951927 1.000000
16.667141 -2.446329 -1.222293 6.000000
18.282080 -11.512839 -1.037767 98.000000
8.930121 -13.160028 -0.188760 11.000000
16.273832 13.568473 -1.805297 113.000000
10.424221 2.953688 -0.936473 1.000000
16.695946 -2.385105 -1.226684 6.000000
18.368505 -11.486834 -1.051989 56.000000
9.033370 -13.222586 -0.204040 20.000000
16.278364 13.673699 -1.796398 115.000000
10.418427 2.993340 -0.933120 1.000000
16.857050 -2.345107 -1.246840 6.000000
18.469112 -11.455798 -1.074351 10.000000
9.132163 -13.257615 -0.221981 10.000000
16.423065 13.898232 -1.802850 8.000000
10.511852 3.065916 -0.938732 1.000000
17.112389 -2.316727 -1.268119 1.000000
18.531160 -11.391531 -1.094321 32.000000
9.203316 -13.256641 -0.245066 18.000000
16.505919 14.072494 -1.798535 6.000000
10.476658 3.097362 -0.936597 1.000000
17.322800 -2.280590 -1.292282 2.000000
9.326746 -13.334827 -0.264157 9.000000
16.458960 14.136959 -1.783801 7.000000
10.446458 3.130113 -0.931082 1.000000
17.766064 -2.272734 -1.327862 1.000000
20.928951 -12.655061 -1.260365 92.000000
9.421506 -13.365739 -0.279726 10.000000
16.619007 14.380611 -1.791402 14.000000
10.415848 3.162591 -0.929380 1.000000
20.847874 -12.506866 -1.274119 92.000000
9.491025 -13.365047 -0.303298 20.000000
21.545080 18.781733 -2.304693 38.000000
10.504241 3.233533 -0.930640 1.000000
20.871737 -12.417379 -1.281288 46.000000
9.627102 -13.451952 -0.317622 20.000000
21.522987 18.908407 -2.284917 58.000000
10.511499 3.277993 -0.930405 1.000000
21.049246 -12.418756 -1.315048 108.000000
9.700077 -13.454438 -0.338750 10.000000
21.476585 18.994196 -2.261488 58.000000
10.513976 3.321097 -0.927820 1.000000
20.969055 -12.268059 -1.319978 110.000000
9.793769 -13.484916 -0.357837 14.000000
21.459810 19.119993 -2.251943 53.000000
10.483059 3.353637 -0.922301 1.000000
21.042898 -12.207957 -1.347353 91.000000
9.925527 -13.561511 -0.381374 22.000000
21.398462 19.206484 -2.227633 79.000000
10.471002 3.392135 -0.918459 1.000000
21.138895 -12.170136 -1.363719 123.000000
9.993325 -13.554616 -0.399803 10.000000
21.358940 19.312830 -2.205594 71.000000
10.562964 3.464756 -0.923725 1.000000
21.080580 -12.029027 -1.373966 65.000000
10.084415 -13.573728 -0.419173 14.000000
21.315228 19.415775 -2.183107 75.000000
10.565452 3.506468 -0.919139 1.000000
40.007229 -3.936843 -3.036800 10.000000
21.171850 -11.988214 -1.390096 111.000000
10.210602 -13.653761 -0.437521 21.000000
21.285976 19.546051 -2.167840 75.000000
10.518229 3.537732 -0.916259 1.000000
40.031578 -3.777049 -3.051589 13.000000
21.222874 -11.904852 -1.415864 122.000000
10.258933 -13.604180 -0.461055 15.000000
21.262424 19.654785 -2.151740 37.000000
10.519496 3.581128 -0.915554 1.000000
39.963913 -3.637001 -3.052539 19.000000
10.278902 -13.532142 -0.474668 14.000000
21.260752 19.791313 -2.133062 34.000000
10.597392 3.646906 -0.919443 1.000000
39.907516 -3.477419 -3.054221 16.000000
21.872271 -12.069162 -1.479782 6.000000
10.352425 -13.525724 -0.493622 19.000000
21.229433 19.907894 -2.111694 26.000000
10.640731 3.705495 -0.920415 1.000000
39.904026 -3.329795 -3.067059 20.000000
23.951546 -13.102224 -1.636324 9.000000
10.458651 -13.575933 -0.511619 22.000000
21.201160 20.027924 -2.090585 9.000000
10.580527 3.728068 -0.910471 1.000000
39.890575 -3.181492 -3.072134 10.000000
23.959167 -12.992528 -1.647903 181.000000
10.555650 -13.588663 -0.531727 12.000000
21.248158 20.220207 -2.076787 7.000000
10.598633 3.782343 -0.909374 1.000000
39.941742 -3.038290 -3.075196 18.000000
30.543531 -16.404762 -2.120521 30.000000
10.682736 -13.653620 -0.553897 22.000000
21.315628 20.433811 -2.064791 7.000000
10.650774 3.845017 -0.909083 1.000000
39.913296 -2.875025 -3.079118 25.000000
30.691462 -16.346434 -2.157277 9.000000
10.781780 -13.676623 -0.577729 25.000000
10.645593 3.889415 -0.905927 1.000000
39.952454 -2.744702 -3.081420 10.000000
49.086407 -25.913181 -3.472719 10.000000
10.891219 -13.716692 -0.599386 12.000000
10.745004 3.966172 -0.913490 1.000000
39.987038 -2.592854 -3.090331 13.000000
48.998047 -25.659132 -3.489504 10.000000
11.081561 -13.851856 -0.622562 18.000000
10.738632 4.012874 -0.910283 1.000000
40.075882 -2.451146 -3.096483 20.000000
48.788406 -25.300312 -3.505836 10.000000
11.304992 -14.030461 -0.651252 10.000000
25.091640 24.761002 -2.347609 7.000000
10.655761 4.022226 -0.898383 1.000000
40.079082 -2.303927 -3.103105 23.000000
36.428722 -18.737898 -2.634752 12.000000
11.409442 -14.054344 -0.673279 11.000000
25.207388 25.058247 -2.335863 3.000000
40.190708 -2.162581 -3.125247 39.000000
11.532193 -14.114699 -0.693831 19.000000
31.034201 11.987549 -2.594954 1.000000
40.312878 -2.021001 -3.134150 43.000000
48.371052 -24.412786 -3.570303 10.000000
11.654921 -14.148609 -0.720221 9.000000
40.424038 -1.878066 -3.149341 39.000000
48.281097 -24.166832 -3.576657 10.000000
11.764357 -14.180305 -0.743246 14.000000
40.640125 -1.731749 -3.165635 10.000000
48.170444 -23.891062 -3.599655 10.000000
11.921558 -14.263083 -0.766119 9.000000
27.515793 28.157127 -2.442417 1.000000
40.860390 -1.591124 -3.182317 10.000000
48.023167 -23.599104 -3.610305 18.000000
12.027934 -14.283632 -0.789174 10.000000
28.064970 28.920374 -2.471869 3.000000
47.914776 -23.328203 -3.623735 9.000000
12.164504 -14.343891 -0.811287 9.000000
27.565130 28.594425 -2.401394 10.000000
47.858955 -23.084421 -3.641042 5.000000
12.315329 -14.424495 -0.834735 13.000000
48.209431 -23.015379 -3.707488 1.000000
12.464329 -14.486004 -0.867794 9.000000
14.934683 6.210593 -1.213332 35.000000
48.189053 -22.809738 -3.728135 3.000000
12.595355 -14.530224 -0.890019 15.000000
29.665880 31.469658 -2.493674 8.000000
14.843450 6.236563 -1.199292 36.000000
17.313316 -0.353593 -1.356790 6.000000
46.848045 -21.965172 -3.645360 1.000000
12.727491 -14.579521 -0.916065 20.000000
29.630262 31.663588 -2.462451 11.000000
14.839428 6.298963 -1.192337 10.000000
17.075264 -0.286126 -1.338043 9.000000
47.234097 -21.935358 -3.696524 1.000000
12.885850 -14.652175 -0.940658 26.000000
29.611525 31.854645 -2.431585 11.000000
14.798292 6.345614 -1.185241 9.000000
17.011326 -0.228630 -1.332966 9.000000
13.003337 -14.687265 -0.962833 10.000000
29.576361 32.040375 -2.392064 11.000000
14.816685 6.417893 -1.180090 8.000000
16.957220 -0.165742 -1.328670 9.000000
13.149588 -14.743225 -0.986937 9.000000
29.529549 32.248440 -2.368111 12.000000
15.044908 6.582342 -1.191537 7.000000
16.947779 -0.097613 -1.327889 30.000000
16.387550 -7.392377 -1.304430 5.000000
13.262151 -14.754984 -1.011954 9.000000
29.521255 32.454815 -2.337667 12.000000
15.126166 6.684052 -1.191200 1.000000
16.897936 -0.038340 -1.326932 31.000000
16.327400 -7.293342 -1.306919 6.000000
13.469370 -14.896390 -1.041961 26.000000
17.500898 19.375425 -1.368323 10.000000
16.878267 0.014729 -1.322421 32.000000
16.483099 -7.297421 -1.326927 6.000000
13.599710 -14.924941 -1.068805 20.000000
15.682643 7.067808 -1.220965 5.000000
16.883041 0.085453 -1.322811 38.000000
16.580133 -7.260919 -1.341910 6.000000
13.775232 -15.006715 -1.096097 8.000000
37.151733 41.712849 -2.819914 9.000000
15.732344 7.153069 -1.217580 6.000000
16.862726 0.141272 -1.321249 36.000000
16.640282 -7.221591 -1.351200 6.000000
37.000900 41.836624 -2.770671 5.000000
15.824458 7.265057 -1.217599 29.000000
16.837173 0.202776 -1.319296 38.000000
16.830906 -7.231128 -1.374162 6.000000
14.044109 -15.081559 -1.148559 8.000000
15.811875 7.329568 -1.209520 6.000000
16.846285 0.264643 -1.320078 119.000000
17.012625 -7.235452 -1.396559 6.000000
14.173737 -15.109344 -1.172760 9.000000
16.011370 7.493460 -1.217573 1.000000
16.800348 0.325516 -1.316563 134.000000
17.152773 -7.220932 -1.422216 6.000000
14.358307 -15.194103 -1.209039 26.000000
16.092617 7.603510 -1.216499 1.000000
16.799042 0.387091 -1.316563 166.000000
17.348934 -7.228771 -1.442873 5.000000
14.544720 -15.284141 -1.238711 10.000000
41.751198 48.608845 -2.932176 5.000000
16.817364 0.452127 -1.318125 154.000000
17.540522 -7.233263 -1.466586 5.000000
16.790453 0.512995 -1.319104 138.000000
17.709280 -7.227023 -1.488547 4.000000
11.208683 -11.606931 -0.975585 3.000000
38.956173 46.016888 -2.642953 5.000000
16.783936 0.574377 -1.312850 98.000000
17.920296 -7.236631 -1.507438 6.000000
38.763294 46.130856 -2.578104 1.000000
16.796661 0.636455 -1.314019 36.000000
18.145252 -7.250237 -1.530978 6.000000
11.311320 -11.546708 -1.002787 14.000000
38.779488 46.478565 -2.537036 1.000000
44.140579 21.853991 -3.228298 6.000000
16.819120 0.699049 -1.315968 36.000000
10.889418 -4.302634 -0.923546 1.000000
11.383967 -11.544039 -1.020032 6.000000
38.674274 46.699364 -2.477729 22.000000
44.390968 22.180908 -3.243837 6.000000
16.811100 0.763388 -1.318515 35.000000
10.797592 -4.220664 -0.924620 1.000000
15.703456 -15.796920 -1.428699 8.000000
41.225422 50.135101 -2.595633 1.000000
44.953438 22.668238 -3.246868 8.000000
16.838522 0.826487 -1.314974 37.000000
10.901010 -4.215095 -0.936253 1.000000
15.778012 -15.755998 -1.449758 8.000000
41.226315 50.512447 -2.538944 1.000000
44.956055 22.876612 -3.226571 9.000000
16.830400 0.887935 -1.314585 32.000000
10.855412 -4.151793 -0.937148 1.000000
15.865486 -15.744114 -1.472832 7.000000
41.080292 50.711834 -2.472936 1.000000
44.816193 23.012623 -3.187251 11.000000
16.832243 0.949910 -1.312032 32.000000
10.744393 -4.064254 -0.930308 1.000000
16.099865 -15.860005 -1.508993 24.000000
41.098515 51.097977 -2.427450 3.000000
44.857082 23.241772 -3.169639 11.000000
16.877945 1.014560 -1.321813 26.000000
10.786764 -4.035151 -0.938759 1.000000
16.249674 -15.890647 -1.537488 18.000000
40.947063 51.293499 -2.349301 7.000000
44.790070 23.395779 -3.143806 11.000000
16.885126 1.071198 -1.313734 13.000000
10.683253 -3.956095 -0.928604 1.000000
16.464518 -15.983112 -1.568357 28.000000
40.852829 51.543442 -2.296736 1.000000
44.993202 23.722225 -3.128788 10.000000
16.880491 1.141917 -1.313734 10.000000
10.628388 -3.887335 -0.928437 1.000000
16.646120 -16.030115 -1.599775 9.000000
33.697895 42.837769 -1.855682 130.000000
46.717323 24.850500 -3.245724 4.000000
16.950970 1.203166 -1.322506 10.000000
10.641953 -3.848132 -0.936337 1.000000
16.839321 -16.114511 -1.637996 10.000000
40.694759 52.105656 -2.181676 1.000000
45.287117 24.303095 -3.107509 1.000000
17.016058 1.276457 -1.321981 6.000000
10.477227 -3.745203 -0.926496 1.000000
40.642658 52.433983 -2.119626 4.000000
45.458595 24.610142 -3.089225 1.000000
17.205315 1.354088 -1.334031 5.000000
10.505319 -3.709815 -0.931629 1.000000
17.276012 -16.280090 -1.714069 9.000000
10.523242 -3.672820 -0.935937 1.000000
17.467367 -16.351393 -1.744457 29.000000
50.159336 27.632357 -3.352137 1.000000
10.489378 -3.617927 -0.933689 1.000000
17.676050 -16.425600 -1.776210 8.000000
20.708809 27.312534 -0.987345 30.000000
50.281773 27.940516 -3.336919 1.000000
10.436236 -3.556850 -0.931668 1.000000
13.605996 -12.555251 -1.379055 7.000000
40.190594 53.412258 -1.855453 1.000000
49.989449 28.018364 -3.284172 1.000000
10.368627 -3.491443 -0.928331 1.000000
13.942255 -12.762300 -1.424521 9.000000
39.924286 53.445644 -1.781849 15.000000
10.361673 -3.446870 -0.936169 2.000000
14.201015 -12.912870 -1.466792 22.000000
39.785774 53.669373 -1.714425 1.000000
10.360039 -3.404204 -0.934888 4.000000
10.349030 -3.356614 -0.936551 2.000000
10.346719 -3.314002 -0.939057 7.000000
10.362087 -3.281077 -0.943281 14.000000
10.387991 -3.247436 -0.948377 7.000000
4.444978 -3.865323 -0.479116 3.000000
13.470621 18.864214 -0.477459 4.000000
10.376667 -3.198228 -0.951893 1.000000
13.504172 19.037378 -0.452238 5.000000
10.387216 -3.163800 -0.951893 1.000000
4.385648 -3.757628 -0.477858 6.000000
13.402024 19.055010 -0.426971 20.000000
10.428361 -3.128658 -0.962114 1.000000
4.385063 -3.726705 -0.483240 3.000000
13.361432 19.138926 -0.403353 8.000000
10.473189 -3.100312 -0.965195 1.000000
4.375648 -3.691169 -0.483727 4.000000
10.541526 -3.078564 -0.974310 1.000000
4.381183 -3.668438 -0.487871 5.000000
23.668707 3.267464 -1.788150 4.000000
10.622797 -3.064105 -0.988656 1.000000
4.385335 -3.647245 -0.491998 2.000000
10.577526 -3.005105 -0.983312 1.000000
4.368935 -3.604034 -0.492515 4.000000
10.683521 -2.994956 -0.996092 1.000000
4.330707 -3.556017 -0.490251 4.000000
19.307775 28.733000 -0.410869 16.000000
10.777066 -2.974571 -1.003692 1.000000
4.309923 -3.510080 -0.490210 2.000000
19.256939 28.863646 -0.387595 4.000000
20.781511 3.176306 -1.551200 4.000000
10.829433 -2.950412 -1.015552 1.000000
4.340565 -3.511159 -0.497278 1.000000
19.091038 28.854353 -0.344208 3.000000
20.650896 3.241230 -1.535072 8.000000
10.951468 -2.936486 -1.029873 1.000000
4.389243 -3.521481 -0.506181 3.000000
38.819923 59.097687 -0.617053 9.000000
19.961071 12.962873 -1.072465 4.000000
20.589909 3.309028 -1.527771 10.000000
11.047619 -2.923033 -1.040009 1.000000
4.268211 -3.401174 -0.494761 2.000000
19.904091 13.024872 -1.046881 4.000000
20.529221 3.376507 -1.513224 18.000000
11.116586 -2.895653 -1.045447 1.000000
4.327242 -3.422358 -0.504030 4.000000
19.798447 13.059628 -1.027245 4.000000
20.492378 3.447634 -1.507784 33.000000
11.271461 -2.891922 -1.063104 1.000000
4.308146 -3.381663 -0.504215 1.000000
12.789225 19.928917 -0.128121 9.000000
19.780159 13.151861 -1.012177 1.000000
20.450377 3.517692 -1.501991 70.000000
11.407136 -2.882212 -1.079038 1.000000
4.343728 -3.383935 -0.511770 1.000000
19.802950 13.271940 -0.999153 1.000000
20.423494 3.586513 -1.497289 40.000000
11.523555 -2.866737 -1.093229 1.000000
4.379447 -3.386043 -0.518412 1.000000
20.399630 3.666797 -1.489334 37.000000
11.649860 -2.852858 -1.106324 1.000000
4.249368 -3.260655 -0.505368 1.000000
20.450077 3.753291 -1.490364 37.000000
11.839827 -2.851235 -1.123316 1.000000
4.300681 -3.275055 -0.512895 1.000000
20.443186 3.822145 -1.479832 37.000000
11.975775 -2.837575 -1.139552 1.000000
4.260676 -3.219987 -0.511416 2.000000
20.414846 3.894340 -1.471513 149.000000
12.121663 -2.825260 -1.154632 1.000000
4.419479 -3.314621 -0.532908 1.000000
19.027235 13.253844 -0.878648 6.000000
20.415878 3.972143 -1.461683 118.000000
12.301785 -2.819745 -1.170797 1.000000
4.499241 -3.348747 -0.544007 1.000000
18.954613 13.306704 -0.857302 6.000000
20.391647 4.045053 -1.457353 105.000000
12.554962 -2.827081 -1.198382 4.000000
18.926712 13.390943 -0.837995 5.000000
20.372293 4.118876 -1.449749 67.000000
4.137698 -3.032775 -0.505726 1.000000
18.945545 13.503751 -0.820581 3.000000
20.440359 4.210676 -1.452021 20.000000
18.973497 13.628820 -0.807621 4.000000
20.435539 4.287821 -1.438138 31.000000
20.395538 4.357533 -1.432780 18.000000
20.467659 4.451446 -1.431637 12.000000
4.221095 -2.999776 -0.525094 1.000000
20.456808 4.527674 -1.421008 9.000000
16.370724 -3.306864 -1.569922 22.000000
52.790337 39.091316 -2.041386 11.000000
20.484838 4.612701 -1.409394 6.000000
16.378120 -3.245926 -1.566540 25.000000
4.334722 -3.045363 -0.539974 1.000000
52.598606 39.234364 -1.993401 9.000000
16.380152 -3.181012 -1.571431 25.000000
4.280259 -2.983729 -0.535504 1.000000
52.240353 39.265953 -1.916767 21.000000
16.357738 -3.114488 -1.565243 28.000000
4.319125 -2.988474 -0.540911 2.000000
51.789749 39.210926 -1.837163 11.000000
16.364149 -3.053600 -1.564775 29.000000
4.317514 -2.964018 -0.542117 2.000000
51.857796 39.562302 -1.776351 9.000000
16.351015 -2.989175 -1.559534 31.000000
4.357921 -2.966090 -0.548481 1.000000
51.585052 39.354221 -1.699015 5.000000
16.352612 -2.989467 -1.542127 37.000000
4.315812 -2.949569 -0.537438 5.000000
51.860210 39.264271 -1.714687 12.000000
16.352652 -3.051454 -1.528535 34.000000
4.297316 -2.960094 -0.530040 3.000000
52.142902 39.178467 -1.753448 7.000000
16.342142 -3.111519 -1.519824 32.000000
4.323595 -3.001621 -0.529995 1.000000
52.493767 39.141903 -1.794722 9.000000
20.647339 4.728872 -1.351214 9.000000
16.350960 -3.175343 -1.512923 37.000000
4.288558 -3.000650 -0.521508 2.000000
52.649139 38.972538 -1.841138 2.000000
20.576908 4.633433 -1.345485 10.000000
16.373098 -3.244930 -1.513176 30.000000
52.867119 38.834759 -1.889603 1.000000
20.539934 4.546072 -1.345655 11.000000
16.371374 -3.306995 -1.508249 13.000000
20.484097 4.451277 -1.340867 93.000000
16.394058 -3.374163 -1.502633 9.000000
20.470766 4.369870 -1.342605 10.000000
16.523958 -3.464076 -1.503812 1.000000
4.295688 -3.114132 -0.508080 1.000000
20.456884 4.288573 -1.347981 10.000000
4.244338 -3.100701 -0.499644 1.000000
79.619926 56.729465 -3.038161 23.000000
20.438025 4.206477 -1.349371 20.000000
13.232473 -2.877889 -1.201428 4.000000
79.479149 56.191113 -3.075925 27.000000
20.424419 4.125705 -1.340161 23.000000
13.046574 -2.892356 -1.176191 3.000000
79.327751 55.649120 -3.096010 27.000000
20.444071 4.051743 -1.344120 23.000000
12.779966 -2.877746 -1.146098 1.000000
79.396698 55.284962 -3.158764 13.000000
20.434061 3.971979 -1.346144 18.000000
12.604134 -2.889047 -1.126768 1.000000
4.275425 -3.220594 -0.489019 1.000000
79.037804 54.606007 -3.203642 26.000000
20.423512 3.892299 -1.351788 33.000000
12.326838 -2.873081 -1.100687 1.000000
4.267829 -3.239459 -0.485733 1.000000
78.885208 54.074516 -3.256247 24.000000
20.457029 3.821038 -1.356718 32.000000
12.252569 -2.907677 -1.090660 1.000000
4.279930 -3.273437 -0.484680 2.000000
20.451496 3.742484 -1.351788 30.000000
12.044665 -2.900563 -1.068646 1.000000
4.378690 -3.374481 -0.492399 5.000000
20.470161 3.664724 -1.359372 43.000000
11.947035 -2.923421 -1.058765 1.000000
