VERSION .7
FIELDS x y z intensity
SIZE 4 4 4 4
TYPE F F F F
COUNT 1 1 1 1
WIDTH 1216
HEIGHT 1
VIEWPOINT 0 0 0 1 0 0 0
POINTS 1216
DATA ascii
5.538150 -9.005656 0.404298 25.000000
11.844544 2.769390 -0.382269 1.000000
84.503723 -15.982421 -0.735516 37.000000
17.646664 -12.146362 0.302879 22.000000
5.635577 -9.092798 0.397872 19.000000
11.931491 2.835881 -0.387550 1.000000
84.404045 -15.643365 -0.779094 16.000000
17.687147 -12.078929 0.284117 8.000000
5.629401 -9.008925 0.382106 7.000000
11.711272 2.833255 -0.376554 1.000000
39.181545 -7.120494 -0.368386 8.000000
9.891030 -6.704286 0.150164 1.000000
5.695605 -9.044468 0.375116 7.000000
11.599888 2.847059 -0.373274 1.000000
39.081696 -6.968548 -0.388015 8.000000
9.913313 -6.671521 0.139737 1.000000
6.098568 -9.606099 0.385415 9.000000
11.317887 2.821866 -0.362492 1.000000
38.981220 -6.789291 -0.393651 9.000000
9.902662 -6.606752 0.130900 62.000000
6.091879 -9.521944 0.371039 10.000000
11.322001 2.867010 -0.362958 1.000000
39.054916 -6.654735 -0.414892 9.000000
17.637911 -11.678706 0.214146 10.000000
11.266966 2.901251 -0.357499 1.000000
38.980343 -6.495100 -0.420742 7.000000
17.684870 -11.616787 0.203118 19.000000
5.612872 -8.636463 0.316497 76.000000
85.083649 -13.856751 -0.962955 10.000000
17.706551 -11.538351 0.180747 16.000000
5.582926 -8.525109 0.302447 73.000000
85.084312 -13.536929 -0.977433 21.000000
17.746798 -11.476524 0.169681 15.000000
5.597990 -8.473698 0.290774 177.000000
59.556679 -9.251795 -0.694303 95.000000
17.772001 -11.400664 0.154780 18.000000
5.646866 -8.489570 0.283021 10.000000
59.832035 -9.070108 -0.728811 144.000000
17.788465 -11.319413 0.136160 15.000000
11.121715 3.078054 -0.346525 1.000000
17.836384 -11.262627 0.125180 18.000000
17.856773 -11.192848 0.106670 20.000000
6.138369 -9.015402 0.266555 24.000000
17.889244 -11.122082 0.091913 14.000000
76.145485 -10.444174 -1.006132 20.000000
17.919100 -11.045470 0.077152 12.000000
5.915880 -8.556373 0.234246 55.000000
17.930071 -10.970350 0.066036 14.000000
5.940111 -8.527631 0.224952 27.000000
11.586067 3.436349 -0.350228 1.000000
17.974007 -10.898314 0.047693 13.000000
5.954247 -8.481473 0.211642 9.000000
11.243249 3.379555 -0.336136 1.000000
18.000994 -10.824641 0.036661 12.000000
6.064745 -8.575065 0.205335 6.000000
28.023838 24.223690 -1.435966 5.000000
18.034924 -10.768044 0.025662 16.000000
6.192008 -8.687288 0.197389 18.000000
39.457588 34.384682 -1.983158 13.000000
11.046357 3.408858 -0.326949 29.000000
18.056503 -10.682840 0.003662 11.000000
6.175739 -8.600784 0.186669 36.000000
39.492069 34.658012 -1.963409 11.000000
11.033897 3.449356 -0.322914 28.000000
72.943047 -8.375298 -1.063687 153.000000
18.099846 -10.619117 -0.007325 21.000000
6.043228 -8.351460 0.169139 22.000000
11.040347 3.495843 -0.319430 27.000000
72.973068 -8.107872 -1.076501 214.000000
18.129999 -10.547675 -0.018304 20.000000
6.060647 -8.314271 0.159833 27.000000
39.328762 35.028336 -1.885164 13.000000
11.036978 3.539337 -0.319706 15.000000
72.986816 -7.838695 -1.114717 236.000000
18.132034 -10.464316 -0.040192 24.000000
6.103015 -8.308249 0.149348 17.000000
39.264313 35.229851 -1.851377 10.000000
11.057419 3.590640 -0.312554 7.000000
73.035133 -7.573215 -1.102206 228.000000
18.178940 -10.402752 -0.043867 18.000000
6.163231 -8.326089 0.142840 24.000000
39.158348 35.394699 -1.806367 5.000000
11.063177 3.637388 -0.313092 1.000000
73.145302 -7.326659 -1.129142 14.000000
18.525665 -10.511216 -0.063198 9.000000
39.189529 35.659725 -1.776217 30.000000
19.022221 -10.709723 -0.076201 10.000000
6.138727 -8.170075 0.119507 32.000000
39.022411 35.769981 -1.746825 34.000000
19.530916 -10.906515 -0.089799 9.000000
6.103907 -8.064959 0.109453 27.000000
57.053211 52.665627 -2.494352 17.000000
20.064983 -11.108472 -0.112081 9.000000
6.160789 -8.078413 0.097527 31.000000
56.893990 52.906178 -2.441558 1.000000
78.081261 -6.666471 -1.231061 33.000000
20.565775 -11.287440 -0.118741 9.000000
6.173762 -8.037086 0.090212 26.000000
56.616741 53.036640 -2.397326 8.000000
78.428391 -6.406647 -1.277368 8.000000
21.159893 -11.503235 -0.147126 9.000000
56.583405 53.396133 -2.336230 1.000000
78.491226 -6.122260 -1.278017 1.000000
21.690746 -11.698805 -0.159149 9.000000
57.732361 54.881794 -2.336298 22.000000
22.375019 -11.967228 -0.186007 9.000000
57.146030 54.724541 -2.251566 12.000000
23.068008 -12.229350 -0.205065 10.000000
6.494501 -8.205783 0.052968 26.000000
57.128742 55.091557 -2.189135 7.000000
89.857475 32.847607 -2.271368 24.000000
84.991051 -5.719599 -1.412522 4.000000
23.758774 -12.484217 -0.224852 15.000000
69.525497 67.539795 -2.605918 1.000000
89.995087 33.272335 -2.244402 27.000000
24.535952 -12.778051 -0.246248 10.000000
69.161194 67.680367 -2.517039 1.000000
90.177597 33.716022 -2.218396 34.000000
25.511066 -13.167244 -0.270581 11.000000
6.128743 -7.576475 0.023812 45.000000
30.409554 29.977423 -1.088338 22.000000
90.371719 34.166653 -2.209366 29.000000
26.175411 -13.394635 -0.292527 26.000000
6.184913 -7.588860 0.011961 84.000000
30.326672 30.105175 -1.051812 22.000000
90.399971 34.556553 -2.213139 35.000000
26.228550 -13.300748 -0.318241 36.000000
6.387205 -7.778677 0.001757 9.000000
84.612656 -4.108644 -1.463870 9.000000
26.951647 -13.543481 -0.331675 6.000000
56.451519 56.866859 -1.846360 26.000000
90.607628 35.399330 -2.105610 26.000000
84.715714 -3.832102 -1.465425 15.000000
29.377460 -14.627860 -0.378051 8.000000
56.043831 56.871559 -1.770117 1.000000
90.691154 35.815647 -2.110588 29.000000
30.461802 -15.028708 -0.420940 12.000000
90.777206 36.198071 -2.064178 28.000000
78.781212 -2.985159 -1.389882 27.000000
31.704069 -15.504227 -0.455838 9.000000
6.562392 -7.762794 -0.035482 20.000000
26.200792 26.971109 -0.767956 6.000000
78.736420 -2.694502 -1.402663 1.000000
33.015766 -15.996004 -0.493063 10.000000
6.532423 -7.670145 -0.043960 22.000000
25.963326 26.923403 -0.737760 9.000000
78.895256 -2.424251 -1.405333 16.000000
34.331532 -16.478394 -0.525103 8.000000
6.643764 -7.745939 -0.053433 12.000000
25.802683 26.953833 -0.703424 9.000000
79.118492 -2.140883 -1.409160 1.000000
35.953663 -17.095131 -0.569801 8.000000
6.639386 -7.683666 -0.062033 255.000000
25.719105 27.054958 -0.677646 9.000000
91.761154 38.177692 -1.925668 3.000000
37.804039 -17.789230 -0.619870 10.000000
6.601172 -7.577738 -0.070162 177.000000
25.695726 27.229532 -0.640437 9.000000
91.395401 38.419090 -1.886315 26.000000
38.392605 -17.910925 -0.650731 8.000000
6.624902 -7.556913 -0.078932 38.000000
91.388321 38.810867 -1.837086 31.000000
38.707180 -17.885227 -0.684723 8.000000
6.725320 -7.614972 -0.088662 38.000000
91.494415 39.252365 -1.789952 26.000000
38.946320 -17.831018 -0.710282 8.000000
6.866127 -7.717213 -0.099159 28.000000
91.529396 39.665215 -1.758637 31.000000
39.038387 -17.700382 -0.733222 8.000000
6.912993 -7.715487 -0.106680 34.000000
91.691078 40.135098 -1.712135 23.000000
39.358158 -17.671745 -0.753071 8.000000
6.800462 -7.534147 -0.113374 33.000000
18.371983 20.176392 -0.357215 10.000000
92.266602 40.790638 -1.672826 1.000000
39.470985 -17.565363 -0.776740 8.000000
6.842150 -7.529979 -0.122532 25.000000
18.338449 20.281326 -0.343618 7.000000
92.007553 41.041393 -1.670587 29.000000
39.612617 -17.454733 -0.793378 24.000000
6.902054 -7.542835 -0.133841 215.000000
92.108002 41.491631 -1.622252 28.000000
39.863811 -17.391220 -0.819907 16.000000
6.844858 -7.425499 -0.141018 38.000000
82.616768 92.727028 -1.343947 10.000000
92.295601 41.964298 -1.575027 25.000000
40.110458 -17.324110 -0.846554 25.000000
6.974000 -7.510173 -0.152056 28.000000
82.399498 93.135689 -1.215456 10.000000
26.645906 -11.392936 -0.571611 11.000000
6.953609 -7.433389 -0.156347 40.000000
27.115345 -11.476284 -0.596199 20.000000
7.030798 -7.463511 -0.170027 22.000000
27.092482 -11.349701 -0.605035 86.000000
7.009865 -7.386858 -0.174198 16.000000
27.339420 -11.341133 -0.625166 24.000000
7.092034 -7.418797 -0.186314 10.000000
28.390776 33.042301 -0.281329 1.000000
92.998932 44.358215 -1.348817 15.000000
7.083103 -7.357862 -0.194319 10.000000
28.462965 33.349415 -0.244875 1.000000
93.099541 44.785770 -1.316355 31.000000
27.439827 -11.147738 -0.651435 6.000000
7.089021 -7.310194 -0.202635 35.000000
94.735313 46.021435 -1.286817 174.000000
7.248408 -7.419943 -0.213657 36.000000
94.959534 46.520195 -1.273492 23.000000
7.257834 -7.375319 -0.225784 142.000000
50.535835 60.525993 -0.233952 1.000000
94.229126 46.591400 -1.174233 25.000000
7.484011 -7.552244 -0.237568 25.000000
50.289261 60.659824 -0.165028 9.000000
93.749588 46.782684 -1.115520 28.000000
7.532680 -7.545838 -0.247543 25.000000
93.725357 47.200443 -1.062331 29.000000
7.634593 -7.592072 -0.257497 8.000000
30.829803 -11.741940 -0.806262 25.000000
7.651535 -7.553345 -0.266521 61.000000
7.342166 -7.197515 -0.263847 255.000000
7.601199 -7.397007 -0.279589 38.000000
94.572121 49.399082 -0.856633 1.000000
33.582375 -12.369220 -0.930889 9.000000
7.369258 -7.118896 -0.279044 71.000000
94.549744 49.787174 -0.801968 25.000000
33.453403 -12.182656 -0.938506 48.000000
94.835022 50.382221 -0.749718 28.000000
33.321426 -12.003021 -0.945994 57.000000
94.799835 50.831226 -0.694652 21.000000
33.440376 -11.907582 -0.954325 83.000000
7.790369 -7.364410 -0.318170 26.000000
20.915041 26.963509 0.214412 8.000000
95.070564 51.425907 -0.641415 17.000000
33.511768 -11.794783 -0.967533 88.000000
7.904608 -7.417731 -0.329298 47.000000
20.799341 27.008493 0.237991 8.000000
95.128059 51.865501 -0.586227 35.000000
93.879478 7.718297 -1.611311 9.000000
33.931774 -11.803016 -1.003504 10.000000
7.825483 -7.289725 -0.334229 22.000000
20.675787 27.052593 0.267425 8.000000
95.305672 52.416401 -0.512565 32.000000
93.780823 8.056341 -1.610113 14.000000
33.662521 -11.571224 -1.006715 33.000000
20.611303 27.164234 0.297575 8.000000
33.795010 -11.491598 -1.022002 39.000000
20.607645 27.367140 0.334847 8.000000
33.945530 -11.404151 -1.037793 45.000000
9.118369 -8.311635 -0.413607 22.000000
31.493719 42.144508 0.569338 11.000000
34.076431 -11.296100 -1.040401 31.000000
9.178143 -8.304735 -0.425749 1.000000
51.512707 69.437843 1.011073 1.000000
37.066830 -12.136793 -1.143962 15.000000
16.479765 -14.802032 -0.777413 33.000000
51.224598 69.581001 1.100912 1.000000
33.942951 19.478666 -0.075134 9.000000
37.077965 -12.004449 -1.156687 21.000000
16.522205 -14.731097 -0.796205 35.000000
51.128311 69.960403 1.179715 1.000000
33.809875 19.559502 -0.040904 6.000000
37.321262 -11.932270 -1.176594 26.000000
16.527130 -14.627113 -0.805424 34.000000
16.557684 -14.546281 -0.819717 32.000000
50.987160 70.825630 1.355703 1.000000
66.831322 39.319538 -0.013533 24.000000
73.438507 8.471148 -1.187125 15.000000
16.595167 -14.471787 -0.842032 34.000000
50.829807 71.103142 1.434075 1.000000
66.385727 39.385628 0.053889 12.000000
73.390564 8.712324 -1.161006 26.000000
16.607475 -14.380774 -0.851624 25.000000
27.539600 38.809334 0.830647 5.000000
66.097618 39.527279 0.094092 17.000000
73.269012 8.970344 -1.146709 37.000000
16.639467 -14.312200 -0.866172 27.000000
27.224056 38.664150 0.866678 17.000000
65.699623 39.616909 0.133902 19.000000
80.434486 -24.100903 -2.668128 22.000000
16.688486 -14.238209 -0.888751 24.000000
27.257961 39.029804 0.930704 9.000000
65.374443 39.748283 0.186949 27.000000
80.565422 -23.818687 -2.669557 7.000000
16.724953 -14.163729 -0.899417 21.000000
64.938370 39.809875 0.226001 20.000000
16.768620 -14.095497 -0.914300 22.000000
64.726547 39.991539 0.278865 22.000000
97.033676 13.360980 -1.453212 1.000000
85.418541 -24.574066 -2.886439 19.000000
16.808168 -14.023930 -0.928957 16.000000
64.244034 40.019508 0.343469 18.000000
97.078674 13.695357 -1.403214 19.000000
85.368134 -24.221128 -2.897220 22.000000
16.828300 -13.936428 -0.938702 9.000000
29.867817 18.757847 0.172361 12.000000
96.839569 14.023812 -1.417573 2.000000
13.407593 -3.751036 -0.459422 1.000000
16.909369 -13.899400 -0.963341 10.000000
46.410255 69.065742 2.019089 8.000000
29.869614 18.904684 0.203600 8.000000
13.339201 -3.679238 -0.461448 2.000000
16.917099 -13.802167 -0.976166 8.000000
25.964066 38.931473 1.176340 14.000000
29.829500 19.032778 0.228505 8.000000
13.233143 -3.592885 -0.462069 3.000000
17.001976 -13.767928 -0.993449 7.000000
25.845209 39.062664 1.234696 11.000000
29.776260 19.152735 0.247172 8.000000
13.191966 -3.534777 -0.457833 4.000000
17.065094 -13.720688 -1.005822 7.000000
25.601110 38.959145 1.261444 14.000000
29.709904 19.264360 0.271927 15.000000
13.146699 -3.471053 -0.460569 5.000000
17.047503 -13.613715 -1.017382 7.000000
25.672909 39.382164 1.329565 14.000000
29.763651 19.447123 0.304067 8.000000
24.693403 -6.422946 -0.873171 6.000000
17.088894 -13.544491 -1.032140 8.000000
25.901129 40.037052 1.390261 10.000000
29.742092 19.588959 0.329443 7.000000
13.147350 -3.368329 -0.466829 5.000000
17.130777 -13.466075 -1.046643 7.000000
25.653542 39.974846 1.434610 7.000000
29.711607 19.725399 0.348579 7.000000
13.154604 -3.318857 -0.471393 4.000000
17.092093 -13.344201 -1.056744 7.000000
21.389709 33.588055 1.244455 10.000000
29.800276 19.934486 0.375466 8.000000
13.132733 -3.262188 -0.470177 5.000000
9.263556 -7.172612 -0.577097 19.000000
21.244400 33.631306 1.284863 9.000000
61.115761 41.207581 0.836252 8.000000
13.115396 -3.206891 -0.471492 2.000000
9.285501 -7.135321 -0.585027 25.000000
21.139420 33.725269 1.327352 9.000000
13.054028 -3.141225 -0.473562 3.000000
9.350972 -7.131272 -0.595732 21.000000
20.977983 33.741909 1.366626 8.000000
13.080121 -3.096831 -0.471744 2.000000
9.404668 -7.117857 -0.603678 1.000000
21.003603 34.047596 1.417974 4.000000
29.194677 20.147579 0.470544 8.000000
13.105824 -3.052232 -0.476968 2.000000
17.287653 -12.984654 -1.121753 8.000000
22.443739 36.667934 1.568909 35.000000
29.153198 20.277094 0.495867 7.000000
13.107100 -3.001926 -0.478960 1.000000
17.334494 -12.920733 -1.136847 7.000000
22.274767 36.693241 1.603998 179.000000
61.742012 43.264347 1.131699 6.000000
38.216286 7.539306 -0.407928 10.000000
13.103226 -2.950536 -0.483115 1.000000
17.328768 -12.827294 -1.141222 7.000000
22.127626 36.739349 1.647605 115.000000
13.143648 -2.906657 -0.486543 2.000000
17.386765 -12.771848 -1.164607 7.000000
20.846579 34.901176 1.611476 10.000000
33.881718 6.930271 -0.350095 71.000000
13.115152 -2.849976 -0.485098 1.000000
17.392784 -12.678387 -1.169425 8.000000
20.749371 35.015495 1.648976 10.000000
33.848850 7.065228 -0.337974 80.000000
13.042354 -2.784136 -0.484355 1.000000
17.434780 -12.602137 -1.183902 7.000000
33.818008 7.188239 -0.319823 68.000000
12.939909 -2.712717 -0.482489 2.000000
17.524971 -12.569794 -1.198216 7.000000
61.217506 44.558796 1.400962 7.000000
33.781765 7.310048 -0.307665 95.000000
17.525497 -12.473146 -1.210183 7.000000
33.713444 7.412381 -0.301240 94.000000
17.521645 -12.373904 -1.218044 7.000000
37.161037 27.467621 0.935698 9.000000
33.617889 7.520649 -0.282592 94.000000
17.611322 -12.340744 -1.232423 7.000000
37.128548 27.644539 0.969634 2.000000
33.591530 7.637974 -0.270567 108.000000
17.573767 -12.227737 -1.238197 7.000000
59.845833 44.900864 1.632517 7.000000
33.509857 7.748682 -0.252126 117.000000
13.826684 -2.635080 -0.516127 1.000000
9.823880 -6.777041 -0.696510 9.000000
19.440371 34.755951 1.926789 10.000000
33.510597 7.878353 -0.228314 115.000000
9.809036 -6.718902 -0.698039 8.000000
19.254787 34.707977 1.969000 6.000000
39.118942 -7.158498 -1.451295 8.000000
9.812753 -6.668740 -0.700715 10.000000
19.285778 34.763844 1.993037 8.000000
39.086010 -7.152472 -1.408409 8.000000
9.809226 -6.666343 -0.688001 10.000000
19.395493 34.675720 1.964047 10.000000
33.491543 7.873874 -0.150120 165.000000
39.094299 -7.309237 -1.361060 7.000000
9.801789 -6.713938 -0.676718 10.000000
59.837711 44.845821 1.827527 1.000000
33.549431 7.757833 -0.144241 225.000000
13.826582 -2.642564 -0.479275 1.000000
9.835016 -6.789792 -0.672355 1.000000
59.878601 44.550903 1.771880 16.000000
33.582462 7.635912 -0.156283 219.000000
17.617178 -12.257943 -1.188646 7.000000
37.164822 27.440340 1.080634 6.000000
33.605370 7.511690 -0.150251 202.000000
17.564964 -12.317405 -1.165628 7.000000
60.157135 44.109039 1.705835 22.000000
33.647305 7.391684 -0.156329 185.000000
13.582786 -2.746172 -0.452441 1.000000
17.520363 -12.382169 -1.150650 7.000000
60.444473 43.963856 1.643926 5.000000
33.679001 7.269353 -0.168378 184.000000
13.582495 -2.797969 -0.450347 1.000000
17.483484 -12.452441 -1.139947 8.000000
60.354355 43.560970 1.611127 1.000000
33.705448 7.145870 -0.162365 148.000000
13.156500 -2.760520 -0.434206 1.000000
17.475195 -12.543332 -1.119808 8.000000
20.782595 35.071560 1.765659 10.000000
60.470718 43.340691 1.571415 8.000000
33.819462 7.040617 -0.174847 91.000000
13.390873 -2.860978 -0.435107 1.000000
17.482330 -12.645798 -1.108124 7.000000
20.841629 34.892891 1.724783 16.000000
33.894058 6.926631 -0.169062 40.000000
13.428404 -2.925411 -0.427101 1.000000
17.372072 -12.663289 -1.085261 8.000000
38.233234 7.667516 -0.197371 9.000000
13.456698 -2.983278 -0.425937 1.000000
17.342249 -12.739148 -1.071247 8.000000
61.633949 43.172588 1.484297 6.000000
38.220551 7.526288 -0.190369 10.000000
17.376316 -12.862492 -1.061127 7.000000
29.129673 20.253191 0.675029 8.000000
38.210873 7.392841 -0.203784 7.000000
17.297764 -12.902752 -1.040334 7.000000
20.977270 34.004910 1.555857 8.000000
29.223282 20.144739 0.662925 8.000000
38.225536 7.236610 -0.196915 7.000000
17.221537 -12.939698 -1.015851 8.000000
21.039280 33.827332 1.509472 8.000000
24.582333 -5.829141 -0.745405 11.000000
17.202433 -13.024263 -1.002436 9.000000
21.128731 33.708218 1.472673 9.000000
24.558384 -5.909548 -0.732032 19.000000
9.347959 -7.131556 -0.538027 26.000000
21.234262 33.602264 1.429754 9.000000
61.329731 41.336285 1.239321 9.000000
24.541660 -6.000767 -0.723358 21.000000
9.266612 -7.123378 -0.526667 26.000000
21.416510 33.630138 1.399274 9.000000
29.676785 19.844381 0.579522 8.000000
24.480820 -6.081067 -0.717810 26.000000
9.244679 -7.160577 -0.518729 23.000000
25.744684 40.116867 1.631254 7.000000
29.744598 19.724871 0.566902 8.000000
24.447002 -6.176963 -0.699922 16.000000
17.043419 -13.301414 -0.940150 23.000000
25.922171 40.069576 1.591489 1.000000
29.762722 19.580212 0.540998 8.000000
24.642172 -6.322450 -0.701725 24.000000
16.991137 -13.361105 -0.924843 25.000000
25.928904 39.774857 1.541890 14.000000
29.739817 19.424147 0.520805 8.000000
82.788536 -21.533943 -2.329674 27.000000
16.962132 -13.439201 -0.910804 26.000000
25.913460 39.434471 1.482902 5.000000
29.681879 19.238832 0.493912 10.000000
82.752945 -21.848820 -2.315961 27.000000
16.937492 -13.511345 -0.896729 31.000000
25.742500 38.877926 1.432760 14.000000
29.798666 19.159794 0.476131 8.000000
82.745506 -22.171591 -2.288088 27.000000
16.899174 -13.592141 -0.882416 27.000000
25.863443 38.751289 1.382744 14.000000
29.856318 19.042555 0.451207 8.000000
16.877005 -13.676487 -0.864883 27.000000
46.314419 68.871185 2.390762 5.000000
29.850983 18.892893 0.431627 10.000000
85.540375 -23.593870 -2.323597 19.000000
16.834969 -13.744949 -0.850108 35.000000
46.494774 68.595108 2.314704 1.000000
29.826998 18.724951 0.417990 16.000000
85.522255 -23.926517 -2.263431 46.000000
16.804338 -13.822897 -0.832097 29.000000
64.370628 40.082775 0.860302 26.000000
85.343376 -24.214106 -2.230045 28.000000
16.769503 -13.897607 -0.813855 35.000000
27.149225 39.443352 1.245518 8.000000
64.668015 39.955376 0.809332 21.000000
85.278442 -24.533760 -2.215185 31.000000
16.763517 -13.991638 -0.800665 29.000000
27.261839 39.312428 1.194251 7.000000
65.104263 39.895943 0.772972 24.000000
16.724018 -14.062988 -0.785960 32.000000
27.460619 39.290760 1.163157 9.000000
65.433998 39.768856 0.748420 17.000000
73.264618 9.502410 -0.502881 1.000000
16.688028 -14.137463 -0.771410 33.000000
27.247196 38.697014 1.098799 17.000000
65.725441 39.616837 0.683112 23.000000
73.204437 9.221910 -0.540867 138.000000
80.279709 -24.054525 -2.004269 26.000000
16.666914 -14.224830 -0.757523 28.000000
27.421103 38.642345 1.066996 6.000000
66.151039 39.559223 0.659189 23.000000
73.222946 8.951733 -0.527883 255.000000
16.637894 -14.305796 -0.739411 35.000000
66.717316 39.566608 0.622765 7.000000
73.339584 8.693291 -0.541381 223.000000
16.612270 -14.390000 -0.721411 31.000000
66.909576 39.349857 0.582564 8.000000
73.463852 8.448088 -0.542077 247.000000
99.922348 -31.141478 -2.393404 1.000000
16.582478 -14.470915 -0.703189 36.000000
73.593613 8.189822 -0.555734 15.000000
99.927887 -31.545494 -2.341395 1.000000
16.552212 -14.551714 -0.688761 37.000000
51.180016 70.031151 1.635196 1.000000
33.882805 19.601690 0.245954 5.000000
40.137943 -12.832813 -0.941562 8.000000
16.512897 -14.619656 -0.673832 28.000000
51.544758 69.939163 1.546854 1.000000
33.950188 19.474945 0.225429 8.000000
40.157837 -13.001595 -0.913657 8.000000
16.504395 -14.720388 -0.656366 35.000000
31.480774 42.435299 0.894607 1.000000
39.981964 -13.106750 -0.896049 8.000000
16.458101 -14.787764 -0.641216 22.000000
31.594419 42.233131 0.846972 17.000000
34.093544 -11.314983 -0.752461 25.000000
16.430140 -14.871835 -0.622891 25.000000
20.615274 27.377272 0.520424 7.000000
69.474838 38.860008 0.319554 2.000000
34.094738 -11.454277 -0.740849 15.000000
9.107537 -8.304671 -0.337820 20.000000
20.625555 27.163321 0.482203 8.000000
69.542610 38.563965 0.277577 5.000000
33.910789 -11.530968 -0.725257 9.000000
20.730854 27.114830 0.464685 8.000000
95.126945 52.296482 0.359981 24.000000
93.860481 8.013679 -0.756318 6.000000
34.275284 -11.795237 -0.708656 8.000000
20.837908 27.058575 0.423232 8.000000
95.120659 51.839931 0.264700 29.000000
93.963699 7.675693 -0.789829 5.000000
33.981728 -11.833690 -0.697196 7.000000
20.986158 27.045443 0.400325 8.000000
95.041557 51.367340 0.245123 1.000000
33.966869 -11.968287 -0.672635 7.000000
95.158821 50.980953 0.150734 13.000000
33.739132 -12.027236 -0.668994 38.000000
7.772191 -7.349796 -0.252089 1.000000
94.665039 50.270733 0.093537 31.000000
94.516823 49.748772 0.074567 26.000000
33.770260 -12.311399 -0.633688 7.000000
94.760612 49.434402 -0.018654 27.000000
7.293615 -7.048284 -0.214231 31.000000
73.686447 38.113880 -0.043438 6.000000
7.210577 -7.019330 -0.202004 34.000000
7.187335 -7.043275 -0.196735 32.000000
93.818817 47.658791 -0.146929 1.000000
30.714149 -11.710170 -0.527852 13.000000
7.203066 -7.113113 -0.187307 22.000000
50.095829 60.857616 0.371453 1.000000
93.760483 47.197628 -0.238169 26.000000
27.722872 -10.686249 -0.477114 31.000000
7.208913 -7.171266 -0.182815 255.000000
50.247543 60.609505 0.288560 20.000000
94.192307 46.983082 -0.257198 7.000000
27.595388 -10.753445 -0.449744 31.000000
7.511125 -7.526873 -0.180039 38.000000
94.270447 46.611832 -0.312030 1.000000
27.472206 -10.821589 -0.438070 28.000000
7.335823 -7.405290 -0.167387 34.000000
95.095924 46.587009 -0.406607 19.000000
94.852005 46.037205 -0.460045 18.000000
27.568598 -11.093685 -0.425329 6.000000
7.094182 -7.264603 -0.148875 36.000000
28.465982 33.341167 0.007652 1.000000
7.091937 -7.315756 -0.142275 31.000000
28.350739 32.972412 -0.030358 1.000000
27.451843 -11.275617 -0.398859 8.000000
7.144893 -7.424643 -0.134888 26.000000
28.635044 33.057201 -0.076332 1.000000
26.916368 -11.171146 -0.381496 35.000000
7.165208 -7.495343 -0.128500 27.000000
26.737104 -11.211799 -0.364352 40.000000
7.060764 -7.443094 -0.116394 22.000000
87.331757 40.445454 -0.655114 82.000000
26.562445 -11.253210 -0.352460 33.000000
6.937517 -7.367064 -0.107741 39.000000
87.447380 40.110409 -0.688458 188.000000
26.668274 -11.413511 -0.339227 94.000000
6.896873 -7.377899 -0.098714 15.000000
92.223053 41.892467 -0.777882 31.000000
40.022156 -17.302549 -0.494672 22.000000
6.898345 -7.431304 -0.090257 28.000000
92.120262 41.439140 -0.828622 33.000000
39.825829 -17.391199 -0.470273 28.000000
6.884665 -7.471299 -0.081569 35.000000
18.352907 20.297316 -0.181490 7.000000
91.983505 40.972935 -0.861187 33.000000
39.597282 -17.464481 -0.453219 19.000000
6.853906 -7.492844 -0.072667 234.000000
18.410254 20.211334 -0.200411 9.000000
91.885185 40.564514 -0.911597 30.000000
39.508884 -17.590488 -0.430260 8.000000
6.834466 -7.524160 -0.065642 143.000000
91.773819 40.133152 -0.961548 32.000000
39.500637 -17.744005 -0.415692 8.000000
6.822911 -7.561670 -0.056883 24.000000
91.621666 39.705204 -0.993429 35.000000
39.250507 -17.788301 -0.391112 8.000000
6.924636 -7.725767 -0.050702 19.000000
91.517876 39.224613 -1.042728 22.000000
39.060776 -17.891668 -0.367437 8.000000
6.833794 -7.686273 -0.041287 38.000000
91.596260 38.861439 -1.076727 24.000000
38.786304 -17.938221 -0.350553 8.000000
6.810253 -7.713852 -0.032327 66.000000
25.683153 27.197180 -0.443980 9.000000
91.474792 38.414894 -1.125591 24.000000
38.407867 -17.934372 -0.325529 8.000000
6.877516 -7.847829 -0.023676 189.000000
25.741034 27.059103 -0.475860 9.000000
91.309898 37.952564 -1.156364 34.000000
37.568672 -17.710522 -0.297216 8.000000
6.815902 -7.835273 -0.014500 20.000000
25.857098 26.982380 -0.502269 9.000000
91.322578 37.565887 -1.240959 30.000000
107.260117 -2.921108 -1.048766 38.000000
35.962517 -17.107035 -0.278029 8.000000
25.952034 26.883505 -0.534810 9.000000
91.088799 37.079952 -1.270262 1.000000
107.124893 -3.272961 -1.047544 138.000000
34.317680 -16.479116 -0.245844 9.000000
6.567649 -7.659902 0.001761 58.000000
26.167347 26.917870 -0.570075 8.000000
90.980972 36.666378 -1.284089 29.000000
106.927643 -3.659257 -1.008389 41.000000
32.902927 -15.948425 -0.210598 8.000000
90.709877 36.171223 -1.346572 24.000000
77.056145 -2.919793 -0.740239 34.000000
31.555304 -15.438301 -0.196202 9.000000
56.357979 57.170387 -1.345209 10.000000
90.698685 35.818623 -1.378681 27.000000
77.114868 -3.205105 -0.740911 28.000000
30.374073 -14.985427 -0.171431 9.000000
56.409977 56.765530 -1.410858 16.000000
90.473122 35.310383 -1.423949 21.000000
29.333719 -14.618861 -0.148728 8.000000
84.685143 -4.141795 -0.784317 15.000000
26.899429 -13.517241 -0.126103 6.000000
6.472969 -7.824475 0.047854 17.000000
30.351452 30.129774 -0.828635 23.000000
90.550850 34.578007 -1.505750 8.000000
26.218687 -13.301499 -0.102625 35.000000
6.368538 -7.761467 0.054321 58.000000
30.464712 30.021320 -0.866057 18.000000
90.491241 34.211842 -1.553531 1.000000
90.842010 -5.110667 -0.889308 15.000000
26.174433 -13.388371 -0.102625 26.000000
6.259272 -7.682835 0.060536 30.000000
69.331306 67.823158 -2.031624 29.000000
90.025238 33.659058 -1.593740 13.000000
90.862587 -5.445977 -0.889699 9.000000
25.392124 -13.105852 -0.084784 10.000000
6.221151 -7.687967 0.067319 24.000000
69.610405 67.598671 -2.117244 1.000000
90.009033 33.241783 -1.624580 30.000000
24.483635 -12.750806 -0.067452 9.000000
57.100010 55.063847 -1.786282 13.000000
89.888161 32.858822 -1.653841 22.000000
85.243530 -5.736590 -0.790330 6.000000
23.755138 -12.482306 -0.051519 10.000000
57.664986 55.202217 -1.867315 7.000000
90.477325 32.698765 -1.712853 11.000000
23.004562 -12.190572 -0.036352 23.000000
6.422908 -8.115326 0.101158 20.000000
57.307720 54.459087 -1.918299 23.000000
90.873749 32.465954 -1.751789 27.000000
22.346834 -11.947139 -0.022113 9.000000
56.713066 53.499783 -1.959896 7.000000
21.704403 -11.706169 -0.008608 9.000000
56.635555 53.054264 -2.018572 10.000000
78.523949 -6.428249 -0.728816 11.000000
21.147488 -11.506056 0.004202 9.000000
11.383856 3.928668 -0.235437 1.000000
78.131096 -6.684461 -0.739080 30.000000
20.570423 -11.289991 0.012286 9.000000
6.184268 -8.053673 0.131153 28.000000
11.506923 3.924001 -0.241929 1.000000
20.036528 -11.088149 0.023981 9.000000
6.181880 -8.111939 0.144194 35.000000
39.034283 35.768333 -1.497351 92.000000
11.559047 3.894542 -0.246982 1.000000
19.524221 -10.898306 0.035123 9.000000
6.144231 -8.115294 0.151018 38.000000
39.115875 35.580231 -1.550887 196.000000
11.497271 3.826862 -0.249592 1.000000
19.026651 -10.712218 0.045731 10.000000
6.084508 -8.103805 0.159194 24.000000
39.371120 35.549583 -1.602163 5.000000
11.468354 3.770603 -0.254987 1.000000
72.910843 -7.316028 -0.665059 172.000000
18.561146 -10.539913 0.055881 9.000000
6.062073 -8.132895 0.168203 29.000000
39.326687 35.261044 -1.632245 1.000000
11.372660 3.693007 -0.256732 1.000000
72.973053 -7.592524 -0.665876 247.000000
18.172724 -10.403406 0.069440 16.000000
6.127269 -8.283552 0.179847 23.000000
39.264194 34.946262 -1.670240 8.000000
11.504991 3.689419 -0.265742 1.000000
73.024155 -7.868491 -0.679421 255.000000
18.151781 -10.479936 0.073164 26.000000
6.067191 -8.265525 0.187922 22.000000
39.338482 34.754818 -1.713825 6.000000
11.443317 3.619046 -0.270267 1.000000
72.994942 -8.136097 -0.666602 255.000000
18.100891 -10.547662 0.084098 24.000000
6.047055 -8.298665 0.195366 23.000000
39.445671 34.592926 -1.758795 9.000000
11.250056 3.516930 -0.267484 1.000000
72.952667 -8.376402 -0.666466 189.000000
18.095955 -10.625325 0.095227 14.000000
6.107318 -8.440029 0.207310 10.000000
39.446880 34.339027 -1.789779 15.000000
11.401296 3.518391 -0.274938 1.000000
18.050089 -10.683298 0.109824 21.000000
6.173929 -8.595096 0.221676 23.000000
28.118994 24.297369 -1.297738 4.000000
11.366111 3.461958 -0.282082 1.000000
18.032263 -10.762186 0.113620 17.000000
6.145084 -8.627825 0.229280 23.000000
39.630630 34.015579 -1.860309 15.000000
11.201511 3.367009 -0.281774 1.000000
18.018324 -10.843630 0.128464 15.000000
6.008121 -8.491858 0.234246 31.000000
39.892582 33.975269 -1.921413 1.000000
11.170552 3.313110 -0.284757 1.000000
17.978399 -10.909560 0.139475 10.000000
5.925138 -8.440010 0.241219 25.000000
17.944410 -10.974820 0.150522 18.000000
5.926929 -8.505540 0.253362 50.000000
76.309334 -10.453078 -0.685604 3.000000
17.916788 -11.048362 0.157977 16.000000
5.889928 -8.518837 0.260348 28.000000
17.893085 -11.124470 0.169159 14.000000
5.974460 -8.709166 0.274716 24.000000
17.858274 -11.189448 0.183912 12.000000
6.135171 -9.010706 0.293070 9.000000
10.987882 3.041014 -0.304518 1.000000
17.834024 -11.265491 0.187768 22.000000
11.133863 3.037527 -0.312284 1.000000
59.850784 -9.094324 -0.517739 161.000000
17.788284 -11.328023 0.202446 12.000000
11.202790 3.012259 -0.315932 1.000000
59.520721 -9.267488 -0.504660 131.000000
17.759174 -11.401188 0.213640 10.000000
5.599529 -8.418402 0.298309 39.000000
85.116768 -13.572556 -0.707054 27.000000
17.740129 -11.476604 0.228644 16.000000
5.600221 -8.483511 0.310577 35.000000
85.086060 -13.887634 -0.722265 26.000000
17.727194 -11.560620 0.236410 10.000000
5.544328 -8.466169 0.316268 103.000000
11.384907 2.927384 -0.334514 1.000000
38.949379 -6.503915 -0.323935 7.000000
17.688774 -11.628194 0.247550 10.000000
11.390487 2.884352 -0.342574 1.000000
39.043507 -6.666815 -0.331832 9.000000
17.664673 -11.700862 0.255180 10.000000
6.167331 -9.562492 0.375486 6.000000
11.405772 2.843778 -0.344772 1.000000
39.029907 -6.804790 -0.325001 9.000000
9.896014 -6.607310 0.149536 3.000000
6.072816 -9.492146 0.381692 9.000000
11.430563 2.805500 -0.349320 1.000000
39.090862 -6.949066 -0.318769 7.000000
9.908971 -6.668599 0.158440 1.000000
11.639767 2.811656 -0.361672 1.000000
39.131466 -7.118448 -0.326273 6.000000
9.900967 -6.716066 0.162881 1.000000
5.711476 -9.069670 0.381780 6.000000
11.883257 2.824417 -0.373181 1.000000
84.394409 -15.672053 -0.689160 18.000000
17.719824 -12.110316 0.307190 8.000000
5.618667 -8.991747 0.388790 119.000000
11.966332 2.797866 -0.381906 1.000000
84.493607 -16.011057 -0.690445 37.000000
17.629938 -12.143924 0.313876 20.000000
5.622379 -9.071505 0.398806 14.000000
11.956762 2.749448 -0.389850 1.000000
84.430107 -16.289242 -0.705372 28.000000
17.581156 -12.205575 0.317538 22.000000
5.538150 -9.005656 0.404298 23.000000
12.181168 2.754082 -0.399016 1.000000
84.266930 -16.578339 -0.689521 33.000000
17.583517 -12.289258 0.333256 21.000000
5.497115 -9.012793 0.412937 9.000000
84.200592 -16.886078 -0.704470 25.000000
17.542120 -12.365437 0.340903 25.000000
5.638772 -9.318058 0.433635 8.000000
76.457031 -15.624855 -0.653779 23.000000
17.537338 -12.458531 0.349207 21.000000
5.833188 -9.719578 0.461231 7.000000
12.972375 2.783404 -0.442451 1.000000
76.291786 -15.882607 -0.625655 26.000000
17.558588 -12.566080 0.365579 16.000000
5.850089 -9.825309 0.477271 4.000000
36.438824 -7.725372 -0.305560 5.000000
17.528883 -12.632930 0.373375 24.000000
13.455370 -22.779001 1.122720 10.000000
76.275719 -16.463528 -0.653737 14.000000
17.380869 -12.632576 0.378802 24.000000
12.702315 -21.685246 1.084087 11.000000
17.274441 -12.642981 0.369920 22.000000
17.274839 -12.643272 0.340030 14.000000
17.390110 -12.630018 0.318873 28.000000
12.584579 -21.484247 1.030504 12.000000
12.975980 2.732102 -0.502463 4.000000
36.479916 -7.740737 -0.462142 5.000000
17.507393 -12.622085 0.293840 22.000000
13.464252 -22.794041 1.063292 15.000000
12.965794 2.779625 -0.504777 1.000000
76.265526 -15.891026 -1.006214 30.000000
17.525276 -12.537614 0.274559 25.000000
5.873753 -9.865052 0.447088 2.000000
76.464783 -15.640342 -1.048952 17.000000
17.534374 -12.456426 0.251526 26.000000
5.628177 -9.377977 0.412519 8.000000
12.340168 2.740269 -0.483400 1.000000
84.133232 -16.887844 -1.213211 25.000000
17.532976 -12.363572 0.232161 21.000000
5.611029 -9.272213 0.395509 14.000000
12.057284 2.723861 -0.468385 1.000000
84.276855 -16.626131 -1.229476 30.000000
17.557817 -12.284985 0.216930 18.000000
5.555109 -9.107876 0.378138 14.000000
11.900974 2.734433 -0.466968 1.000000
84.312813 -16.281878 -1.274009 31.000000
17.563959 -12.189095 0.194036 18.000000
5.559897 -9.041018 0.363223 20.000000
17.588062 -12.110552 0.175174 21.000000
5.673262 -9.153603 0.355367 6.000000
39.125019 -7.272585 -0.618206 5.000000
17.644732 -12.063515 0.160416 6.000000
5.779471 -9.252681 0.350465 1.000000
39.164597 -7.138599 -0.639283 7.000000
9.888083 -6.709847 0.079255 1.000000
5.645762 -8.965319 0.329256 9.000000
39.091846 -6.977398 -0.651539 8.000000
9.927426 -6.678502 0.071001 1.000000
5.682560 -8.954283 0.318461 26.000000
38.979156 -6.809962 -0.656148 9.000000
9.903812 -6.615016 0.064439 78.000000
5.753227 -8.992611 0.309383 23.000000
11.339444 2.869320 -0.437081 1.000000
39.052788 -6.675416 -0.677722 8.000000
17.628273 -11.676750 0.092262 10.000000
5.741450 -8.905573 0.294120 50.000000
11.275259 2.899190 -0.430963 1.000000
38.983189 -6.516554 -0.682995 8.000000
17.675179 -11.614840 0.077519 22.000000
5.793256 -8.914019 0.285814 9.000000
76.799202 -12.548826 -1.385484 11.000000
17.721870 -11.552742 0.059076 21.000000
5.783447 -8.831305 0.270901 139.000000
86.406784 -13.793726 -1.573163 30.000000
17.747515 -11.485776 0.047965 21.000000
5.711288 -8.651762 0.255171 8.000000
85.132149 -13.270455 -1.594189 17.000000
17.758078 -11.404860 0.029468 19.000000
5.666852 -8.519616 0.241134 6.000000
84.932831 -12.920706 -1.604558 29.000000
17.795555 -11.337019 0.014731 15.000000
6.032218 -8.997226 0.243927 24.000000
173.548447 48.031399 -6.508545 10.000000
81.132156 -12.038436 -1.546232 10.000000
17.815857 -11.258367 0.003678 12.000000
173.515549 48.707676 -6.513963 10.000000
75.178452 -10.873564 -1.471783 29.000000
17.838099 -11.185480 -0.018374 19.000000
5.937644 -8.723871 0.215522 65.000000
17.891701 -11.127940 -0.029419 16.000000
5.938597 -8.656887 0.203405 26.000000
76.219566 -10.467888 -1.517526 17.000000
17.906813 -11.046524 -0.044066 12.000000
5.917716 -8.562222 0.192579 83.000000
17.928165 -10.973486 -0.062368 15.000000
5.940616 -8.528355 0.179604 13.000000
17.984856 -10.909184 -0.077097 16.000000
5.950335 -8.479046 0.169960 10.000000
17.995193 -10.833987 -0.087985 15.000000
5.955490 -8.420586 0.158421 62.000000
79.082611 -9.682103 -1.641090 12.000000
18.017567 -10.757681 -0.098889 13.000000
6.309846 -8.855883 0.157532 8.000000
11.435712 3.529011 -0.413744 1.000000
18.058659 -10.688371 -0.117202 20.000000
6.161575 -8.581059 0.140135 25.000000
22.764790 19.971216 -1.269251 7.000000
11.584999 3.621638 -0.415381 1.000000
18.085308 -10.623320 -0.131789 18.000000
6.065561 -8.385405 0.128252 33.000000
22.576052 19.952541 -1.241726 7.000000
11.281181 3.572101 -0.400819 1.000000
73.226265 -8.148942 -1.569070 1.000000
18.102411 -10.544316 -0.149914 21.000000
6.060977 -8.314722 0.118530 32.000000
22.462370 19.999180 -1.218465 4.000000
11.201526 3.592104 -0.394343 1.000000
73.190750 -7.873519 -1.580534 1.000000
18.145199 -10.480358 -0.160921 19.000000
6.109241 -8.316724 0.108069 25.000000
39.181431 35.143147 -2.104756 17.000000
11.283408 3.664025 -0.395623 1.000000
72.979912 -7.580362 -1.600994 1.000000
18.164242 -10.406970 -0.171729 10.000000
6.156142 -8.319549 0.097545 32.000000
11.483661 3.775636 -0.398902 1.000000
18.541271 -10.532908 -0.186093 9.000000
6.096990 -8.176761 0.085450 39.000000
19.058830 -10.734716 -0.206164 9.000000
6.215619 -8.275418 0.077675 33.000000
78.741859 -7.304661 -1.780766 1.000000
19.534405 -10.908463 -0.230401 9.000000
6.152408 -8.129042 0.067615 35.000000
78.950180 -7.060005 -1.771097 1.000000
20.024755 -11.086200 -0.239699 9.000000
6.186848 -8.115521 0.056995 98.000000
56.755325 52.795712 -2.788154 1.000000
78.083405 -6.694109 -1.778460 34.000000
20.597805 -11.309699 -0.266593 9.000000
6.314047 -8.219711 0.048844 30.000000
56.800190 53.189880 -2.744612 1.000000
78.445869 -6.435641 -1.799911 7.000000
21.122034 -11.496984 -0.285424 10.000000
78.600647 -6.130795 -1.802883 7.000000
21.771093 -11.747045 -0.306566 9.000000
57.195305 54.371254 -2.673027 1.000000
22.364937 -11.961836 -0.327591 9.000000
57.146328 54.686600 -2.610096 1.000000
22.964985 -12.174734 -0.353874 12.000000
6.803382 -8.599136 0.009569 68.000000
57.118580 55.101006 -2.549578 1.000000
23.710743 -12.464259 -0.383397 11.000000
6.276971 -7.874294 -0.003515 35.000000
57.132549 55.520184 -2.503594 1.000000
89.988991 33.270084 -2.864260 26.000000
24.563030 -12.797604 -0.410923 16.000000
6.132249 -7.637892 -0.011967 32.000000
57.005207 55.804138 -2.437279 1.000000
90.059303 33.671795 -2.836815 33.000000
25.484613 -13.159224 -0.445559 15.000000
6.131892 -7.580368 -0.020420 26.000000
30.445190 30.012554 -1.268825 11.000000
90.245209 34.118824 -2.796031 29.000000
26.191135 -13.402680 -0.472458 27.000000
6.287784 -7.717832 -0.029537 47.000000
30.296450 30.064680 -1.236951 19.000000
90.160484 34.428944 -2.763212 1.000000
84.623428 -4.464547 -2.011834 1.000000
26.208645 -13.290654 -0.487282 22.000000
6.363594 -7.752682 -0.038512 255.000000
84.484108 -4.146743 -2.022918 18.000000
26.900276 -13.517667 -0.509729 7.000000
6.366446 -7.698446 -0.048820 251.000000
90.659142 35.419453 -2.701742 27.000000
84.698471 -3.846135 -2.027699 8.000000
29.255856 -14.573683 -0.581928 11.000000
30.709824 31.152512 -1.168408 8.000000
90.631859 35.792233 -2.670780 31.000000
30.420546 -15.014956 -0.621765 10.000000
90.849495 36.263657 -2.629837 35.000000
31.472050 -15.390762 -0.660449 13.000000
6.465412 -7.648074 -0.075161 28.000000
26.056267 26.812967 -0.946391 6.000000
32.958569 -15.968292 -0.709594 10.000000
6.479049 -7.610166 -0.085477 26.000000
25.913376 26.862221 -0.905661 9.000000
34.382084 -16.502657 -0.758912 8.000000
6.581725 -7.673607 -0.093519 23.000000
25.819883 26.952961 -0.879604 9.000000
36.107857 -17.168447 -0.816553 8.000000
6.585525 -7.624022 -0.103745 14.000000
25.663792 27.006208 -0.845443 9.000000
37.695766 -17.762394 -0.865607 10.000000
6.659311 -7.652565 -0.113318 19.000000
25.722141 27.247995 -0.817622 9.000000
91.477341 38.434746 -2.494287 28.000000
38.371716 -17.909334 -0.901798 19.000000
6.644387 -7.579139 -0.123147 173.000000
52.267189 55.775837 -1.601153 1.000000
91.371674 38.803799 -2.443441 31.000000
38.531948 -17.812422 -0.926260 27.000000
6.660802 -7.544573 -0.131747 63.000000
52.175274 56.068733 -1.537458 6.000000
91.487244 39.249290 -2.398206 27.000000
38.746521 -17.739542 -0.952172 18.000000
6.904298 -7.762842 -0.145067 31.000000
91.664978 39.723972 -2.354327 32.000000
38.988369 -17.677704 -0.978943 28.000000
6.955970 -7.763453 -0.154652 66.000000
91.625092 40.068111 -2.321776 17.000000
39.184509 -17.593779 -1.012245 19.000000
6.835573 -7.575703 -0.160293 28.000000
18.357237 20.160196 -0.480686 10.000000
92.301781 40.767677 -2.289833 1.000000
39.397411 -17.532619 -1.038829 23.000000
6.887471 -7.582514 -0.168073 29.000000
18.300261 20.246195 -0.457311 7.000000
92.084618 41.037231 -2.252600 27.000000
39.607445 -17.452454 -1.057791 25.000000
7.002861 -7.653001 -0.179258 45.000000
92.043259 41.462467 -2.202758 26.000000
39.835567 -17.378899 -1.084945 12.000000
6.990095 -7.583056 -0.187222 5.000000
92.228722 41.914463 -2.192821 28.000000
40.022541 -17.286137 -1.103532 23.000000
40.288895 -17.234560 -1.132170 19.000000
7.084894 -7.576382 -0.208226 10.000000
40.480118 -17.141115 -1.158804 23.000000
7.146791 -7.586643 -0.216506 9.000000
27.118855 -11.366315 -0.785391 7.000000
7.100822 -7.485322 -0.225130 6.000000
28.679785 33.120529 -0.504701 1.000000
7.069361 -7.397664 -0.232205 21.000000
28.437891 33.085453 -0.464498 1.000000
92.978165 44.308475 -1.977624 1.000000
7.110180 -7.385990 -0.239816 31.000000
93.046410 44.760212 -1.892416 18.000000
7.175363 -7.399230 -0.248298 38.000000
95.103569 46.179813 -1.919226 11.000000
7.239377 -7.413286 -0.260473 64.000000
94.952515 46.537308 -1.864222 24.000000
7.655416 -7.782054 -0.283947 151.000000
50.403316 60.367279 -0.576493 1.000000
32.908546 -12.949753 -1.037247 6.000000
7.609828 -7.679209 -0.290651 50.000000
50.302101 60.653767 -0.508865 27.000000
33.602905 -13.094470 -1.070358 7.000000
7.578629 -7.597169 -0.295993 22.000000
30.828356 -11.870953 -0.997767 9.000000
7.618189 -7.578404 -0.305784 8.000000
30.815525 -11.748820 -1.019130 23.000000
33.584251 -12.663645 -1.121696 39.000000
33.601479 -12.516310 -1.139377 47.000000
7.396058 -7.197377 -0.318913 32.000000
94.703102 49.446461 -1.491789 1.000000
33.595535 -12.387386 -1.150288 32.000000
7.471244 -7.219939 -0.330142 9.000000
94.605949 49.837860 -1.437127 30.000000
33.588264 -12.231768 -1.160840 34.000000
7.778736 -7.462146 -0.351935 9.000000
94.714630 50.318260 -1.385271 32.000000
33.576542 -12.101541 -1.171513 18.000000
7.961465 -7.581601 -0.366626 32.000000
94.922379 50.875603 -1.334629 28.000000
33.646111 -11.980841 -1.178567 23.000000
7.723875 -7.301552 -0.363736 31.000000
20.936865 26.991644 0.065582 8.000000
94.894196 51.309101 -1.280375 28.000000
33.585308 -11.820665 -1.199796 37.000000
7.790480 -7.310632 -0.373076 1.000000
20.795044 27.012667 0.101147 8.000000
94.986984 51.810093 -1.227520 33.000000
33.624321 -11.709229 -1.199796 115.000000
20.671885 27.037703 0.130685 8.000000
95.208946 52.384850 -1.156987 29.000000
33.614635 -11.567886 -1.210353 42.000000
9.034191 -8.356970 -0.451267 21.000000
20.613577 27.157383 0.160668 8.000000
69.410316 38.506447 -0.803543 1.000000
33.689522 -11.455729 -1.223965 43.000000
9.076337 -8.340274 -0.460606 23.000000
20.573956 27.312477 0.196948 8.000000
69.120735 38.677780 -0.760350 12.000000
33.872986 -11.379779 -1.241595 50.000000
9.102058 -8.296767 -0.470980 23.000000
68.708885 38.778687 -0.716064 1.000000
34.192867 -11.334699 -1.270527 8.000000
9.158092 -8.286592 -0.480940 1.000000
68.453835 38.966244 -0.646147 9.000000
37.007549 -12.131687 -1.387223 10.000000
16.484520 -14.806301 -0.874454 10.000000
33.928959 19.470638 -0.307245 7.000000
37.079826 -12.005052 -1.401896 38.000000
16.509312 -14.724773 -0.896240 9.000000
67.364655 38.987118 -0.543386 1.000000
37.161182 -11.881090 -1.416952 24.000000
16.562817 -14.663852 -0.907823 9.000000
67.217224 39.231377 -0.502601 24.000000
16.615849 -14.602519 -0.927127 8.000000
66.745789 39.284897 -0.446077 25.000000
16.676046 -14.547442 -0.950720 8.000000
66.389137 39.387650 -0.404190 22.000000
16.755182 -14.508677 -0.967696 8.000000
66.034309 39.505066 -0.349187 24.000000
16.758484 -14.404395 -0.980289 8.000000
27.225771 38.666584 0.685102 14.000000
65.658035 39.607456 -0.307812 21.000000
12.937126 -3.876402 -0.509383 5.000000
16.748785 -14.299759 -0.988496 8.000000
27.263905 39.023800 0.731208 3.000000
65.384399 39.769966 -0.267140 20.000000
12.979912 -3.837434 -0.512876 1.000000
16.818146 -14.247693 -1.008628 8.000000
64.917145 39.796864 -0.186057 18.000000
13.012901 -3.795379 -0.518365 1.000000
16.793259 -14.121211 -1.019375 7.000000
64.644455 39.925228 -0.172393 17.000000
12.863298 -3.700643 -0.516541 2.000000
16.850943 -14.074589 -1.035400 8.000000
64.568657 40.237373 -0.092949 1.000000
12.814751 -3.633457 -0.518684 1.000000
16.921988 -14.018995 -1.055519 7.000000
29.835257 18.744659 -0.024599 19.000000
12.837431 -3.589106 -0.523726 1.000000
16.941822 -13.931033 -1.068913 8.000000
29.828791 18.886139 0.000000 23.000000
12.734901 -3.510168 -0.519015 1.000000
16.945906 -13.830597 -1.077445 8.000000
29.770210 18.987637 0.018488 32.000000
12.704026 -3.451607 -0.524141 1.000000
16.948418 -13.739258 -1.089971 7.000000
26.024195 39.303364 1.053254 14.000000
29.723162 19.125914 0.043182 28.000000
12.615069 -3.377838 -0.524523 1.000000
17.053427 -13.711307 -1.108491 7.000000
25.893171 39.418591 1.094969 14.000000
29.726665 19.267860 0.074194 18.000000
12.719149 -3.355795 -0.528335 1.000000
17.031860 -13.601222 -1.119408 7.000000
25.506376 39.126701 1.133319 14.000000
29.777998 19.463915 0.086926 8.000000
17.054235 -13.507330 -1.136342 7.000000
25.666136 39.688995 1.196400 11.000000
29.764837 19.611391 0.118203 8.000000
17.130478 -13.465838 -1.153380 7.000000
25.578157 39.857376 1.240133 8.000000
29.732889 19.732052 0.143248 8.000000
12.585277 -3.172881 -0.532639 1.000000
17.135044 -13.377734 -1.165914 7.000000
21.388939 33.599781 1.091683 9.000000
29.796766 19.924610 0.162659 8.000000
12.664613 -3.143559 -0.537786 3.000000
9.257269 -7.167743 -0.634074 34.000000
21.244209 33.631001 1.131970 8.000000
61.138489 41.207386 0.386048 11.000000
12.734102 -3.111304 -0.544833 2.000000
9.295000 -7.142620 -0.643069 19.000000
21.073065 33.619408 1.163751 9.000000
61.040443 41.467468 0.463665 11.000000
12.657989 -3.043588 -0.541095 1.000000
9.318275 -7.111483 -0.651253 16.000000
19.669252 31.636890 1.131669 181.000000
12.634937 -2.989101 -0.541908 1.000000
9.415545 -7.131259 -0.664491 1.000000
19.547464 31.687141 1.176549 141.000000
29.129976 20.095425 0.265596 8.000000
12.631026 -2.939332 -0.545809 1.000000
17.311003 -13.002193 -1.229383 7.000000
19.441082 31.774736 1.209688 71.000000
29.089296 20.232649 0.303040 7.000000
12.593110 -2.881894 -0.541452 2.000000
17.331579 -12.923267 -1.242776 8.000000
22.285421 36.681915 1.438831 248.000000
61.835869 43.314026 0.685207 4.000000
38.193169 7.534746 -0.665921 9.000000
12.554666 -2.824712 -0.543850 1.000000
17.339951 -12.835573 -1.251489 7.000000
22.135750 36.752838 1.490747 254.000000
38.183788 7.685333 -0.652667 1.000000
12.691659 -2.806702 -0.551608 1.000000
17.416740 -12.789189 -1.264830 7.000000
21.987436 36.782021 1.526408 198.000000
33.853294 6.930613 -0.560938 18.000000
12.653047 -2.749558 -0.549488 5.000000
17.408125 -12.689569 -1.276072 7.000000
21.865593 36.899166 1.572748 16.000000
33.866913 7.062830 -0.555549 39.000000
12.609205 -2.691672 -0.549407 4.000000
17.447906 -12.616261 -1.290512 7.000000
47.375034 80.555397 3.524786 1.000000
33.836094 7.185911 -0.543395 40.000000
12.946465 -2.714092 -0.565977 2.000000
17.478939 -12.546021 -1.304636 7.000000
47.246849 81.048019 3.653160 1.000000
61.255047 44.569771 0.965225 1.000000
33.804737 7.308843 -0.537280 65.000000
12.902310 -2.655505 -0.568224 1.000000
17.565084 -12.510560 -1.315190 7.000000
61.344437 44.979603 1.048897 1.000000
33.773109 7.431679 -0.519096 39.000000
17.500029 -12.367797 -1.321933 7.000000
37.209759 27.493595 0.670255 10.000000
33.721420 7.549991 -0.506658 9.000000
17.573271 -12.323230 -1.335326 7.000000
46.908024 82.405525 3.990758 1.000000
60.056931 44.699867 1.163019 7.000000
31.992516 7.286139 -0.463896 6.000000
9.789911 -6.811771 -0.748265 5.000000
46.647434 82.650894 4.110495 1.000000
32.175339 7.451926 -0.443878 31.000000
13.534159 -2.576883 -0.591893 1.000000
9.773423 -6.747270 -0.751353 7.000000
19.338854 34.546154 1.763186 1.000000
33.526630 7.888298 -0.444860 6.000000
9.769162 -6.691589 -0.751210 9.000000
19.303152 34.780846 1.820240 3.000000
59.809742 45.529831 1.364549 1.000000
33.677555 8.054189 -0.435162 11.000000
13.851653 -2.537256 -0.602527 1.000000
9.776788 -6.644298 -0.756133 13.000000
19.312225 34.797199 1.848938 4.000000
