VERSION .7
FIELDS x y z intensity
SIZE 4 4 4 4
TYPE F F F F
COUNT 1 1 1 1
WIDTH 1230
HEIGHT 1
VIEWPOINT 0 0 0 1 0 0 0
POINTS 1230
DATA ascii
18.468088 20.196802 0.826591 7.000000
92.236588 40.508236 4.380779 29.000000
76.874336 -0.335430 3.719471 187.000000
39.114380 -17.545885 1.864226 17.000000
6.969419 -7.718623 0.337719 27.000000
18.356596 20.223217 0.843999 10.000000
92.349617 41.000874 4.446936 28.000000
76.900032 -0.026843 3.720680 183.000000
39.314442 -17.479258 1.855941 22.000000
18.412859 20.420864 0.868909 5.000000
92.608330 41.483910 4.501483 30.000000
77.078880 0.215245 3.742831 7.000000
39.566875 -17.418085 1.834596 18.000000
92.403267 41.741093 4.533331 28.000000
77.012817 0.470450 3.739679 16.000000
39.723888 -17.321924 1.831484 19.000000
6.702638 -7.266123 0.300301 96.000000
92.405457 42.189526 4.595006 29.000000
77.045265 0.779949 3.741376 22.000000
39.989498 -17.263584 1.825569 20.000000
6.751081 -7.262486 0.292559 141.000000
92.860359 42.809216 4.679049 35.000000
77.072037 1.049290 3.742831 9.000000
40.205261 -17.182182 1.801955 10.000000
6.818787 -7.281618 0.287364 22.000000
49.928249 57.012501 2.633202 12.000000
77.053154 1.304611 3.742104 10.000000
40.416065 -17.097359 1.785566 17.000000
6.893614 -7.307656 0.280612 7.000000
49.848866 57.344559 2.693193 19.000000
76.997360 1.612865 3.739679 8.000000
15.914192 -16.752483 0.629278 10.000000
49.667053 57.539833 2.734056 10.000000
55.206234 26.178432 2.849275 2.000000
77.122704 1.871370 3.719055 6.000000
40.903103 -16.959351 1.770712 10.000000
15.948287 -16.665619 0.604033 9.000000
30.052811 -12.331683 1.287676 7.000000
7.600634 -7.884445 0.279123 26.000000
30.047302 -12.200944 1.274177 7.000000
7.535594 -7.759853 0.268132 24.000000
94.243851 45.904728 5.035305 1.000000
29.809633 -11.977353 1.245382 7.000000
7.590723 -7.762224 0.261544 31.000000
28.776176 34.330601 1.752199 12.000000
93.949684 46.228977 5.066097 1.000000
30.181288 -12.004492 1.247796 8.000000
7.254452 -7.364165 0.240000 82.000000
28.642776 34.426971 1.790891 12.000000
94.148476 46.756191 5.141194 33.000000
30.053461 -11.826257 1.229420 22.000000
28.276426 34.228954 1.814252 12.000000
94.035240 47.068810 5.179855 27.000000
29.887478 -11.634616 1.209666 10.000000
28.153137 34.335239 1.845455 12.000000
93.801720 47.382656 5.231683 30.000000
29.846386 -11.492829 1.195110 11.000000
16.040583 -15.934549 0.477559 19.000000
28.215063 34.669147 1.904723 12.000000
30.089476 -11.459976 1.191900 32.000000
16.077698 -15.854763 0.465103 9.000000
28.096382 34.770527 1.928343 12.000000
30.475681 -11.485417 1.194219 30.000000
16.096743 -15.757593 0.440381 14.000000
27.998941 34.910915 1.969552 12.000000
94.797264 49.180222 5.466074 21.000000
30.241716 -11.270832 1.172143 13.000000
94.804047 49.625580 5.533093 33.000000
30.756746 -11.334567 1.179030 36.000000
94.676353 50.001678 5.592512 31.000000
7.340412 -7.036743 0.177491 96.000000
27.656752 35.233955 2.073166 12.000000
94.878510 50.532795 5.652466 19.000000
7.409700 -7.051231 0.171397 48.000000
21.118649 27.118332 1.626932 8.000000
30.666922 -10.926031 1.136851 51.000000
7.464653 -7.051571 0.164899 96.000000
20.954277 27.111666 1.645890 8.000000
95.913078 52.033211 5.852329 16.000000
30.777830 -10.838585 1.128078 99.000000
7.383542 -6.919071 0.155426 17.000000
20.778229 27.068932 1.668952 8.000000
95.663208 52.287304 5.904325 34.000000
30.686565 -10.692199 1.112071 18.000000
7.578512 -7.054723 0.151807 8.000000
20.695007 27.156248 1.693766 8.000000
95.752380 52.792759 5.979152 18.000000
30.929083 -10.649738 1.108006 16.000000
20.654181 27.329546 1.729359 8.000000
68.277435 38.002731 4.314039 16.000000
31.019266 -10.541698 1.098263 9.000000
8.386794 -7.690468 0.150946 48.000000
20.597904 27.463770 1.763099 6.000000
68.517815 38.418961 4.364336 5.000000
84.007172 7.837476 4.170762 29.000000
31.160450 -10.468491 1.090474 7.000000
7.745776 -7.050585 0.133457 14.000000
27.085154 36.377254 2.368922 9.000000
68.265907 38.607265 4.398467 1.000000
84.047462 8.152074 4.174218 34.000000
37.018536 -12.285731 1.280266 11.000000
7.805019 -7.052376 0.126687 10.000000
27.396793 37.051685 2.439171 4.000000
68.291054 38.952526 4.450552 1.000000
84.034142 8.432164 4.189699 37.000000
37.059288 -12.162975 1.273458 9.000000
9.019063 -8.095183 0.137494 14.000000
27.152950 37.004856 2.477722 9.000000
67.770470 38.969749 4.493907 8.000000
9.033792 -8.048816 0.130932 19.000000
26.809849 36.832954 2.491200 2.000000
67.445145 39.112312 4.495463 20.000000
84.141548 9.081267 4.213141 25.000000
37.157196 -11.879816 1.246388 8.000000
9.031002 -7.984337 0.119926 20.000000
67.768951 39.632721 4.567942 5.000000
84.106964 9.389519 4.227911 26.000000
9.056508 -7.947939 0.111464 24.000000
67.021843 39.510403 4.567728 6.000000
84.139130 9.675707 4.245936 18.000000
9.085634 -7.914742 0.103052 21.000000
66.612801 39.598976 4.590428 8.000000
104.861092 12.448246 5.293901 1.000000
9.065469 -7.838919 0.094129 18.000000
23.139059 32.753139 2.333345 10.000000
105.091797 12.847799 5.363358 6.000000
9.086586 -7.799157 0.087781 24.000000
9.101030 -7.759288 0.079321 31.000000
22.380072 32.164753 2.348589 10.000000
65.422638 39.855824 4.685475 8.000000
81.523956 -24.148497 2.597758 8.000000
9.074655 -7.682262 0.074707 64.000000
23.395269 33.875412 2.503577 10.000000
65.159210 40.023533 4.717274 17.000000
81.824486 -23.927155 2.574872 16.000000
9.106616 -7.652198 0.066434 31.000000
101.740479 13.936711 5.255989 1.000000
81.704613 -23.536486 2.538399 16.000000
9.129612 -7.609206 0.058081 19.000000
101.974594 14.349743 5.288785 1.000000
9.131716 -7.559783 0.049658 25.000000
21.502220 31.866352 2.445529 8.000000
63.831837 40.165943 4.797732 26.000000
9.147799 -7.516760 0.041329 25.000000
21.442616 32.030598 2.479106 9.000000
63.802891 40.459312 4.845861 6.000000
101.357780 15.003369 5.316021 1.000000
9.158540 -7.464200 0.032994 23.000000
63.588963 40.651203 4.880579 7.000000
101.133339 15.349149 5.325066 1.000000
44.799599 -12.196973 1.353686 6.000000
9.162523 -7.411725 0.026739 23.000000
23.494864 35.645363 2.820627 10.000000
63.012493 40.593216 4.886591 7.000000
101.376442 15.766380 5.358828 1.000000
9.179268 -7.375047 0.018496 24.000000
9.204965 -7.342967 0.010276 27.000000
25.468609 39.248203 3.173245 4.000000
61.539440 40.285625 4.885380 9.000000
9.200457 -7.284352 0.006144 27.000000
20.390347 31.663893 2.587297 9.000000
9.211370 -7.238225 -0.002045 29.000000
21.540066 33.720150 2.790949 9.000000
61.048603 40.591320 4.972173 10.000000
87.050072 14.832834 4.705131 18.000000
9.226007 -7.195190 -0.006126 29.000000
21.305565 33.624065 2.811423 9.000000
60.880672 40.802235 5.009195 18.000000
9.223170 -7.133620 -0.014245 24.000000
21.192062 33.704582 2.846872 10.000000
44.254009 -10.861637 1.264855 15.000000
9.234872 -7.093852 -0.020324 22.000000
21.064157 33.775249 2.888201 10.000000
44.228497 -10.691829 1.263051 8.000000
9.252845 -7.053884 -0.028430 27.000000
20.976286 33.897297 2.927330 8.000000
60.446384 41.450516 5.163733 17.000000
87.096802 16.110992 4.812521 2.000000
9.246723 -6.995779 -0.034403 32.000000
19.971573 32.539631 2.837244 9.000000
29.306877 20.255228 2.528661 1.000000
83.424355 -19.520927 2.348303 10.000000
9.268283 -6.958824 -0.042479 26.000000
29.169962 20.318987 2.541965 8.000000
83.461250 -19.207184 2.347344 36.000000
9.288496 -6.923431 -0.046505 25.000000
19.932713 32.977737 2.931181 9.000000
60.769936 42.614826 5.346391 6.000000
83.521736 -18.899040 2.332124 37.000000
9.277603 -6.862559 -0.054381 81.000000
19.845617 33.120243 2.970944 9.000000
60.693027 42.925365 5.406912 13.000000
86.581070 17.332037 4.905753 14.000000
36.391994 -8.094570 1.008804 129.000000
17.251049 -12.662888 -0.112050 22.000000
60.624241 43.194977 5.479491 15.000000
36.435013 -7.970768 0.996191 255.000000
17.277105 -12.584830 -0.119380 30.000000
21.059330 35.708878 3.269957 10.000000
87.495743 18.151352 5.027217 1.000000
36.419834 -7.827684 1.001491 255.000000
17.298731 -12.503798 -0.134114 29.000000
60.353024 43.672253 5.575282 10.000000
87.242172 18.432522 5.032107 16.000000
36.409328 -7.685924 0.993921 254.000000
17.344383 -12.440268 -0.145290 23.000000
19.380123 33.432465 3.129546 8.000000
60.276836 43.938511 5.647840 14.000000
87.317963 18.767176 5.055865 20.000000
36.378696 -7.540287 0.985835 255.000000
17.389820 -12.376582 -0.152740 28.000000
60.146900 44.149975 5.714841 20.000000
87.036308 19.040646 5.090364 7.000000
36.362003 -7.397933 0.984641 179.000000
17.381882 -12.275203 -0.167131 27.000000
19.536818 34.237804 3.268599 10.000000
60.117977 44.484962 5.780800 19.000000
84.168488 -16.803247 2.292493 31.000000
17.438993 -12.219988 -0.174682 29.000000
19.378675 34.237747 3.303601 10.000000
60.010025 44.713802 5.850348 9.000000
84.227020 -16.509420 2.277513 34.000000
17.463110 -12.141699 -0.178189 26.000000
19.827044 35.331379 3.437698 20.000000
59.911041 44.982483 5.896202 15.000000
84.311119 -16.205242 2.293161 35.000000
17.474466 -12.054826 -0.192675 33.000000
19.798742 35.571320 3.497241 10.000000
59.705807 45.155148 5.957215 13.000000
86.746544 20.298306 5.261699 14.000000
84.448135 -15.910851 2.310295 34.000000
9.848468 -6.740862 -0.112483 1.000000
19.805433 35.892281 3.579304 10.000000
86.423920 20.541267 5.308682 7.000000
9.852427 -6.690677 -0.112247 5.000000
19.799709 35.881912 3.599893 9.000000
9.888544 -6.717725 -0.104326 7.000000
19.889429 35.748932 3.571910 10.000000
59.711620 45.159542 6.115612 8.000000
84.376152 -15.912538 2.503373 13.000000
9.851578 -6.745516 -0.089608 1.000000
19.750942 35.195766 3.495461 17.000000
59.782070 44.885651 6.093609 9.000000
86.691780 19.950636 5.456477 29.000000
84.610428 -16.278086 2.557230 27.000000
17.505596 -12.080812 -0.144779 38.000000
19.452946 34.382965 3.393676 10.000000
59.863968 44.604973 6.059020 19.000000
84.351570 -16.533833 2.566151 27.000000
17.457193 -12.142104 -0.126188 26.000000
19.481531 34.140915 3.342256 14.000000
60.034710 44.407135 6.008102 20.000000
36.462044 -7.285835 1.129543 9.000000
17.445395 -12.229014 -0.111552 22.000000
60.153713 44.154980 5.990668 12.000000
87.076538 19.033522 5.467191 19.000000
36.356548 -7.403432 1.133590 213.000000
17.412779 -12.301579 -0.093026 28.000000
19.447905 33.522423 3.233940 8.000000
60.258080 43.892635 5.932622 17.000000
87.158020 18.732800 5.452550 17.000000
36.377514 -7.546665 1.154569 255.000000
17.367611 -12.365344 -0.081863 25.000000
19.017273 32.518097 3.123575 9.000000
60.420681 43.689087 5.907389 13.000000
36.403198 -7.691267 1.162772 255.000000
17.342537 -12.443528 -0.063332 28.000000
21.016037 35.635468 3.394047 10.000000
36.408764 -7.831953 1.170365 255.000000
17.290916 -12.498149 -0.052131 24.000000
21.093121 35.482529 3.357462 10.000000
60.691277 43.226772 5.838024 19.000000
36.432705 -7.976926 1.198130 253.000000
17.277355 -12.585011 -0.033576 24.000000
19.845945 33.107685 3.105703 9.000000
60.627892 42.847561 5.777672 13.000000
36.378223 -8.104835 1.216842 76.000000
17.255310 -12.666015 -0.018679 29.000000
19.922636 33.000084 3.074382 9.000000
60.741909 42.626808 5.762005 13.000000
83.515747 -18.928331 2.810844 37.000000
9.281726 -6.865609 0.000000 26.000000
29.170523 20.319376 2.735417 9.000000
83.453552 -19.220751 2.825955 27.000000
9.288570 -6.923487 0.006066 29.000000
20.005581 32.582287 2.982215 14.000000
60.524361 41.799747 5.621049 6.000000
87.218559 16.448589 5.397455 1.000000
83.276489 -19.532324 2.882373 20.000000
9.283115 -6.972494 0.014184 26.000000
20.855429 33.688854 3.062645 9.000000
60.564594 41.516037 5.585514 14.000000
87.419655 16.154936 5.421772 9.000000
83.171867 -19.798994 2.895948 9.000000
9.265457 -7.012496 0.024337 27.000000
20.996576 33.679974 3.039947 10.000000
60.518867 41.190372 5.530118 6.000000
87.336792 15.808807 5.397455 5.000000
9.263540 -7.064595 0.028466 26.000000
21.100054 33.571251 3.002291 10.000000
60.671818 40.969898 5.491786 15.000000
87.164108 15.447825 5.367740 5.000000
44.235973 -10.873584 1.574818 8.000000
9.249456 -7.107622 0.038683 28.000000
21.290541 33.613327 2.977762 10.000000
60.800270 40.748352 5.451967 16.000000
87.006981 15.106920 5.339314 15.000000
9.235186 -7.150645 0.044848 25.000000
21.499466 33.643646 2.946028 8.000000
61.053734 40.564007 5.408595 11.000000
94.025131 15.970688 5.749657 9.000000
9.216773 -7.190576 0.053047 27.000000
20.413477 31.699814 2.762190 9.000000
61.266518 40.397823 5.402041 1.000000
94.160820 15.638882 5.771131 17.000000
9.213909 -7.242823 0.061365 26.000000
61.598591 40.324348 5.380744 10.000000
94.151794 15.299858 5.750560 23.000000
9.206873 -7.292046 0.067646 25.000000
9.187851 -7.331940 0.077962 32.000000
23.469801 35.620869 3.027808 10.000000
63.066624 40.643669 5.430777 15.000000
44.911648 -12.084462 1.697281 3.000000
9.173848 -7.373327 0.086278 26.000000
63.272972 40.449196 5.383043 9.000000
9.158370 -7.416302 0.094615 27.000000
21.468866 32.081921 2.672278 9.000000
9.142681 -7.459246 0.105033 26.000000
63.700619 40.083374 5.315670 18.000000
102.316101 14.762205 6.177853 7.000000
9.157707 -7.527580 0.113798 25.000000
63.760601 39.795643 5.268920 1.000000
102.196526 14.362786 6.167413 8.000000
9.130009 -7.561055 0.120005 28.000000
75.837013 -21.889231 3.004700 1.000000
9.132879 -7.620037 0.128714 30.000000
23.362015 33.839890 2.709617 10.000000
65.224174 40.063438 5.312335 13.000000
102.365952 13.640350 6.171589 1.000000
75.515511 -22.096588 3.022656 10.000000
9.120127 -7.666268 0.137248 48.000000
22.393026 32.195358 2.549809 9.000000
65.468231 39.883598 5.253055 8.000000
75.471832 -22.384432 3.037931 24.000000
9.110970 -7.715734 0.145871 138.000000
104.877029 13.193264 6.279952 1.000000
9.095333 -7.757173 0.152313 21.000000
23.111330 32.726009 2.548696 10.000000
104.875145 12.802733 6.276986 1.000000
9.093302 -7.813193 0.161129 23.000000
66.589218 39.600689 5.213779 18.000000
9.090978 -7.869298 0.169994 19.000000
67.024178 39.527546 5.195532 10.000000
9.069518 -7.909058 0.178536 18.000000
26.554220 36.750694 2.773130 4.000000
67.489632 39.469368 5.179245 8.000000
83.701439 9.299876 5.003382 11.000000
9.070395 -7.968537 0.189666 19.000000
26.683996 36.646610 2.740872 6.000000
67.278221 39.031200 5.138900 17.000000
37.089550 -11.886733 1.584731 10.000000
9.044770 -8.004951 0.198177 18.000000
26.828199 36.575661 2.694881 13.000000
67.887451 39.052788 5.105826 14.000000
36.983959 -12.002546 1.582088 23.000000
7.843579 -6.993287 0.179757 9.000000
27.488049 37.188671 2.723154 13.000000
68.065575 38.823917 5.094752 1.000000
7.845064 -7.043917 0.187716 10.000000
27.070976 36.344971 2.628938 13.000000
83.889595 8.092426 4.962812 31.000000
36.814941 -12.239565 1.619260 19.000000
7.822802 -7.075888 0.195169 10.000000
68.337883 38.302395 5.011096 19.000000
37.124393 -12.493738 1.648571 8.000000
20.577133 27.217720 1.925566 8.000000
68.396263 38.037605 4.978671 12.000000
37.087540 -12.632852 1.655830 9.000000
20.685125 27.162941 1.896899 8.000000
95.455627 52.650871 6.877635 26.000000
20.776424 27.076363 1.866284 8.000000
95.620461 52.285618 6.818369 32.000000
30.995121 -10.805777 1.410199 9.000000
20.872995 27.016245 1.842996 8.000000
95.682961 51.865147 6.752017 1.000000
30.779619 -10.845254 1.413436 10.000000
21.078793 27.067154 1.821953 7.000000
30.584820 -10.914830 1.417848 9.000000
7.524226 -7.110333 0.234927 144.000000
27.734737 35.346004 2.354594 7.000000
30.609921 -11.050434 1.432261 36.000000
7.552301 -7.189446 0.243908 31.000000
94.616356 49.969994 6.525728 24.000000
30.770020 -11.235876 1.464584 18.000000
7.468019 -7.161573 0.251067 255.000000
94.802063 49.645622 6.470305 31.000000
30.556753 -11.279040 1.467690 38.000000
7.442848 -7.187475 0.258291 119.000000
27.981602 34.876823 2.233830 12.000000
95.177864 49.398758 6.408419 1.000000
30.136168 -11.249471 1.449460 9.000000
28.009998 34.651253 2.186965 12.000000
30.346115 -11.454737 1.484259 33.000000
7.225481 -7.080657 0.266676 81.000000
28.207447 34.672146 2.178226 12.000000
94.376793 48.128883 6.256909 12.000000
30.200787 -11.526520 1.490514 17.000000
7.156662 -7.064823 0.272116 1.000000
27.965345 34.118351 2.103555 12.000000
16.004831 -15.915691 0.626531 25.000000
28.169821 34.087788 2.077685 12.000000
94.133820 47.138702 6.125538 31.000000
29.939722 -11.673010 1.504197 9.000000
16.033623 -16.056025 0.645702 35.000000
28.543005 34.319233 2.058208 12.000000
93.992287 46.637733 6.031666 21.000000
30.240595 -11.918184 1.521498 9.000000
28.723181 34.255230 2.029994 12.000000
30.042601 -11.967551 1.536360 20.000000
7.308874 -7.427185 0.312908 15.000000
30.245707 -12.170961 1.560316 8.000000
7.609724 -7.789810 0.334618 10.000000
41.313957 -16.784258 2.149766 11.000000
7.599721 -7.834092 0.343005 6.000000
55.101898 26.364941 3.415160 1.000000
41.062050 -16.857521 2.155390 18.000000
55.122543 26.126963 3.389122 1.000000
40.817738 -16.949007 2.169316 23.000000
15.981330 -16.717665 0.759138 23.000000
49.394592 56.842010 3.129882 10.000000
40.594803 -17.014484 2.175857 14.000000
15.916050 -16.772018 0.779152 10.000000
49.785011 56.868958 3.088536 9.000000
40.408916 -17.119284 2.184757 17.000000
15.822760 -16.790705 0.793575 27.000000
50.017662 56.713947 3.037174 28.000000
92.776886 42.790367 5.551176 9.000000
40.154480 -17.168770 2.174067 20.000000
15.730005 -16.815332 0.808103 7.000000
92.382774 42.159683 5.464098 36.000000
39.910007 -17.254066 2.187386 19.000000
92.665810 41.879166 5.436124 33.000000
39.678791 -17.318747 2.208316 25.000000
92.522354 41.426014 5.365964 25.000000
39.477974 -17.403633 2.200675 16.000000
18.433081 20.314602 1.020233 1.000000
39.303028 -17.498837 2.224598 17.000000
6.925055 -7.621218 0.391992 13.000000
39.041378 -17.521326 2.212721 13.000000
6.856086 -7.595772 0.394877 96.000000
18.463978 20.058336 0.971091 3.000000
91.663704 39.875538 5.168782 20.000000
38.820503 -17.593424 2.241138 20.000000
6.904648 -7.706173 0.408341 26.000000
91.665764 39.477516 5.090844 33.000000
38.622631 -17.666515 2.233261 20.000000
91.680618 39.105099 5.049175 32.000000
38.432495 -17.766447 2.248604 21.000000
6.782803 -7.680058 0.418705 33.000000
25.601482 27.215178 1.239506 9.000000
91.586029 38.706291 5.002073 29.000000
38.223335 -17.823833 2.254576 13.000000
6.793932 -7.749723 0.428350 25.000000
25.698210 27.118156 1.213259 8.000000
91.544937 38.256535 4.939321 25.000000
6.773201 -7.780700 0.435967 32.000000
25.832661 27.060686 1.182234 8.000000
91.474487 37.871269 4.894073 30.000000
35.021946 -16.637135 2.106647 8.000000
6.594149 -7.631314 0.435057 109.000000
25.925308 26.959209 1.155807 8.000000
91.352753 37.410625 4.845296 26.000000
33.554424 -16.105398 2.035276 7.000000
6.598456 -7.693114 0.444288 31.000000
26.172787 27.027092 1.136337 5.000000
91.305672 37.001156 4.801102 27.000000
32.141857 -15.572599 1.971802 2.000000
6.558353 -7.700591 0.452239 31.000000
91.052856 36.510750 4.746416 29.000000
6.700785 -7.926502 0.471321 9.000000
91.016594 36.109543 4.686206 31.000000
82.634010 -3.347816 4.783038 24.000000
30.468067 30.778063 1.209705 11.000000
90.837517 35.708614 4.654112 27.000000
28.868534 -14.361878 1.819638 7.000000
6.438802 -7.728090 0.472606 149.000000
30.549492 30.634924 1.178245 8.000000
90.865997 35.299343 4.597118 7.000000
26.367960 -13.232885 1.680421 14.000000
6.457964 -7.809112 0.483201 30.000000
30.862268 30.754728 1.148527 11.000000
90.612602 34.855518 4.510499 30.000000
26.296755 -13.318030 1.684144 35.000000
6.390662 -7.780119 0.485377 49.000000
30.367531 30.019720 1.095790 11.000000
90.596504 34.468674 4.469470 28.000000
6.281597 -7.707490 0.488035 35.000000
30.428078 29.859861 1.056792 21.000000
90.242172 33.955757 4.412092 26.000000
6.237331 -7.710714 0.495464 43.000000
90.010513 33.510380 4.361424 33.000000
24.143229 -12.557459 1.588195 19.000000
6.305725 -7.853961 0.510230 28.000000
56.469803 54.627571 1.837849 11.000000
89.883202 33.052769 4.315294 17.000000
77.154350 -5.070487 4.471829 5.000000
23.380442 -12.280211 1.555122 10.000000
6.309116 -7.914620 0.521592 11.000000
56.539822 54.333515 1.779481 19.000000
90.636772 32.989086 4.312460 25.000000
22.734550 -12.037325 1.528325 10.000000
6.323212 -7.992225 0.532310 39.000000
56.671524 54.024174 1.722098 1.000000
91.534012 32.936222 4.315352 23.000000
77.569138 -5.655489 4.498100 1.000000
22.066957 -11.782659 1.490584 9.000000
6.494140 -8.270386 0.554768 108.000000
56.623116 53.583271 1.660198 1.000000
77.492355 -5.935503 4.508489 1.000000
21.381182 -11.517395 1.464118 9.000000
92.613647 32.578083 4.286477 17.000000
77.586082 -6.228799 4.487979 1.000000
20.807983 -11.307220 1.431844 11.000000
6.464741 -8.355352 0.575841 20.000000
56.774506 52.980148 1.545279 7.000000
93.068832 32.355366 4.267568 15.000000
77.438728 -6.489101 4.494347 1.000000
20.242516 -11.091640 1.407719 10.000000
56.714203 52.554710 1.484634 1.000000
94.345673 32.412167 4.285752 10.000000
19.694626 -10.885476 1.380267 24.000000
6.576745 -8.626964 0.608394 23.000000
57.076435 52.502861 1.434909 10.000000
94.265869 31.998953 4.259365 17.000000
19.191927 -10.699645 1.359324 10.000000
6.424348 -8.491430 0.604629 29.000000
57.121456 52.122505 1.363265 18.000000
94.919701 31.851822 4.213834 25.000000
18.706175 -10.514595 1.331270 13.000000
6.358439 -8.465569 0.608619 35.000000
57.379875 52.010651 1.311227 9.000000
95.663124 31.711660 4.206407 14.000000
18.263176 -10.353858 1.313470 13.000000
6.374843 -8.546280 0.620366 17.000000
57.318069 51.573208 1.251642 1.000000
95.718376 31.341070 4.168540 18.000000
18.146532 -10.375799 1.318796 24.000000
57.684944 51.540070 1.188194 1.000000
96.329025 31.150566 4.137034 5.000000
18.174448 -10.476111 1.334502 27.000000
6.168080 -8.399896 0.624615 29.000000
57.948872 51.395180 1.135655 1.000000
18.109440 -10.527256 1.343566 11.000000
6.254560 -8.583434 0.643996 29.000000
58.253765 51.285366 1.083744 1.000000
18.078938 -10.598369 1.351521 13.000000
6.271027 -8.669454 0.658175 34.000000
93.559265 29.140467 3.901519 20.000000
18.071289 -10.678818 1.364764 10.000000
6.064277 -8.448666 0.648832 94.000000
28.011654 24.298704 0.466012 20.000000
93.384987 28.711132 3.855680 21.000000
18.018761 -10.737074 1.371113 10.000000
6.053337 -8.499010 0.656475 133.000000
93.504578 28.373215 3.839218 22.000000
17.976482 -10.797090 1.378107 12.000000
5.997375 -8.482947 0.662716 39.000000
90.642090 77.470390 1.311141 10.000000
94.251846 28.223127 3.796835 10.000000
17.961981 -10.878162 1.387404 12.000000
5.977437 -8.520830 0.671255 85.000000
91.076553 77.293213 1.230111 10.000000
17.942656 -10.956542 1.400060 10.000000
5.944539 -8.537163 0.678196 29.000000
17.907921 -11.021336 1.411403 10.000000
5.963915 -8.632288 0.693208 37.000000
95.199547 27.387962 3.701649 1.000000
17.887972 -11.099659 1.424100 14.000000
5.937533 -8.661817 0.703031 32.000000
58.530968 48.576092 0.610682 1.000000
17.850763 -11.167396 1.435463 11.000000
58.774464 48.415482 0.571494 12.000000
17.819901 -11.234825 1.439820 19.000000
17.791019 -11.307955 1.444522 10.000000
25.907015 21.024044 0.197991 6.000000
17.759199 -11.374959 1.456248 10.000000
26.096924 21.019989 0.175457 8.000000
17.733509 -11.450381 1.468679 16.000000
5.907199 -8.955337 0.759593 23.000000
17.719820 -11.533785 1.485869 17.000000
5.817067 -8.882641 0.759237 17.000000
17.691746 -11.603632 1.490613 10.000000
5.759729 -8.865817 0.763409 9.000000
85.202751 21.844650 3.010099 9.000000
9.984976 -6.601395 0.849613 4.000000
5.806300 -9.013068 0.783568 1.000000
59.214539 46.296764 0.157425 15.000000
85.457184 21.576385 3.000872 14.000000
9.936596 -6.619371 0.853741 8.000000
15.020166 -23.504450 2.063078 10.000000
59.581398 46.232731 0.118462 8.000000
9.878897 -6.633339 0.855041 8.000000
14.977730 -23.601126 2.082139 21.000000
59.639591 45.928669 0.052552 1.000000
85.154427 20.837154 2.908206 17.000000
9.908087 -6.705758 0.861788 1.000000
14.913947 -23.710470 2.106152 21.000000
59.616852 45.564037 0.000000 1.000000
85.415337 20.569487 2.899172 1.000000
17.737253 -12.094997 1.557718 10.000000
14.787876 -23.693146 2.124528 13.000000
59.867085 45.408665 -0.065572 1.000000
17.696463 -12.162442 1.565575 10.000000
59.941170 45.119728 -0.130943 4.000000
33.347511 7.778617 1.088086 3.000000
48.267166 -9.198724 2.876182 82.000000
17.670074 -12.235341 1.570781 10.000000
59.934219 44.803902 -0.169784 1.000000
33.293179 7.637388 1.079424 4.000000
48.017048 -9.333569 2.871863 110.000000
17.649178 -12.307658 1.583869 9.000000
13.675101 -22.429813 2.053643 9.000000
37.036133 27.475384 -0.144874 6.000000
33.311745 7.513235 1.061229 8.000000
47.779015 -9.460500 2.851054 36.000000
17.632055 -12.392015 1.593962 10.000000
13.611459 -22.501772 2.074341 13.000000
33.612831 7.451786 1.051899 8.000000
17.608299 -12.476600 1.603708 10.000000
13.543337 -22.593456 2.096270 9.000000
61.036335 44.590099 -0.369401 20.000000
34.036171 7.414862 1.039948 5.000000
47.391556 -9.745330 2.815174 20.000000
17.574717 -12.540553 1.608217 10.000000
13.527617 -22.728851 2.123462 15.000000
92.005058 66.698494 -0.654516 199.000000
87.314354 18.686699 2.618917 3.000000
47.085842 -9.845323 2.790514 121.000000
17.502037 -12.581122 1.613141 10.000000
13.468987 -22.820238 2.141338 14.000000
92.333641 66.421783 -0.754380 19.000000
84.722862 17.807581 2.493844 16.000000
46.709896 -9.937016 2.761910 204.000000
17.362482 -12.577579 1.612043 10.000000
13.436331 -22.947529 2.167555 17.000000
61.688614 44.034561 -0.595286 5.000000
85.142097 17.570099 2.428345 18.000000
17.312237 -12.638191 1.611668 9.000000
13.394098 -23.068899 2.188428 13.000000
17.312883 -12.634031 1.570148 10.000000
13.406966 -23.081783 2.157045 10.000000
92.196571 66.274361 -1.050350 76.000000
33.806366 7.099473 0.880429 5.000000
17.382654 -12.592193 1.546118 10.000000
13.433372 -22.942474 2.115705 21.000000
91.930069 66.644135 -1.010715 230.000000
33.711689 7.208699 0.878645 28.000000
36.565201 -7.645529 2.010049 8.000000
17.514820 -12.590312 1.534838 10.000000
13.467801 -22.809135 2.080035 11.000000
61.086731 44.594223 -0.646831 16.000000
33.680305 7.331180 0.872502 40.000000
85.130455 -17.505743 4.630906 1.000000
17.559746 -12.529870 1.516014 10.000000
13.524547 -22.714670 2.043433 17.000000
33.668289 7.457915 0.854825 32.000000
85.258598 -17.222122 4.558462 1.000000
17.623337 -12.478017 1.491035 10.000000
13.535578 -22.553724 2.005485 13.000000
37.045544 27.452303 -0.362143 10.000000
33.632008 7.573133 0.866611 34.000000
85.454178 -16.935881 4.550323 1.000000
17.640768 -12.402740 1.477678 10.000000
13.606323 -22.484419 1.976064 21.000000
59.948120 44.765385 -0.561513 20.000000
33.609039 7.697498 0.860719 22.000000
17.656370 -12.321836 1.456497 10.000000
59.803776 44.999954 -0.535575 16.000000
33.546524 7.812693 0.859846 18.000000
17.669806 -12.226030 1.434709 10.000000
5.707699 -9.281361 0.796324 1.000000
59.754261 45.306660 -0.484261 15.000000
33.600212 7.955139 0.867993 7.000000
85.603462 -16.004789 4.442103 1.000000
17.729443 -12.175999 1.424780 10.000000
14.696541 -23.712334 2.014391 12.000000
59.766720 45.662060 -0.459459 1.000000
86.061691 -15.764225 4.416924 5.000000
17.729616 -12.080726 1.402423 14.000000
14.845064 -23.757069 1.998227 23.000000
59.484306 45.792545 -0.406166 11.000000
85.245598 20.843697 2.221362 22.000000
9.904161 -6.695542 0.773097 5.000000
14.941304 -23.717207 1.965049 19.000000
59.331978 46.022598 -0.380063 15.000000
85.196579 21.147154 2.221994 1.000000
9.871740 -6.628533 0.760601 9.000000
14.938985 -23.549158 1.935440 9.000000
59.513710 46.513935 -0.329583 2.000000
85.985680 21.677898 2.260119 23.000000
9.936093 -6.614030 0.755141 8.000000
10.009631 -6.612676 0.748461 1.000000
17.672548 -11.591041 1.307458 12.000000
5.865811 -9.022211 0.712886 27.000000
17.720045 -11.529530 1.289318 19.000000
5.875734 -8.968809 0.700885 25.000000
26.015213 20.946688 -0.069953 108.000000
99.997757 26.775612 2.674618 1.000000
17.764751 -11.461769 1.278249 18.000000
5.870407 -8.889430 0.687023 10.000000
25.984871 21.079704 -0.064239 6.000000
100.106277 27.179512 2.680043 1.000000
17.757126 -11.364891 1.256230 14.000000
100.130371 27.580500 2.719654 1.000000
17.812120 -11.317002 1.246370 22.000000
58.695782 48.333473 -0.039812 10.000000
17.847546 -11.243550 1.234736 17.000000
17.855677 -11.157466 1.214025 10.000000
5.936654 -8.715874 0.639456 17.000000
58.543236 48.932381 0.039951 7.000000
94.593063 27.177732 2.628784 19.000000
79.539963 -11.037081 3.758857 1.000000
17.913960 -11.102798 1.204141 24.000000
5.943511 -8.657570 0.625736 33.000000
58.283142 49.078960 0.093090 1.000000
94.578751 27.549284 2.648381 1.000000
17.931879 -11.027452 1.191693 10.000000
5.939932 -8.587955 0.613055 80.000000
58.279205 49.424362 0.133369 7.000000
94.544327 27.897644 2.650127 10.000000
17.951748 -10.949195 1.171931 16.000000
6.011635 -8.623891 0.607984 37.000000
94.296898 28.200752 2.680453 15.000000
17.975670 -10.882164 1.160094 21.000000
6.029217 -8.581892 0.595558 35.000000
94.278999 28.572271 2.682903 8.000000
18.018183 -10.813581 1.141756 18.000000
6.010347 -8.491859 0.583476 22.000000
28.029251 24.305397 0.135978 9.000000
18.019798 -10.733432 1.135925 10.000000
6.033027 -8.457993 0.573570 18.000000
90.902580 79.411201 0.526673 10.000000
93.263893 29.012758 2.711176 1.000000
18.061388 -10.664462 1.124943 10.000000
6.156033 -8.567026 0.573184 51.000000
90.370483 79.532242 0.588310 10.000000
93.461113 29.450241 2.754261 1.000000
18.092575 -10.593639 1.106112 13.000000
6.096959 -8.419524 0.553889 24.000000
79.113350 -8.650348 3.572172 1.000000
18.110191 -10.515009 1.093830 12.000000
6.157493 -8.437842 0.547434 37.000000
58.379467 52.087368 0.491593 13.000000
95.938972 30.987444 2.868966 16.000000
78.923676 -8.364853 3.548456 1.000000
18.136799 -10.450193 1.082348 19.000000
6.187152 -8.422787 0.540400 25.000000
95.800049 31.330791 2.903438 29.000000
18.182329 -10.392057 1.071900 22.000000
6.384729 -8.619024 0.543368 17.000000
95.598190 31.653103 2.935998 11.000000
18.402868 -10.420323 1.063923 10.000000
6.326996 -8.475961 0.524703 31.000000
94.746544 31.756924 2.930854 12.000000
18.854935 -10.585224 1.080242 9.000000
6.392778 -8.502012 0.520250 14.000000
86.464333 79.452347 1.024757 10.000000
94.086067 31.901295 2.913849 15.000000
19.350988 -10.783897 1.095087 10.000000
6.517665 -8.602284 0.518404 17.000000
86.024590 79.603889 1.084206 17.000000
93.468201 32.037773 2.932508 23.000000
19.832716 -10.957282 1.100248 10.000000
6.464689 -8.473838 0.500766 16.000000
85.790192 79.972656 1.166826 10.000000
92.928932 32.234032 2.953641 24.000000
20.372595 -11.158292 1.115731 10.000000
56.775642 53.353188 0.843105 1.000000
21.048120 -11.432955 1.142154 9.000000
6.415431 -8.279673 0.473803 80.000000
56.587185 53.530552 0.883729 1.000000
91.530617 32.502609 2.950628 24.000000
21.613710 -11.637784 1.157641 9.000000
91.088570 32.740040 2.991137 22.000000
22.216347 -11.857442 1.174368 9.000000
6.428651 -8.175229 0.454078 71.000000
90.617302 32.910378 2.996072 25.000000
77.227249 -5.359623 3.339315 1.000000
22.873875 -12.100872 1.193194 9.000000
6.431114 -8.122780 0.445100 113.000000
57.868740 55.941780 1.081743 1.000000
90.030670 33.071327 3.014176 25.000000
77.565392 -5.097501 3.353106 1.000000
23.597883 -12.378660 1.210058 10.000000
6.282137 -7.877953 0.424075 26.000000
57.843670 56.368492 1.141892 1.000000
89.956604 33.454559 3.066471 27.000000
24.321720 -12.644904 1.230407 15.000000
6.357764 -7.907464 0.418164 33.000000
30.532078 29.951460 0.634557 11.000000
90.160812 33.907181 3.077648 28.000000
6.346095 -7.833978 0.404930 34.000000
30.391720 30.043631 0.656413 11.000000
90.260452 34.304756 3.118859 25.000000
6.345153 -7.777155 0.396117 12.000000
30.638876 30.489510 0.694116 8.000000
90.355110 34.684078 3.159906 25.000000
26.313038 -13.320507 1.272202 24.000000
6.415524 -7.810386 0.390057 20.000000
55.930080 56.066906 1.327031 1.000000
26.607662 -13.347366 1.273663 9.000000
6.410633 -7.743618 0.379163 53.000000
55.783169 56.331062 1.397638 1.000000
90.761604 35.605637 3.251304 14.000000
28.996586 -14.412959 1.368493 10.000000
6.567154 -7.873757 0.379543 19.000000
55.705299 56.666340 1.456374 10.000000
90.620682 35.934162 3.267985 18.000000
82.579674 -3.331179 3.478379 19.000000
30.346916 -14.952276 1.412005 9.000000
55.510113 56.863464 1.498074 12.000000
90.957512 36.435665 3.318940 26.000000
82.691780 -3.032170 3.468142 12.000000
31.399042 -15.327906 1.433901 20.000000
6.657880 -7.870174 0.363587 21.000000
26.001293 26.831253 0.730451 6.000000
90.984383 36.833988 3.359128 25.000000
32.607052 -15.769887 1.467421 7.000000
6.542364 -7.673674 0.346856 36.000000
25.902229 26.925804 0.769576 8.000000
91.110199 37.274166 3.437600 25.000000
34.031448 -16.312441 1.528951 7.000000
6.600477 -7.690037 0.341500 22.000000
25.843245 27.071774 0.790512 9.000000
91.222466 37.748280 3.464777 27.000000
35.447006 -16.816315 1.568927 8.000000
6.814605 -7.875323 0.341842 102.000000
25.656630 27.055355 0.813586 9.000000
91.482040 38.230251 3.479684 15.000000
37.325527 -17.556103 1.620645 8.000000
6.888249 -7.904500 0.333159 38.000000
25.693851 27.294273 0.850662 9.000000
91.440315 38.607094 3.552837 21.000000
38.282059 -17.834951 1.651945 13.000000
6.848050 -7.800462 0.324389 33.000000
91.535469 39.043186 3.614243 28.000000
76.905128 -1.140994 3.196740 34.000000
38.484306 -17.757801 1.628219 20.000000
91.555786 39.449093 3.655576 23.000000
76.877548 -0.872186 3.222331 251.000000
38.701324 -17.694344 1.612464 15.000000
18.358408 19.929684 0.676422 6.000000
91.747849 39.931187 3.721527 33.000000
76.885239 -0.590448 3.222541 255.000000
38.925732 -17.624739 1.604174 10.000000
7.022685 -7.826910 0.302912 44.000000
18.409716 20.132967 0.700085 7.000000
92.228821 40.524025 3.781965 24.000000
76.912415 -0.308748 3.210164 255.000000
39.154709 -17.555769 1.595949 14.000000
6.994491 -7.738241 0.293183 245.000000
18.375862 20.244442 0.715939 15.000000
92.340584 40.938999 3.792094 26.000000
76.909142 -0.053693 3.183109 255.000000
39.355019 -17.489073 1.579161 11.000000
18.502655 20.513252 0.742686 4.000000
92.553680 41.401264 3.859627 32.000000
76.978241 0.214964 3.199439 153.000000
39.512371 -17.394091 1.567939 16.000000
6.686020 -7.296511 0.260879 83.000000
92.377319 41.729370 3.894059 27.000000
76.972115 0.470202 3.199232 255.000000
39.791637 -17.343203 1.561316 13.000000
6.692499 -7.250052 0.253200 38.000000
92.363434 42.131382 3.935447 30.000000
76.959877 0.752218 3.198816 250.000000
39.974972 -17.249037 1.543193 19.000000
6.689402 -7.198654 0.245314 34.000000
51.061447 57.877106 2.263738 21.000000
92.930969 42.782776 4.019616 30.000000
76.971588 1.034486 3.199439 255.000000
40.162487 -17.155615 1.532730 23.000000
50.769142 57.952293 2.313568 21.000000
93.130173 43.288872 4.070973 28.000000
77.012459 1.303922 3.201308 255.000000
40.457329 -17.114813 1.526340 10.000000
49.574512 57.008850 2.334625 14.000000
93.217690 43.745743 4.135782 34.000000
77.022148 1.586487 3.201931 255.000000
27.416388 -11.479770 1.011973 6.000000
49.684658 57.519627 2.401897 24.000000
77.020813 1.868898 3.202139 255.000000
27.629576 -11.450195 1.002609 6.000000
77.048401 2.152157 3.203592 36.000000
27.523726 -11.288302 0.986864 10.000000
7.506374 -7.789386 0.228485 25.000000
77.085358 2.422505 3.205461 20.000000
27.495773 -11.159286 0.974019 10.000000
7.543330 -7.767819 0.219247 27.000000
93.799500 45.728809 4.391916 29.000000
77.220184 2.710082 3.224968 2.000000
29.830221 -11.985624 1.043993 75.000000
7.564863 -7.733079 0.211493 29.000000
93.857559 46.163300 4.438729 32.000000
29.832323 -11.859662 1.036929 122.000000
7.256403 -7.363575 0.194893 73.000000
28.611954 34.377720 1.593152 12.000000
94.043396 46.642639 4.473162 36.000000
29.871603 -11.748673 1.014359 9.000000
7.331501 -7.388021 0.185313 8.000000
28.168983 34.074661 1.613401 12.000000
93.937416 47.019848 4.513024 29.000000
29.882790 -11.638798 1.002217 39.000000
16.022903 -16.039692 0.387819 19.000000
28.122595 34.285778 1.657023 12.000000
94.003090 47.484379 4.579757 33.000000
29.868963 -11.495537 0.989015 34.000000
7.186964 -7.136963 0.167954 10.000000
28.061655 34.443794 1.691214 12.000000
94.422112 48.110466 4.663918 18.000000
30.058678 -11.448247 0.982729 10.000000
7.081425 -6.980795 0.157945 1.000000
27.635841 34.176182 1.711501 12.000000
94.549484 48.612698 4.734754 1.000000
30.114788 -11.343405 0.971954 31.000000
16.177366 -15.842049 0.343837 21.000000
27.509365 34.263706 1.741789 8.000000
94.825874 49.195068 4.794957 22.000000
30.193947 -11.247028 0.961915 51.000000
7.400270 -7.191424 0.147692 33.000000
27.410662 34.398266 1.781955 12.000000
94.912636 49.682423 4.864727 33.000000
30.212629 -11.140038 0.950078 30.000000
7.337822 -7.083578 0.138854 27.000000
27.413582 34.661839 1.829021 12.000000
94.705444 49.995907 4.919213 26.000000
30.186972 -10.993127 0.936652 122.000000
7.344602 -7.033383 0.131346 47.000000
27.593977 35.141350 1.880477 12.000000
7.386061 -7.026280 0.124552 25.000000
21.086214 27.057196 1.473724 6.000000
30.680702 -10.936975 0.926881 16.000000
20.928043 27.058199 1.499498 8.000000
95.718864 51.862999 5.191135 28.000000
30.757666 -10.825450 0.916495 33.000000
7.461799 -6.997299 0.110697 7.000000
20.793112 27.078533 1.526446 8.000000
95.701027 52.307976 5.257767 38.000000
30.883377 -10.754730 0.907749 11.000000
20.729403 27.201382 1.553002 8.000000
95.523735 52.666698 5.315845 18.000000
30.885077 -10.628556 0.895237 25.000000
20.675692 27.328247 1.586083 8.000000
68.191917 37.908382 3.843134 11.000000
31.036640 -10.541561 0.886947 9.000000
7.743577 -7.098167 0.089839 19.000000
68.278442 38.284744 3.869588 10.000000
83.945938 7.816985 3.577821 27.000000
31.065155 -10.442510 0.875371 9.000000
7.748642 -7.055668 0.080480 18.000000
68.252655 38.599770 3.930996 1.000000
83.923378 8.140039 3.622394 22.000000
9.014775 -8.145473 0.086943 13.000000
83.866104 8.415302 3.621107 24.000000
36.754829 -12.055946 1.019668 16.000000
9.015724 -8.092187 0.080349 20.000000
67.811539 38.961872 4.002883 21.000000
83.893684 8.728767 3.638403 1.000000
36.485107 -11.819539 1.004279 7.000000
8.877372 -7.909449 0.070556 18.000000
67.644127 39.227703 4.043315 8.000000
84.049866 9.056531 3.646592 33.000000
36.670666 -11.717207 0.994636 8.000000
9.040203 -7.989661 0.065278 15.000000
67.315285 39.351639 4.072783 1.000000
84.139587 9.378291 3.666755 31.000000
37.367393 -11.803409 0.998779 17.000000
9.077952 -7.969563 0.056925 17.000000
84.383598 9.703821 3.693696 6.000000
37.551155 -11.703073 0.988744 8.000000
9.083517 -7.910108 0.044147 16.000000
27.335121 38.379070 2.502367 9.000000
66.501999 39.533112 4.122243 18.000000
40.074120 -12.343722 1.039445 7.000000
9.085652 -7.861916 0.037746 24.000000
27.325550 38.664761 2.555883 7.000000
39.736675 -12.080500 1.022284 8.000000
9.103045 -7.818804 0.029322 23.000000
27.208939 38.786308 2.607386 14.000000
81.601616 -24.481657 2.067241 25.000000
9.105019 -7.762689 0.022971 36.000000
22.394176 32.173050 2.177869 9.000000
65.390434 39.836205 4.213854 10.000000
101.753387 13.197399 4.515745 1.000000
81.633957 -24.165583 2.036067 26.000000
8.984568 -7.603307 0.012326 21.000000
23.502918 34.031284 2.348499 10.000000
65.223564 40.047386 4.252281 9.000000
101.826546 13.586562 4.557101 14.000000
81.616768 -23.835491 2.018598 27.000000
9.127236 -7.666808 0.006241 23.000000
102.047462 13.996908 4.587265 10.000000
82.218208 -23.684437 2.001429 27.000000
9.124554 -7.607688 0.000000 20.000000
101.757263 14.337275 4.594523 14.000000
9.140819 -7.564631 -0.006212 38.000000
63.968102 40.236103 4.344120 24.000000
101.344917 14.640138 4.596092 14.000000
9.151709 -7.519973 -0.014471 25.000000
21.376034 31.919085 2.309226 8.000000
63.835125 40.479755 4.384845 7.000000
101.872818 15.097777 4.640522 21.000000
9.158558 -7.464215 -0.022683 29.000000
63.446213 40.528755 4.406892 3.000000
102.053024 15.506953 4.669342 14.000000
44.940010 -12.243628 1.057003 6.000000
9.167705 -7.421212 -0.028821 27.000000
23.588537 35.746735 2.649493 8.000000
63.243645 40.710896 4.442184 5.000000
101.798691 15.813853 4.660078 10.000000
9.190928 -7.384415 -0.037039 29.000000
82.857437 -21.922823 1.915067 1.000000
9.190544 -7.328839 -0.045136 25.000000
61.582840 40.314034 4.463181 7.000000
82.745140 -21.584339 1.895786 1.000000
9.193793 -7.276465 -0.053206 26.000000
20.371723 31.610723 2.431900 9.000000
83.986298 -21.579641 1.892114 3.000000
9.228241 -7.248879 -0.059396 25.000000
21.504442 33.625561 2.623092 10.000000
61.037052 40.552921 4.520554 10.000000
82.911781 -20.979906 1.851227 27.000000
9.227119 -7.193468 -0.065345 26.000000
21.425251 33.773823 2.663570 8.000000
60.837452 40.757889 4.555818 14.000000
9.221760 -7.135101 -0.071226 20.000000
21.218281 33.707104 2.687365 10.000000
86.529198 15.366459 4.129087 14.000000
44.229092 -10.847338 0.961875 9.000000
9.263669 -7.113403 -0.079503 24.000000
21.066925 33.740330 2.718712 9.000000
86.697647 15.724372 4.155260 18.000000
44.224651 -10.674562 0.968866 8.000000
9.248659 -7.050693 -0.083222 30.000000
20.963526 33.837074 2.755495 8.000000
60.448704 41.421093 4.713028 17.000000
86.732025 16.059174 4.175130 16.000000
44.200577 -10.497458 0.951623 3.000000
9.258441 -7.004645 -0.091184 25.000000
19.913460 32.406872 2.673092 9.000000
29.293264 20.230715 2.308403 1.000000
43.881779 -10.260063 0.936114 6.000000
9.287997 -6.973626 -0.099332 27.000000
22.232826 36.480457 3.047323 11.000000
29.135353 20.279778 2.332912 8.000000
85.846237 16.531380 4.214544 9.000000
83.419167 -19.182171 1.792985 33.000000
9.289397 -6.921581 -0.105141 28.000000
22.021391 36.418995 3.073080 10.000000
60.760757 42.608391 4.929121 14.000000
83.523651 -18.884150 1.763827 33.000000
9.274471 -6.857739 -0.108713 88.000000
19.770571 32.968891 2.809547 17.000000
60.716141 42.909927 4.977329 15.000000
36.389378 -8.087323 0.761320 161.000000
17.276770 -12.677127 -0.220670 29.000000
20.869953 35.079235 3.026136 10.000000
60.505535 43.078560 5.037472 17.000000
36.433292 -7.957066 0.768135 255.000000
17.278593 -12.581298 -0.227565 28.000000
21.089523 35.745815 3.113371 10.000000
60.644276 43.513168 5.114618 17.000000
36.408710 -7.811998 0.754004 252.000000
17.316418 -12.511981 -0.234916 32.000000
18.912752 32.313484 2.854661 8.000000
60.412033 43.682831 5.173867 6.000000
36.392948 -7.669197 0.759584 254.000000
17.374249 -12.457095 -0.246274 35.000000
19.418528 33.458328 2.983450 9.000000
60.236835 43.877159 5.211157 15.000000
36.385361 -7.535046 0.752384 255.000000
17.387091 -12.370070 -0.256987 27.000000
60.173180 44.169266 5.271990 6.000000
36.339119 -7.386673 0.757338 116.000000
17.391317 -12.277318 -0.271246 28.000000
19.580996 34.301311 3.122336 10.000000
60.083084 44.426693 5.343189 14.000000
33.250778 7.408060 1.731671 23.000000
84.135460 -16.781384 1.722201 39.000000
17.440218 -12.216309 -0.278743 31.000000
19.299894 34.084682 3.137744 16.000000
60.056042 44.748089 5.421030 15.000000
33.228691 7.524982 1.749764 66.000000
84.235352 -16.480520 1.737985 35.000000
17.484753 -12.152219 -0.289892 32.000000
19.761175 35.199604 3.276239 9.000000
59.988167 45.024021 5.481698 1.000000
33.224625 7.652187 1.762947 22.000000
84.270935 -16.167019 1.722502 34.000000
17.475584 -12.051098 -0.296417 28.000000
19.658323 35.304535 3.322196 10.000000
59.775166 45.207603 5.543093 12.000000
84.417160 -15.874503 1.769284 34.000000
9.849073 -6.738753 -0.170804 1.000000
19.849497 35.957302 3.427278 9.000000
59.786049 45.561253 5.651896 16.000000
85.651207 20.373405 4.675665 7.000000
9.913896 -6.732419 -0.171520 1.000000
85.771057 20.401913 4.805664 20.000000
9.856089 -6.693162 -0.162201 7.000000
19.678965 35.356121 3.383615 10.000000
59.861202 45.272671 5.709147 13.000000
86.009712 20.125891 4.830334 4.000000
84.380783 -15.913411 1.933628 34.000000
9.839876 -6.734982 -0.149850 1.000000
19.843721 35.346638 3.361149 10.000000
59.972492 45.012257 5.677663 23.000000
33.238838 7.655461 1.865192 9.000000
84.306160 -16.219547 1.978243 51.000000
17.494566 -12.068693 -0.248544 27.000000
19.298307 34.095753 3.214165 13.000000
60.015682 44.718018 5.627528 12.000000
33.281601 7.536964 1.860055 11.000000
84.211464 -16.521633 1.992414 61.000000
17.454458 -12.135683 -0.233761 32.000000
19.532961 34.217167 3.204648 10.000000
60.064491 44.412945 5.590581 12.000000
33.298939 7.412690 1.865465 9.000000
84.139511 -16.828007 2.037111 35.000000
17.430494 -12.214033 -0.215462 29.000000
60.248863 44.224823 5.567105 9.000000
33.379208 7.302259 1.874431 1.000000
36.364101 -7.398360 0.900446 191.000000
17.381617 -12.275016 -0.204270 29.000000
19.389523 33.408352 3.080742 9.000000
60.517689 44.081738 5.537560 4.000000
36.384212 -7.548054 0.908144 255.000000
17.377136 -12.376697 -0.186181 33.000000
60.397987 43.672676 5.486465 15.000000
36.409470 -7.692591 0.935468 255.000000
17.340164 -12.437241 -0.171327 26.000000
21.051519 35.681400 3.238676 10.000000
60.455399 43.377644 5.424977 17.000000
86.521614 17.949265 4.816549 2.000000
36.417809 -7.820599 0.942848 255.000000
17.310762 -12.512495 -0.156576 35.000000
20.914642 35.168320 3.169974 10.000000
60.533501 43.098473 5.404736 11.000000
36.437241 -7.964591 0.963643 253.000000
17.264872 -12.575918 -0.141664 25.000000
19.783354 32.990208 2.946393 10.000000
60.698864 42.897717 5.353935 20.000000
36.375538 -8.104237 0.969372 102.000000
17.246969 -12.659893 -0.123226 31.000000
60.670139 42.544842 5.298612 12.000000
86.011818 16.874847 4.747038 17.000000
83.543571 -18.903980 2.242972 35.000000
9.281608 -6.865521 -0.058434 29.000000
22.200916 36.428101 3.200144 11.000000
29.140938 20.283665 2.526361 9.000000
85.714378 16.490473 4.742534 5.000000
83.453087 -19.205305 2.287287 27.000000
9.281665 -6.915820 -0.052526 27.000000
19.944042 32.469349 2.825035 9.000000
87.170448 16.455269 4.804362 1.000000
83.663620 -19.576916 2.325023 3.000000
9.272281 -6.961825 -0.042498 21.000000
20.975260 33.869213 2.918547 9.000000
60.632004 41.562244 5.153184 14.000000
87.118080 16.114929 4.782680 5.000000
44.040688 -10.491972 1.232965 7.000000
9.254698 -7.001813 -0.034433 28.000000
21.054823 33.734051 2.885306 10.000000
44.278198 -10.720203 1.264577 8.000000
9.260798 -7.059947 -0.028454 32.000000
21.214184 33.713646 2.855250 10.000000
44.251682 -10.869255 1.280761 10.000000
9.238837 -7.096898 -0.020333 29.000000
21.381144 33.717300 2.826845 9.000000
60.839577 40.743927 5.030322 20.000000
9.216729 -7.133781 -0.010171 24.000000
21.565004 33.733227 2.799676 10.000000
60.995571 40.525360 4.979541 7.000000
84.240898 -21.331871 2.472869 13.000000
9.226007 -7.195190 -0.002042 25.000000
20.400539 31.667578 2.607707 9.000000
83.947479 -21.585287 2.527124 1.000000
9.211369 -7.238225 0.004089 28.000000
61.616707 40.305485 4.954937 19.000000
84.014458 -21.962437 2.546943 8.000000
9.186149 -7.278242 0.016364 31.000000
25.947517 39.651966 3.197304 2.000000
9.201041 -7.339838 0.022597 26.000000
25.995310 39.408989 3.143989 9.000000
63.179562 40.685242 4.964857 8.000000
45.064201 -12.133945 1.393262 2.000000
9.185756 -7.382897 0.030853 27.000000
26.072865 39.227962 3.112018 14.000000
63.593876 40.623077 4.972453 6.000000
102.088936 15.457726 5.519666 6.000000
45.066162 -12.294896 1.427217 4.000000
9.162500 -7.419646 0.039097 29.000000
21.449804 32.017151 2.512416 9.000000
63.841465 40.452530 4.940442 12.000000
101.721085 15.020862 5.478766 1.000000
9.155901 -7.467371 0.045366 24.000000
63.821163 40.128136 4.861936 22.000000
101.744179 14.661560 5.459229 1.000000
9.143896 -7.513554 0.053705 23.000000
9.123967 -7.553369 0.062020 18.000000
23.300053 33.977959 2.577611 7.000000
81.456726 -23.495876 2.679057 1.000000
9.123055 -7.609139 0.072570 99.000000
23.396107 33.889271 2.554801 10.000000
65.193008 40.012962 4.825930 17.000000
82.059418 -23.995852 2.746564 5.000000
9.102719 -7.648923 0.080932 89.000000
22.384417 32.147057 2.382176 9.000000
65.575829 39.917770 4.803049 17.000000
9.087156 -7.698293 0.089383 33.000000
27.227846 38.798859 2.849255 14.000000
9.103374 -7.764031 0.098148 21.000000
39.945358 -12.151560 1.363196 8.000000
9.086192 -7.807085 0.104544 19.000000
66.536682 39.522297 4.746905 9.000000
37.737030 -11.645485 1.317020 8.000000
9.071195 -7.854945 0.115190 21.000000
66.750877 39.334969 4.684498 1.000000
84.041588 9.664491 4.403850 11.000000
37.774521 -11.794390 1.319686 8.000000
