VERSION .7
FIELDS x y z intensity
SIZE 4 4 4 4
TYPE F F F F
COUNT 1 1 1 1
WIDTH 1237
HEIGHT 1
VIEWPOINT 0 0 0 1 0 0 0
POINTS 1237
DATA ascii
5.714289 0.254488 -0.587064 1.000000
7.120027 -7.137445 -0.821770 166.000000
15.846806 19.141888 -1.406746 6.000000
5.680293 0.232116 -0.584483 1.000000
7.280183 -7.351688 -0.834271 17.000000
15.861428 19.023972 -1.428164 6.000000
5.661261 0.209568 -0.582437 1.000000
7.232731 -7.357512 -0.822856 26.000000
16.061613 19.134701 -1.462341 6.000000
5.612280 0.187159 -0.577324 1.000000
7.211185 -7.386995 -0.810642 24.000000
16.204428 19.161779 -1.504102 7.000000
5.612929 0.166588 -0.577324 1.000000
7.014872 -2.877008 -0.760786 1.000000
7.000593 -7.224051 -0.782874 53.000000
16.328650 19.158981 -1.535251 7.000000
5.658149 0.147176 -0.582914 3.000000
7.023019 -7.300547 -0.777697 34.000000
16.469385 19.194811 -1.560213 7.000000
5.594030 0.124016 -0.576255 1.000000
6.948430 -2.909441 -0.747906 1.000000
7.048329 -7.380811 -0.774532 29.000000
16.577791 19.171705 -1.590142 6.000000
5.649148 0.104524 -0.581889 1.000000
6.944076 -7.322646 -0.757023 28.000000
16.695869 19.179340 -1.622093 7.000000
5.659236 0.083963 -0.584890 2.000000
6.907475 -7.337729 -0.745349 25.000000
16.909676 19.281790 -1.662956 7.000000
5.719184 0.063887 -0.591057 1.000000
6.885109 -2.972322 -0.732669 3.000000
6.928643 -7.414477 -0.741656 27.000000
16.949295 19.191414 -1.687182 6.000000
5.724360 0.041963 -0.591571 3.000000
6.942945 -3.027527 -0.735996 1.000000
6.920205 -7.457462 -0.732825 36.000000
17.111389 19.232418 -1.718853 7.000000
5.892387 2.651853 -0.606252 1.000000
5.644893 0.022660 -0.583348 2.000000
6.920288 -7.512589 -0.726786 7.000000
17.227140 19.226950 -1.750884 7.000000
5.689700 0.000000 -0.587973 2.000000
17.259708 19.135239 -1.770328 7.000000
5.704486 -0.018917 -0.590511 3.000000
16.845238 18.538658 -1.751585 7.000000
5.704481 -0.039825 -0.589515 3.000000
7.202332 -3.242902 -0.757779 1.000000
16.713734 18.265423 -1.748641 7.000000
5.719227 -0.059894 -0.591057 3.000000
6.865121 -7.667440 -0.692597 34.000000
16.647490 18.059677 -1.760625 7.000000
5.689131 -0.080434 -0.587973 3.000000
6.808959 -7.658339 -0.678844 33.000000
16.658222 17.938936 -1.776269 9.000000
5.678818 -0.103090 -0.586945 4.000000
6.655777 -7.541533 -0.657508 90.000000
16.695406 17.853586 -1.803601 9.000000
5.703078 -0.123446 -0.591506 4.000000
6.664634 -7.607590 -0.652270 107.000000
16.817545 17.852589 -1.835541 10.000000
5.672962 -0.143598 -0.586431 5.000000
6.802158 -7.819474 -0.659315 45.000000
16.981283 17.894539 -1.867891 13.000000
5.687048 -0.166801 -0.589959 5.000000
17.093946 17.887794 -1.899464 9.000000
5.731201 -0.187119 -0.594601 5.000000
17.195118 17.849657 -1.933190 10.000000
5.705620 -0.210213 -0.591026 6.000000
17.170225 17.705929 -1.936773 7.000000
5.734708 -0.230330 -0.594115 6.000000
17.136057 17.541586 -1.951494 7.000000
5.738794 -0.251565 -0.594629 8.000000
6.092904 -3.036483 -0.611157 9.000000
6.720296 -8.011776 -0.612109 255.000000
17.062689 17.344942 -1.966149 7.000000
5.762520 -0.274778 -0.598211 8.000000
6.064566 -3.048833 -0.608184 34.000000
6.671995 -8.013663 -0.603076 127.000000
16.949785 17.104319 -1.962824 7.000000
5.776480 -0.298689 -0.597739 10.000000
6.048308 -3.071137 -0.601819 25.000000
6.498135 -7.860480 -0.577337 30.000000
16.996819 17.026508 -1.986394 7.000000
5.760559 -0.317023 -0.596197 10.000000
6.011584 -3.077607 -0.597989 23.000000
6.463327 -7.876989 -0.566102 30.000000
16.680225 16.593115 -1.967421 7.000000
5.774031 -0.341018 -0.598748 13.000000
5.990702 -3.097330 -0.592399 10.000000
6.428417 -7.893262 -0.556664 25.000000
16.470278 16.264595 -1.955956 6.000000
5.782733 -0.361792 -0.599778 9.000000
5.971838 -3.112717 -0.587997 7.000000
6.445079 -7.970381 -0.551541 36.000000
16.464027 16.139662 -1.976547 6.000000
5.806285 -0.384635 -0.601336 9.000000
6.350551 -7.912622 -0.535275 26.000000
16.279070 15.841763 -1.967329 6.000000
5.834605 -0.407995 -0.604420 8.000000
6.298343 -7.903934 -0.522584 30.000000
16.021656 15.482746 -1.945349 7.000000
5.922382 -0.436991 -0.612635 8.000000
6.300644 -7.966558 -0.514530 32.000000
15.994149 15.343198 -1.958557 17.000000
6.313220 -8.039982 -0.507114 22.000000
16.088457 15.320829 -1.986665 14.000000
6.474365 -8.307711 -0.511444 44.000000
16.146854 15.263983 -2.006501 8.000000
10.832678 3.816913 -1.219332 1.000000
6.130805 -7.923756 -0.477723 149.000000
10.808226 3.763823 -1.223099 1.000000
8.454684 -0.714418 -0.876820 3.000000
6.138476 -7.994038 -0.471786 10.000000
10.722625 3.690003 -1.217879 1.000000
8.486405 -0.749927 -0.881905 3.000000
6.128949 -8.039573 -0.464367 130.000000
10.726260 3.647339 -1.220766 1.000000
8.488552 -0.781482 -0.882420 1.000000
6.123889 -8.094296 -0.453802 72.000000
10.735068 3.604409 -1.224184 6.000000
8.456079 -0.809759 -0.877848 1.000000
6.194878 -8.247805 -0.450370 90.000000
10.705135 3.550752 -1.225253 1.000000
22.251532 -2.213154 -2.306873 102.000000
6.140956 -8.238725 -0.439658 190.000000
10.736566 3.517549 -1.231357 1.000000
22.239124 -2.290344 -2.302459 107.000000
6.029227 -8.148033 -0.423059 251.000000
10.730060 3.471920 -1.233126 4.000000
22.176178 -2.366035 -2.296824 11.000000
5.972970 -8.134188 -0.410615 6.000000
10.722748 3.426190 -1.240776 1.000000
22.063084 -2.443583 -2.282193 7.000000
6.074280 -8.332973 -0.408761 100.000000
10.706973 3.375896 -1.241408 7.000000
22.247543 -2.542654 -2.298228 7.000000
6.093726 -8.424342 -0.401240 33.000000
10.742583 3.343885 -1.248084 5.000000
10.702099 3.288307 -1.245928 2.000000
19.922527 -2.425004 -2.059829 5.000000
10.765340 3.264604 -1.261828 1.000000
19.755066 -2.485137 -2.040018 6.000000
10.725430 3.207584 -1.255697 1.000000
19.830132 -2.564927 -2.048682 6.000000
10.735164 3.171750 -1.263513 1.000000
19.415947 -2.583743 -2.010311 7.000000
10.742616 3.127119 -1.266857 1.000000
19.431335 -2.658307 -2.009441 15.000000
6.204184 -8.973358 -0.352369 22.000000
10.748805 3.086231 -1.270199 8.000000
6.133440 -8.937571 -0.338758 19.000000
10.707140 3.029815 -1.271760 1.000000
15.575930 -2.250076 -1.612445 1.000000
5.912353 -8.683453 -0.319126 9.000000
10.736883 2.995772 -1.277922 4.000000
15.218513 -2.255417 -1.573576 1.000000
6.501991 -4.142225 -0.564786 1.000000
5.745068 -8.501402 -0.300942 33.000000
4.274598 3.496227 -0.601864 1.000000
10.665512 2.933766 -1.275964 35.000000
14.905520 -2.264893 -1.539402 5.000000
6.474507 -4.158156 -0.558318 1.000000
5.675050 -8.464499 -0.289997 64.000000
4.263822 3.461409 -0.603407 5.000000
10.743383 2.910860 -1.287871 1.000000
14.734927 -2.294256 -1.522642 1.000000
6.485400 -4.197199 -0.555096 1.000000
5.631790 -8.463699 -0.278640 20.000000
4.279854 3.448477 -0.609709 3.000000
10.733915 2.866107 -1.293329 4.000000
14.534701 -2.320277 -1.500266 2.000000
6.436719 -4.199247 -0.549546 2.000000
5.583114 -8.454388 -0.265303 22.000000
4.245480 3.395192 -0.607837 5.000000
10.739108 2.825367 -1.296627 7.000000
14.172390 -2.315738 -1.466267 4.000000
6.438272 -4.233982 -0.545594 3.000000
5.560432 -8.487528 -0.256841 25.000000
4.269069 3.388478 -0.615212 1.000000
10.772548 2.791989 -1.307296 4.000000
13.958001 -2.333264 -1.442466 2.000000
5.506393 -8.469390 -0.245124 27.000000
10.807027 2.756685 -1.312159 5.000000
13.724056 -2.345896 -1.416713 1.000000
9.881357 -6.560187 -0.833545 10.000000
5.532323 -8.577908 -0.238764 52.000000
10.811796 2.715736 -1.315466 6.000000
13.445449 -2.351443 -1.388875 1.000000
9.828471 -6.577104 -0.826963 23.000000
5.842005 -9.127867 -0.242148 23.000000
10.854972 2.684324 -1.323471 1.000000
13.201931 -2.358755 -1.362239 1.000000
9.805011 -6.613564 -0.814578 22.000000
5.874581 -9.249721 -0.231441 29.000000
10.911614 2.657947 -1.337189 1.000000
13.017624 -2.370398 -1.346358 1.000000
9.754377 -6.626579 -0.808057 12.000000
5.883951 -9.332715 -0.225323 8.000000
10.988880 2.630084 -1.353354 1.000000
12.665725 -2.361175 -1.306430 6.000000
9.741557 -6.672680 -0.802900 9.000000
5.739571 -9.181666 -0.207908 10.000000
11.070700 2.606804 -1.364258 1.000000
12.525261 -2.382525 -1.290586 1.000000
9.766757 -6.742667 -0.798685 7.000000
5.726061 -9.231592 -0.195308 16.000000
11.113550 2.571895 -1.376390 1.000000
12.237868 -2.374368 -1.264060 1.000000
9.734130 -6.772958 -0.791805 7.000000
5.608449 -9.116404 -0.183092 4.000000
11.209080 2.550755 -1.395197 1.000000
12.111966 -2.396037 -1.251954 1.000000
9.815670 -6.883224 -0.796281 1.000000
5.579278 -9.140326 -0.173832 8.000000
11.304420 2.533053 -1.408063 1.000000
12.035045 -2.424505 -1.247035 1.000000
17.524323 -12.375795 -1.409912 7.000000
5.221514 -8.614956 -0.154735 2.000000
11.569994 2.545945 -1.448308 1.000000
11.962942 -2.455639 -1.238335 1.000000
17.531994 -12.486992 -1.403232 6.000000
12.175214 -20.254950 -0.338245 20.000000
11.797291 2.550664 -1.477718 1.000000
11.856897 -2.479195 -1.224018 1.000000
17.473072 -12.537189 -1.383164 7.000000
12.068789 -20.237549 -0.308456 34.000000
11.965737 2.541213 -1.506310 1.000000
11.769880 -2.506060 -1.215975 1.000000
17.471874 -12.633591 -1.379168 7.000000
12.092399 -20.438988 -0.290154 35.000000
4.335191 3.132393 -0.668079 1.000000
12.216999 2.545589 -1.547755 1.000000
11.788716 -2.557427 -1.225308 1.000000
17.446196 -12.712659 -1.369462 7.000000
12.030154 -20.504902 -0.273862 33.000000
12.726412 2.603100 -1.615676 1.000000
11.735962 -2.591057 -1.216565 1.000000
17.400059 -12.776939 -1.358159 7.000000
11.870619 -20.395767 -0.247134 40.000000
12.836066 2.576550 -1.644632 1.000000
11.715640 -2.631640 -1.226037 1.000000
17.381668 -12.852371 -1.360043 6.000000
11.743387 -20.348345 -0.229633 15.000000
12.678463 2.544914 -1.640490 1.000000
11.689025 -2.627805 -1.242318 1.000000
17.341780 -12.827558 -1.387336 8.000000
11.758256 -20.374107 -0.254560 12.000000
12.468976 2.550443 -1.621354 1.000000
11.731719 -2.592268 -1.254316 1.000000
17.375034 -12.753897 -1.416469 6.000000
11.849225 -20.367184 -0.287894 26.000000
4.223547 3.064084 -0.663806 1.000000
12.221173 2.548684 -1.590393 1.000000
11.779158 -2.557506 -1.266885 1.000000
17.373886 -12.659968 -1.435375 8.000000
11.960499 -20.394333 -0.321883 71.000000
4.244603 3.103168 -0.666102 1.000000
12.041940 2.557397 -1.568278 1.000000
11.729883 -2.499684 -1.266893 1.000000
17.475538 -12.636241 -1.462623 7.000000
12.039040 -20.365017 -0.350990 26.000000
4.289395 3.160104 -0.672110 1.000000
11.935263 2.580495 -1.557772 1.000000
11.835429 -2.476862 -1.285840 1.000000
17.532639 -12.579928 -1.486236 8.000000
12.103099 -20.303137 -0.383697 36.000000
4.373665 3.246986 -0.684277 1.000000
11.566830 2.547366 -1.510950 1.000000
11.965515 -2.458344 -1.305454 1.000000
17.486000 -12.454234 -1.497413 6.000000
5.157320 -8.583223 -0.174786 7.000000
4.224171 3.157785 -0.658783 1.000000
11.524950 2.578244 -1.502399 1.000000
11.988169 -2.417239 -1.315586 1.000000
9.781078 -6.917703 -0.846139 1.000000
5.254450 -8.676128 -0.191217 8.000000
4.217310 3.192999 -0.654180 1.000000
11.272707 2.569374 -1.470849 1.000000
12.045489 -2.382886 -1.323077 1.000000
9.709918 -6.809065 -0.852174 1.000000
5.472104 -8.964745 -0.210835 3.000000
4.249341 3.241822 -0.657199 1.000000
11.133450 2.578548 -1.451817 1.000000
12.243779 -2.375515 -1.350498 1.000000
9.708578 -6.757694 -0.858283 9.000000
4.351903 3.345371 -0.671063 1.000000
11.037019 2.598873 -1.440475 1.000000
12.545346 -2.384077 -1.387252 6.000000
9.705578 -6.707937 -0.868467 17.000000
6.015368 -9.698016 -0.256984 18.000000
4.186945 3.243048 -0.643703 1.000000
11.108523 2.664870 -1.447200 1.000000
12.773662 -2.378990 -1.413819 5.000000
9.711232 -6.654400 -0.876905 23.000000
6.017218 -9.625823 -0.269502 31.000000
10.897200 2.652421 -1.420807 1.000000
12.854090 -2.349892 -1.428774 1.000000
9.728487 -6.618922 -0.886803 9.000000
6.037281 -9.583329 -0.282747 24.000000
10.834916 2.679364 -1.409999 1.000000
13.243732 -2.370994 -1.475861 1.000000
5.901758 -9.296097 -0.286417 34.000000
10.852939 2.732112 -1.409852 1.000000
13.473093 -2.353854 -1.507557 3.000000
5.493703 -8.583661 -0.279325 29.000000
10.804877 2.762163 -1.400960 1.000000
13.731207 -2.347118 -1.537926 4.000000
5.485546 -8.505379 -0.288006 23.000000
10.742595 2.784226 -1.396042 1.000000
13.938798 -2.335056 -1.570289 1.000000
5.493190 -8.452310 -0.300943 34.000000
10.761083 2.833157 -1.395902 1.000000
14.270657 -2.336910 -1.609254 2.000000
5.653906 -8.633496 -0.318913 36.000000
10.755654 2.873923 -1.394581 1.000000
14.608014 -2.334595 -1.648888 4.000000
5.583457 -8.458117 -0.323812 20.000000
10.687044 2.901603 -1.383258 1.000000
14.758570 -2.303214 -1.667557 4.000000
5.701255 -8.571339 -0.343295 9.000000
10.704988 2.950655 -1.383100 1.000000
14.952708 -2.277404 -1.696557 4.000000
5.736500 -8.559382 -0.354419 26.000000
10.704701 2.988806 -1.384336 1.000000
15.441709 -2.294004 -1.759351 5.000000
5.787130 -8.566865 -0.370057 34.000000
10.674516 3.024608 -1.377992 1.000000
15.533690 -2.246742 -1.771610 1.000000
6.109163 -8.975875 -0.400029 23.000000
10.668589 3.065215 -1.374733 1.000000
19.546198 -2.753997 -2.231557 7.000000
6.193905 -9.032437 -0.414996 31.000000
10.666185 3.110929 -1.372084 5.000000
19.413031 -2.662706 -2.218688 8.000000
6.221037 -9.001091 -0.426076 34.000000
10.641991 3.142202 -1.366373 1.000000
19.584785 -2.613168 -2.240701 8.000000
6.323488 -9.081386 -0.444460 61.000000
10.662240 3.196797 -1.368708 1.000000
19.435856 -2.517378 -2.232934 7.000000
6.308929 -8.993370 -0.454671 32.000000
10.647287 3.230834 -1.364213 1.000000
19.350914 -2.434296 -2.225583 7.000000
5.816711 -8.227408 -0.427592 21.000000
10.606342 3.262937 -1.360562 1.000000
19.270561 -2.352472 -2.218767 8.000000
6.439110 -9.040643 -0.486549 11.000000
10.680054 3.328511 -1.367610 1.000000
19.200136 -2.269088 -2.213058 7.000000
6.493623 -9.050159 -0.499965 8.000000
10.644798 3.360377 -1.358732 1.000000
19.212105 -2.199134 -2.223752 8.000000
5.932330 -8.204232 -0.465055 46.000000
10.665956 3.410095 -1.359052 1.000000
19.086351 -2.113897 -2.211681 8.000000
5.942997 -8.158854 -0.474249 8.000000
10.624677 3.441919 -1.353489 1.000000
19.054075 -2.039657 -2.210449 9.000000
6.118768 -8.338841 -0.500424 10.000000
10.607722 3.479437 -1.348990 1.000000
19.091413 -1.969538 -2.213886 9.000000
6.009429 -8.127208 -0.499652 6.000000
10.656589 3.538779 -1.352868 1.000000
19.009151 -1.890664 -2.206907 9.000000
10.714172 3.603636 -1.355921 1.000000
19.192785 -1.837913 -2.237660 8.000000
6.135903 -8.054524 -0.543058 42.000000
6.230377 -8.119585 -0.563239 21.000000
14.750446 13.968323 -2.020521 5.000000
5.734016 -0.439195 -0.672513 9.000000
6.304110 -8.156565 -0.578156 34.000000
14.534060 13.874496 -1.973706 2.000000
6.413333 -8.235323 -0.596367 33.000000
14.678883 14.106080 -1.988952 6.000000
5.647720 -0.391956 -0.663047 10.000000
6.497356 -8.289364 -0.610977 25.000000
14.824169 14.345565 -1.993604 6.000000
5.609604 -0.366690 -0.658394 16.000000
5.834994 -3.068639 -0.653391 24.000000
6.492974 -8.215633 -0.620296 29.000000
14.883213 14.508713 -1.990377 6.000000
5.581056 -0.344285 -0.655880 23.000000
5.873336 -3.058768 -0.660973 32.000000
6.496269 -8.161080 -0.630675 33.000000
15.080026 14.808756 -2.001608 6.000000
5.562506 -0.321706 -0.653550 20.000000
5.905239 -3.050532 -0.666936 10.000000
6.457029 -8.051047 -0.634844 36.000000
15.005404 14.843901 -1.984045 6.000000
5.558347 -0.301029 -0.655883 25.000000
5.934632 -3.035598 -0.674750 5.000000
6.418821 -7.946415 -0.639095 38.000000
15.184223 15.126031 -1.992018 7.000000
5.554682 -0.280416 -0.653356 26.000000
6.466375 -7.945533 -0.651697 34.000000
15.199948 15.253098 -1.986239 7.000000
5.535558 -0.260082 -0.652957 24.000000
6.414487 -7.825819 -0.656124 33.000000
15.099872 15.264159 -1.957786 9.000000
5.531399 -0.239572 -0.653338 24.000000
6.287020 -7.613220 -0.650610 63.000000
15.027570 15.302848 -1.936800 10.000000
5.517355 -0.218706 -0.651581 27.000000
6.123140 -3.022256 -0.708054 1.000000
6.329674 -7.616011 -0.661225 156.000000
15.052746 15.441289 -1.924562 6.000000
5.513192 -0.197342 -0.650995 29.000000
6.066609 -2.966751 -0.706212 1.000000
6.234721 -7.440795 -0.660094 14.000000
15.384440 15.892154 -1.954596 6.000000
5.508863 -0.175048 -0.651371 24.000000
15.468771 16.096907 -1.953160 6.000000
5.494296 -0.156349 -0.651529 24.000000
15.555250 16.306105 -1.951797 6.000000
5.499867 -0.133453 -0.652117 21.000000
6.451683 -7.535289 -0.705848 255.000000
15.626632 16.495840 -1.940001 6.000000
5.490617 -0.113095 -0.649023 28.000000
6.472339 -7.503570 -0.713786 90.000000
15.768827 16.768620 -1.940993 6.000000
5.480806 -0.094711 -0.649763 24.000000
7.200354 -3.392835 -0.850644 1.000000
6.424072 -7.392655 -0.715780 77.000000
15.817214 16.944090 -1.934210 6.000000
5.481130 -0.073666 -0.649763 31.000000
7.119322 -3.306190 -0.845805 1.000000
6.495229 -7.422054 -0.732933 39.000000
15.871303 17.127451 -1.927970 6.000000
5.481363 -0.053576 -0.649763 25.000000
7.020177 -3.211124 -0.837268 1.000000
6.666955 -7.562177 -0.759794 18.000000
16.031218 17.409410 -1.933239 7.000000
5.481523 -0.033485 -0.649763 28.000000
6.911922 -7.790561 -0.794060 28.000000
16.016340 17.533983 -1.914884 7.000000
5.486463 -0.012448 -0.651309 31.000000
7.108246 -3.194572 -0.856237 1.000000
6.876112 -7.687812 -0.797259 10.000000
16.136713 17.777599 -1.910640 9.000000
5.481850 0.003827 -0.647850 29.000000
16.062994 17.839762 -1.889295 13.000000
5.471633 0.025785 -0.648586 29.000000
6.689526 -7.377520 -0.789021 8.000000
15.952102 17.835188 -1.853786 13.000000
5.471502 0.045839 -0.648586 30.000000
6.763019 -7.403855 -0.805051 27.000000
15.838058 17.832565 -1.822631 24.000000
5.461356 0.066726 -0.647409 29.000000
6.779508 -7.367496 -0.812588 28.000000
15.739882 17.840836 -1.805602 19.000000
5.466040 0.086822 -0.647997 27.000000
6.932061 -2.959635 -0.848123 4.000000
6.770731 -7.306607 -0.818975 23.000000
15.620530 17.849472 -1.766810 10.000000
5.465910 0.106860 -0.646089 25.000000
6.878518 -2.907014 -0.842903 4.000000
6.881980 -7.372277 -0.838019 30.000000
15.578957 17.927858 -1.744167 8.000000
5.470424 0.127962 -0.646676 28.000000
7.014159 -7.458879 -0.861577 37.000000
15.588840 18.059845 -1.731039 7.000000
5.459817 0.145831 -0.647409 28.000000
7.057584 -7.457970 -0.873053 255.000000
15.627489 18.232904 -1.717110 7.000000
5.459358 0.165845 -0.646456 29.000000
6.973546 -2.855795 -0.863907 1.000000
7.293142 -7.645184 -0.909535 255.000000
15.700684 18.454767 -1.707072 8.000000
5.458681 0.186806 -0.646456 30.000000
7.140977 -7.430949 -0.898029 82.000000
16.042797 18.997534 -1.725661 8.000000
5.467883 0.207188 -0.647631 30.000000
7.030328 -2.819050 -0.876396 1.000000
15.967543 19.042871 -1.707273 9.000000
5.462126 0.227021 -0.647043 28.000000
7.032835 -7.214367 -0.897407 32.000000
15.834949 19.025944 -1.674499 9.000000
5.466287 0.248223 -0.646676 31.000000
7.048211 -7.177322 -0.904855 22.000000
15.760198 19.071129 -1.643261 7.000000
5.465341 0.268256 -0.646676 29.000000
7.078417 -7.160428 -0.914538 22.000000
15.637331 19.077896 -1.608155 7.000000
5.464332 0.290199 -0.645721 27.000000
7.143832 -7.171315 -0.930114 32.000000
15.546691 19.089321 -1.583418 6.000000
5.468244 0.309552 -0.646307 32.000000
7.127057 -7.102222 -0.935161 30.000000
15.342580 18.993908 -1.540432 7.000000
5.472026 0.331808 -0.645936 31.000000
7.315254 -7.236520 -0.965426 64.000000
15.252265 19.003929 -1.520272 7.000000
5.470896 0.349952 -0.645936 28.000000
7.408604 -7.275333 -0.983362 39.000000
15.108868 18.967257 -1.487407 7.000000
5.469512 0.370956 -0.645936 30.000000
7.390453 -7.207006 -0.988516 181.000000
14.984859 18.946911 -1.452079 7.000000
5.468228 0.391008 -0.644979 26.000000
14.956309 19.053934 -1.430614 7.000000
5.471822 0.411428 -0.644606 29.000000
8.024857 -2.917637 -1.024235 1.000000
14.783229 18.969393 -1.395112 7.000000
5.475152 0.432827 -0.645189 30.000000
7.946400 -2.856181 -1.015869 1.000000
14.650352 18.941671 -1.363956 7.000000
5.468916 0.452510 -0.641733 30.000000
8.028304 -2.847703 -1.026314 1.000000
14.496835 18.878994 -1.330785 7.000000
5.482064 0.473834 -0.643475 26.000000
7.995211 -2.806151 -1.023889 8.000000
14.385874 18.877323 -1.306166 6.000000
5.485038 0.495317 -0.645017 31.000000
7.949285 -2.754241 -1.024033 9.000000
7.054367 -6.585213 -0.980246 8.000000
14.317834 18.924702 -1.276899 7.000000
5.478353 0.514963 -0.643475 33.000000
7.893250 -2.702464 -1.018487 1.000000
7.070655 -6.552084 -0.985965 10.000000
14.183346 18.890442 -1.242130 6.000000
5.491592 0.536520 -0.642328 39.000000
8.076406 -2.733712 -1.042393 1.000000
7.061042 -6.495235 -0.989760 15.000000
14.082278 18.892826 -1.214304 7.000000
5.504314 0.559108 -0.644063 33.000000
8.109559 -2.711847 -1.048412 1.000000
7.078230 -6.467845 -0.997614 10.000000
13.942735 18.842525 -1.183325 10.000000
5.512219 0.580330 -0.644252 27.000000
7.112291 -6.451293 -1.007546 15.000000
13.868513 18.886600 -1.154195 9.000000
5.524978 0.602156 -0.645013 23.000000
7.151004 -6.436533 -1.019709 10.000000
13.741427 18.851112 -1.124601 9.000000
5.522738 0.623379 -0.644043 29.000000
7.177588 -6.412997 -1.028636 13.000000
13.655475 18.878170 -1.094692 9.000000
5.530394 0.644780 -0.644223 20.000000
7.237562 -6.419034 -1.042392 10.000000
13.520131 18.829119 -1.068831 9.000000
5.542900 0.666839 -0.644972 23.000000
7.261991 -6.397802 -1.049685 12.000000
13.417380 18.824369 -1.037596 9.000000
5.550396 0.687404 -0.646120 33.000000
7.322253 -6.403379 -1.061867 14.000000
13.325841 18.841671 -1.011636 9.000000
4.587987 2.780773 -0.464652 1.000000
5.567412 0.712214 -0.647436 20.000000
7.376947 -6.399131 -1.078140 11.000000
13.201134 18.790283 -0.982552 8.000000
5.609455 0.736507 -0.651605 11.000000
11.550329 -3.485050 -1.519841 1.000000
7.438822 -6.409699 -1.092744 15.000000
13.138133 18.854103 -0.955118 6.000000
5.641289 0.761730 -0.654616 9.000000
11.506061 -3.423547 -1.516532 1.000000
7.472865 -6.391458 -1.102985 10.000000
12.972903 18.763226 -0.924172 5.000000
5.677635 0.790867 -0.657185 9.000000
11.518023 -3.381203 -1.520722 1.000000
7.550915 -6.405908 -1.117701 13.000000
5.719297 0.818051 -0.659285 8.000000
11.568456 -3.350002 -1.525750 1.000000
7.588795 -6.390358 -1.128603 15.000000
11.513435 -3.286207 -1.525311 1.000000
7.628390 -6.380586 -1.138372 10.000000
5.871537 0.876459 -0.676389 7.000000
11.534950 -3.246673 -1.526575 1.000000
7.704461 -6.396367 -1.155071 19.000000
20.304192 30.272860 -1.311132 7.000000
11.546257 -3.204231 -1.530758 1.000000
7.744629 -6.377372 -1.166118 15.000000
20.224192 30.382301 -1.268160 9.000000
11.543609 -3.155808 -1.533035 1.000000
7.792966 -6.371657 -1.178944 16.000000
20.050081 30.361404 -1.226065 9.000000
19.361506 3.049244 -2.215830 2.000000
11.535426 -3.108178 -1.534664 1.000000
7.864798 -6.384713 -1.191810 10.000000
20.064926 30.592451 -1.194489 9.000000
19.443777 3.135276 -2.223064 5.000000
11.532377 -3.059909 -1.536917 5.000000
7.914396 -6.376996 -1.204769 10.000000
19.866209 30.521261 -1.138095 8.000000
19.324129 3.192159 -2.207308 7.000000
11.461437 -2.996164 -1.530193 178.000000
7.956280 -6.362791 -1.216603 10.000000
19.806589 30.698500 -1.097054 1.000000
19.362053 3.271370 -2.206053 7.000000
11.505956 -2.962791 -1.534677 255.000000
8.017594 -6.363785 -1.231465 10.000000
21.424566 33.462044 -1.158429 10.000000
11.521012 -2.919544 -1.543615 244.000000
21.233532 33.420002 -1.092155 10.000000
14.841949 2.619707 -1.682535 5.000000
11.517202 -2.873696 -1.541683 255.000000
21.077660 33.418995 -1.062228 10.000000
14.206395 2.563814 -1.606489 2.000000
11.531950 -2.832519 -1.546472 237.000000
5.253698 -4.051738 -0.819329 8.000000
21.014683 33.578335 -1.009607 10.000000
11.552381 -2.790547 -1.547764 237.000000
5.228769 -4.002036 -0.816648 8.000000
20.966450 33.762768 -0.971301 10.000000
11.556917 -2.746852 -1.553338 235.000000
5.211225 -3.958403 -0.817436 9.000000
32.814156 53.255302 -1.452299 6.000000
11.552425 -2.701090 -1.551393 9.000000
5.197511 -3.918028 -0.817642 9.000000
32.708141 53.521500 -1.390561 18.000000
12.987894 2.543416 -1.461112 1.000000
11.639489 -2.674352 -1.565935 1.000000
5.191403 -3.883665 -0.820184 9.000000
19.347900 31.909460 -0.775163 7.000000
11.624768 -2.626151 -1.564765 1.000000
5.157466 -3.828876 -0.816017 8.000000
21.605005 35.914158 -0.826702 132.000000
12.546412 2.552597 -1.402205 1.000000
11.673484 -2.590087 -1.569972 1.000000
5.147593 -3.790974 -0.817816 9.000000
21.587614 36.170486 -0.779381 8.000000
12.123755 2.512916 -1.351615 1.000000
11.730257 -2.557610 -1.584863 1.000000
5.120953 -3.742483 -0.815899 9.000000
21.912596 37.007935 -0.735702 4.000000
12.105425 2.555427 -1.344052 1.000000
11.768905 -2.520886 -1.586689 1.000000
5.126028 -3.717447 -0.820150 9.000000
11.763404 -2.472506 -1.588924 1.000000
5.119147 -3.683902 -0.820241 9.000000
11.737858 2.565706 -1.298881 1.000000
11.834949 -2.442285 -1.601660 1.000000
5.132148 -3.664781 -0.824644 9.000000
11.408971 2.537666 -1.255254 1.000000
11.927105 -2.413593 -1.610705 1.000000
5.102062 -3.629869 -0.819902 11.000000
47.560978 82.978973 -1.168556 1.000000
11.274156 2.551081 -1.235320 1.000000
11.974766 -2.377584 -1.615953 1.000000
5.119030 -3.613755 -0.823832 9.000000
47.155571 82.941391 -1.049122 1.000000
11.235626 2.587753 -1.228107 1.000000
12.133945 -2.362996 -1.638450 1.000000
5.095230 -3.569044 -0.822309 9.000000
46.655224 82.732147 -0.911777 1.000000
11.173645 2.616640 -1.214270 1.000000
12.376634 -2.360969 -1.669984 1.000000
5.099782 -3.544441 -0.824251 10.000000
46.520481 83.204491 -0.815263 1.000000
11.091832 2.640401 -1.202399 1.000000
12.585257 -2.352993 -1.694685 4.000000
5.096438 -3.513172 -0.827022 9.000000
46.118786 83.166260 -0.663918 1.000000
10.986427 2.657896 -1.182048 7.000000
12.789231 -2.340342 -1.720928 5.000000
5.088708 -3.480399 -0.824787 10.000000
46.070400 83.044823 -0.613285 1.000000
10.992457 2.659355 -1.170725 1.000000
12.703220 -2.324602 -1.695596 4.000000
5.111444 -3.510372 -0.821853 9.000000
46.562359 83.245285 -0.682555 1.000000
11.090080 2.637939 -1.176013 1.000000
12.650962 -2.369848 -1.678506 4.000000
5.119747 -3.543759 -0.817531 10.000000
46.781124 82.955399 -0.764627 1.000000
11.177360 2.615453 -1.182219 3.000000
12.355989 -2.361501 -1.631577 1.000000
5.131823 -3.580009 -0.814884 10.000000
47.183235 82.956345 -0.882831 1.000000
11.264017 2.592222 -1.194449 1.000000
12.148534 -2.368038 -1.598728 1.000000
5.143469 -3.616232 -0.814369 10.000000
47.551704 82.929237 -0.967734 1.000000
11.380610 2.573081 -1.205756 1.000000
12.071533 -2.401177 -1.587613 1.000000
5.151105 -3.649886 -0.810970 10.000000
11.472708 2.549741 -1.212443 1.000000
11.991675 -2.426659 -1.569477 1.000000
5.158449 -3.683563 -0.808624 9.000000
11.607893 2.535175 -1.229931 1.000000
11.875681 -2.450690 -1.553365 1.000000
5.158159 -3.728400 -0.802902 9.000000
12.107806 2.597899 -1.286251 1.000000
11.847999 -2.490287 -1.544485 1.000000
5.185012 -3.776819 -0.804682 9.000000
21.866507 36.915401 -0.614094 9.000000
12.044912 2.536066 -1.276354 1.000000
11.751136 -2.519225 -1.528900 1.000000
5.203810 -3.819782 -0.802901 9.000000
12.287458 2.540138 -1.305488 1.000000
11.684634 -2.547662 -1.517154 1.000000
5.202305 -3.848098 -0.799106 9.000000
21.627974 35.938133 -0.695525 93.000000
12.657579 2.568312 -1.341524 1.000000
11.655718 -2.590414 -1.508385 1.000000
5.244542 -3.909161 -0.800836 10.000000
19.367924 31.917351 -0.664705 6.000000
12.895681 2.567450 -1.370392 1.000000
11.636980 -2.631045 -1.502968 5.000000
5.250579 -3.943680 -0.798144 9.000000
32.645691 53.377426 -1.168615 21.000000
13.198066 2.575008 -1.403837 1.000000
11.638161 -2.674047 -1.497965 8.000000
5.264239 -3.984202 -0.797758 8.000000
32.815411 53.236542 -1.233545 18.000000
11.603686 -2.715211 -1.490694 10.000000
5.285680 -4.030984 -0.797355 9.000000
20.945593 33.702927 -0.831205 9.000000
11.550721 -2.747509 -1.480964 31.000000
5.303024 -4.075039 -0.795116 8.000000
21.033527 33.582378 -0.864633 10.000000
11.545661 -2.793189 -1.475363 25.000000
5.347493 -4.140471 -0.798069 8.000000
21.118113 33.457245 -0.904757 10.000000
14.173528 2.547666 -1.513572 1.000000
11.541654 -2.832766 -1.471831 32.000000
21.264143 33.416615 -0.954177 10.000000
14.872110 2.622354 -1.589900 3.000000
11.507617 -2.869171 -1.464619 31.000000
8.131849 -6.353297 -1.208607 14.000000
21.428675 33.417065 -0.997916 7.000000
11.505612 -2.919916 -1.461701 18.000000
8.117140 -6.389853 -1.200755 23.000000
33.345196 51.603050 -1.598112 22.000000
113.707069 75.146965 -9.841491 10.000000
11.519848 -2.968512 -1.456452 15.000000
8.010703 -6.358315 -1.177923 17.000000
33.429195 51.319431 -1.678690 15.000000
113.995743 74.795792 -9.940640 10.000000
20.895222 3.444196 -2.237022 95.000000
11.490488 -3.001616 -1.456094 8.000000
7.959328 -6.360674 -1.164456 13.000000
20.075527 30.585331 -1.034703 9.000000
20.858227 3.359619 -2.235457 8.000000
11.508641 -3.053611 -1.451433 7.000000
7.925140 -6.381091 -1.153874 14.000000
29.619667 44.818386 -1.585036 26.000000
20.776693 3.268405 -2.229132 7.000000
11.497372 -3.095772 -1.451433 9.000000
7.852162 -6.369909 -1.139491 15.000000
29.776228 44.664452 -1.640071 152.000000
20.743532 3.185323 -2.231715 7.000000
11.510864 -3.144697 -1.446127 6.000000
7.794902 -6.370971 -1.125666 12.000000
20.303242 30.225803 -1.150649 4.000000
20.651966 3.090142 -2.224257 7.000000
11.527890 -3.196967 -1.445561 1.000000
7.753223 -6.384449 -1.112371 9.000000
20.781614 3.031710 -2.233301 7.000000
11.516581 -3.239334 -1.441385 7.000000
7.688439 -6.378532 -1.097599 12.000000
5.890388 0.813168 -0.634421 3.000000
11.514661 -3.284384 -1.438402 4.000000
7.635231 -6.381780 -1.084547 11.000000
24.042698 35.008514 -1.475642 1.000000
5.809588 0.779293 -0.626427 7.000000
11.492908 -3.325951 -1.433033 1.000000
7.589695 -6.391116 -1.072638 18.000000
24.059795 34.733803 -1.512424 1.000000
5.767928 0.752194 -0.622660 7.000000
11.529240 -3.382310 -1.430591 8.000000
7.541650 -6.395785 -1.058522 24.000000
24.179817 34.648067 -1.564044 9.000000
5.716286 0.724162 -0.617812 8.000000
11.506531 -3.425873 -1.425218 7.000000
7.480917 -6.391565 -1.046331 19.000000
4.654745 2.791327 -0.435736 1.000000
5.709048 0.700983 -0.617749 9.000000
11.500337 -3.465587 -1.421615 1.000000
7.450592 -6.413046 -1.036695 11.000000
5.706535 0.679453 -0.618219 10.000000
11.511399 -3.517191 -1.418251 5.000000
7.393905 -6.411581 -1.023436 15.000000
13.496364 18.921204 -0.929409 1.000000
5.699004 0.657381 -0.618150 9.000000
11.527366 -3.568316 -1.417549 4.000000
7.352297 -6.422863 -1.012317 14.000000
13.530055 18.822130 -0.951287 6.000000
5.701267 0.636477 -0.619151 9.000000
11.538375 -3.618119 -1.416245 1.000000
7.348168 -6.466894 -1.004645 11.000000
13.709351 18.931768 -0.983760 6.000000
5.669071 0.610853 -0.615396 8.000000
11.567464 -3.676083 -1.417243 1.000000
7.321347 -6.491062 -0.995596 10.000000
13.807121 18.927349 -1.010608 9.000000
5.666435 0.589568 -0.613865 8.000000
11.597167 -3.732376 -1.416083 19.000000
7.338965 -6.554881 -0.992577 7.000000
13.875551 18.875462 -1.043319 9.000000
5.648452 0.566778 -0.614695 8.000000
7.352388 -6.615475 -0.990691 10.000000
14.015777 18.913607 -1.068979 8.000000
5.670391 0.547994 -0.615854 8.000000
9.118433 -8.262291 -1.217351 21.000000
14.137595 18.946327 -1.094145 6.000000
5.637621 0.524971 -0.612092 8.000000
9.077844 -8.286305 -1.205149 27.000000
14.226838 18.927721 -1.124924 7.000000
5.609656 0.499662 -0.611816 8.000000
9.077488 -8.347178 -1.198291 1.000000
14.319519 18.906349 -1.151659 6.000000
5.660870 0.483317 -0.618208 7.000000
7.919217 -2.711354 -0.956659 2.000000
14.502818 19.010124 -1.186157 7.000000
5.578462 0.454712 -0.609013 8.000000
8.078689 -2.799076 -0.972621 1.000000
14.525981 18.896460 -1.207401 6.000000
5.575242 0.433886 -0.607496 8.000000
8.096330 -2.840054 -0.973017 1.000000
14.685707 18.966852 -1.244550 7.000000
5.551692 0.411588 -0.607711 8.000000
8.020792 -2.846615 -0.960673 1.000000
14.837375 19.018326 -1.272595 7.000000
5.528514 0.390470 -0.603064 8.000000
14.909009 18.973213 -1.298391 7.000000
5.520013 0.367607 -0.602948 8.000000
15.036480 18.991735 -1.328864 6.000000
5.506231 0.346423 -0.603248 9.000000
15.173541 19.027990 -1.356402 7.000000
5.492360 0.327268 -0.602578 9.000000
15.336081 19.087877 -1.390391 7.000000
5.493892 0.304271 -0.600657 9.000000
15.407970 19.040846 -1.416608 6.000000
5.470047 0.282844 -0.598900 9.000000
7.175147 -7.095444 -0.888171 8.000000
15.546098 19.068193 -1.448724 6.000000
5.480976 0.263270 -0.599987 8.000000
7.206212 -7.178595 -0.884534 24.000000
15.605259 19.004913 -1.473888 7.000000
5.471931 0.243694 -0.598900 9.000000
7.134681 -7.159629 -0.870083 29.000000
15.750166 19.038681 -1.506944 6.000000
5.477649 0.223836 -0.600401 9.000000
7.124195 -7.199192 -0.862960 255.000000
15.943113 19.135519 -1.549549 7.000000
5.473256 0.203565 -0.601768 9.000000
7.199646 -7.328971 -0.864512 169.000000
16.009058 19.072090 -1.570969 7.000000
5.474207 0.182555 -0.599856 10.000000
7.089269 -2.878654 -0.817702 1.000000
7.197610 -7.380818 -0.858450 1.000000
16.129406 19.079821 -1.598125 7.000000
5.474839 0.162489 -0.599856 9.000000
7.088266 -2.908555 -0.814753 1.000000
16.311178 19.152020 -1.640032 7.000000
5.470116 0.142285 -0.602177 23.000000
6.930715 -2.873631 -0.796525 1.000000
7.073212 -7.357862 -0.830144 249.000000
16.386824 19.098587 -1.662644 7.000000
5.475821 0.120439 -0.600812 10.000000
7.044477 -2.951103 -0.805445 1.000000
7.030456 -7.372393 -0.817855 46.000000
16.497713 19.092564 -1.698087 7.000000
5.475998 0.101320 -0.602724 9.000000
6.968752 -7.356379 -0.804611 30.000000
16.631908 19.105865 -1.731329 7.000000
5.481302 0.081323 -0.603271 9.000000
6.867447 -2.937718 -0.779794 1.000000
6.888958 -7.323178 -0.787750 16.000000
16.835602 19.204084 -1.767937 7.000000
5.481774 0.061235 -0.601358 9.000000
6.907226 -2.984731 -0.781565 1.000000
6.913572 -7.403530 -0.784769 30.000000
16.723253 18.935469 -1.770992 7.000000
5.486938 0.040222 -0.601903 9.000000
6.873822 -3.000242 -0.775056 1.000000
6.886945 -7.429418 -0.774161 36.000000
16.340343 18.372253 -1.753829 7.000000
5.496778 0.020147 -0.604912 9.000000
6.881685 -7.475916 -0.767580 38.000000
16.226835 18.110525 -1.755840 7.000000
5.476935 0.000000 -0.602724 9.000000
7.029678 -7.693085 -0.776253 8.000000
16.179308 17.950033 -1.766126 8.000000
6.310665 2.789916 -0.697213 1.000000
5.501650 -0.018244 -0.606419 8.000000
16.200161 17.841242 -1.786626 9.000000
6.225767 2.722559 -0.690215 1.000000
5.491705 -0.039298 -0.604365 9.000000
6.980344 -3.167894 -0.778639 1.000000
6.988782 -7.759105 -0.757691 11.000000
16.321846 17.849661 -1.814388 10.000000
6.194289 2.681792 -0.689201 1.000000
5.521342 -0.059749 -0.607647 9.000000
6.920221 -7.734412 -0.743931 35.000000
16.436529 17.843313 -1.845404 15.000000
5.531025 -0.080129 -0.608741 9.000000
6.922149 -7.793863 -0.736233 24.000000
16.574598 17.855131 -1.883134 12.000000
5.535663 -0.100491 -0.609288 8.000000
6.604914 -7.489169 -0.698262 68.000000
16.670254 17.839167 -1.904418 10.000000
5.545174 -0.121964 -0.610381 8.000000
6.577977 -7.513962 -0.686062 134.000000
16.767694 17.799669 -1.933138 9.000000
5.574500 -0.143053 -0.613663 8.000000
6.512903 -7.492238 -0.671554 49.000000
16.756981 17.676701 -1.951159 7.000000
5.573724 -0.163477 -0.615609 9.000000
16.619799 17.391626 -1.952396 7.000000
5.597890 -0.185701 -0.618353 8.000000
7.028226 -3.400604 -0.764175 1.000000
16.478102 17.117300 -1.953414 7.000000
5.597280 -0.206221 -0.617375 8.000000
7.173499 -3.477077 -0.781639 1.000000
16.474630 17.000500 -1.967109 7.000000
5.641258 -0.226576 -0.622306 8.000000
16.198605 16.599327 -1.947602 6.000000
5.670050 -0.251526 -0.625592 8.000000
6.177466 -3.081317 -0.662281 1.000000
6.456067 -7.702227 -0.632300 255.000000
16.093506 16.371155 -1.955986 6.000000
5.669294 -0.270332 -0.624602 8.000000
6.041855 -3.041380 -0.646550 1.000000
6.638869 -7.979539 -0.642152 92.000000
16.087757 16.234432 -1.967442 6.000000
5.683053 -0.293858 -0.626243 8.000000
6.017654 -3.056893 -0.641589 7.000000
6.587758 -7.977395 -0.629157 31.000000
15.928477 15.961874 -1.960963 6.000000
5.686900 -0.314960 -0.626790 9.000000
5.967037 -3.058746 -0.631479 29.000000
6.471675 -7.892779 -0.609971 28.000000
15.662168 15.591255 -1.945122 6.000000
5.695580 -0.335387 -0.628879 9.000000
5.938295 -3.071548 -0.627270 26.000000
6.468175 -7.947745 -0.605203 32.000000
15.622104 15.437789 -1.956286 9.000000
5.724073 -0.358122 -0.632166 9.000000
5.923414 -3.090107 -0.623305 22.000000
6.440918 -7.970924 -0.590895 30.000000
15.602702 15.305991 -1.966045 20.000000
5.722832 -0.379107 -0.631165 9.000000
5.898673 -3.106071 -0.617258 21.000000
6.449395 -8.041528 -0.587152 40.000000
15.640035 15.235847 -1.990930 14.000000
5.765954 -0.404206 -0.636087 8.000000
5.887889 -3.126693 -0.616094 9.000000
6.275506 -7.880919 -0.563239 37.000000
15.670919 15.143807 -2.010120 7.000000
5.774458 -0.426076 -0.636171 8.000000
6.432678 -8.139339 -0.569122 39.000000
15.534636 14.902387 -2.004566 6.000000
5.832163 -0.453880 -0.642724 8.000000
6.290554 -8.016876 -0.548317 27.000000
15.391697 14.667563 -1.998551 6.000000
5.954271 -0.484299 -0.657418 6.000000
6.387259 -8.201842 -0.548446 33.000000
15.351146 14.527011 -2.005297 6.000000
6.172574 -7.983497 -0.523571 66.000000
6.225734 -8.113534 -0.518072 33.000000
20.673740 -1.826899 -2.287630 5.000000
6.100808 -8.008455 -0.501191 126.000000
10.804302 3.671773 -1.300139 1.000000
20.687559 -1.908202 -2.278944 6.000000
10.656303 3.580032 -1.286781 1.000000
20.526268 -1.969223 -2.269240 8.000000
10.656017 3.532396 -1.288994 1.000000
20.499525 -2.042511 -2.263457 8.000000
10.647934 3.490569 -1.294535 3.000000
20.601059 -2.128912 -2.271856 7.000000
5.954054 -8.052320 -0.458260 13.000000
10.665166 3.452979 -1.297066 1.000000
20.572964 -2.205879 -2.269675 7.000000
5.960289 -8.122861 -0.448694 9.000000
10.654259 3.404306 -1.298097 4.000000
20.589836 -2.284052 -2.268786 7.000000
5.952713 -8.172193 -0.441428 26.000000
10.646853 3.358983 -1.303585 5.000000
20.714254 -2.374741 -2.287122 8.000000
6.171731 -8.538455 -0.448934 34.000000
10.625251 3.309397 -1.305353 1.000000
20.291552 -2.405255 -2.230626 7.000000
6.392622 -8.909393 -0.455758 94.000000
10.641621 3.271757 -1.309822 3.000000
20.025663 -2.448200 -2.205932 5.000000
6.468994 -9.082601 -0.451763 31.000000
10.643723 3.227724 -1.316419 5.000000
20.051458 -2.525977 -2.206209 5.000000
5.879378 -8.319127 -0.403810 18.000000
10.636014 3.182865 -1.317943 1.000000
20.274582 -2.626012 -2.228143 7.000000
6.367020 -9.076179 -0.427848 23.000000
10.666213 3.149354 -1.324183 1.000000
20.573872 -2.748796 -2.265895 7.000000
6.439577 -9.251549 -0.423178 39.000000
10.672250 3.108656 -1.329413 8.000000
20.495701 -2.807562 -2.258299 7.000000
6.168955 -8.929066 -0.394162 25.000000
10.668899 3.063288 -1.335381 1.000000
20.578791 -2.895823 -2.268608 7.000000
6.157722 -8.979672 -0.385931 23.000000
10.693934 3.028095 -1.341052 4.000000
15.707567 -2.271891 -1.729750 5.000000
5.959149 -8.758753 -0.364388 36.000000
4.254965 3.508770 -0.621540 1.000000
10.675824 2.980744 -1.341328 11.000000
15.384757 -2.282799 -1.692364 4.000000
5.819683 -8.618297 -0.346795 33.000000
10.643215 2.927633 -1.343628 55.000000
15.012927 -2.283894 -1.649690 2.000000
5.821600 -8.689639 -0.339667 28.000000
10.710903 2.904067 -1.354752 1.000000
14.817136 -2.312354 -1.631788 4.000000
5.738883 -8.631176 -0.323921 33.000000
10.739966 2.869731 -1.362996 1.000000
14.583053 -2.330606 -1.604330 4.000000
5.554728 -8.417792 -0.306373 38.000000
4.245888 3.397950 -0.634027 1.000000
10.740354 2.827699 -1.365656 1.000000
14.240563 -2.329430 -1.570129 3.000000
5.622556 -8.588894 -0.301089 54.000000
10.765080 2.790054 -1.371369 1.000000
14.006681 -2.343915 -1.542771 2.000000
5.481073 -8.436889 -0.284543 32.000000
10.783921 2.752796 -1.380363 1.000000
13.747708 -2.354878 -1.515231 1.000000
5.481514 -8.502384 -0.277270 30.000000
10.827154 2.721602 -1.388568 1.000000
13.401396 -2.346149 -1.475597 1.000000
5.498965 -8.598492 -0.267267 19.000000
10.865478 2.686921 -1.400085 1.000000
13.275520 -2.374294 -1.460304 1.000000
9.786126 -6.605797 -0.883627 16.000000
6.047547 -9.529409 -0.285689 22.000000
10.917682 2.657407 -1.413516 1.000000
12.919124 -2.361781 -1.422087 2.000000
9.729123 -6.619355 -0.876534 25.000000
6.038375 -9.588777 -0.274961 27.000000
10.999956 2.634765 -1.420902 1.000000
12.773797 -2.383629 -1.404748 6.000000
9.705298 -6.655313 -0.868319 10.000000
6.021901 -9.640800 -0.261923 19.000000
4.292165 3.259112 -0.663632 1.000000
11.042824 2.600240 -1.433185 1.000000
12.584055 -2.395985 -1.387100 6.000000
9.689664 -6.696939 -0.858776 8.000000
6.014663 -9.704441 -0.253111 14.000000
4.291636 3.233980 -0.667426 1.000000
11.196270 2.593097 -1.460009 1.000000
12.199905 -2.369212 -1.341316 1.000000
9.707399 -6.759389 -0.858283 6.000000
5.462424 -8.882516 -0.218429 4.000000
4.263167 3.188096 -0.666838 1.000000
11.113068 2.530947 -1.454005 1.000000
12.078337 -2.393766 -1.331125 1.000000
9.735995 -6.832422 -0.856759 1.000000
5.518432 -9.047742 -0.212741 10.000000
11.306126 2.529291 -1.482093 1.000000
12.006138 -2.425224 -1.324139 1.000000
9.784666 -6.920241 -0.854858 1.000000
5.215152 -8.618028 -0.193414 7.000000
4.311413 3.187949 -0.680234 1.000000
11.454767 2.518494 -1.508680 1.000000
11.929228 -2.455229 -1.314490 1.000000
17.541286 -12.502843 -1.525190 7.000000
5.159423 -8.593514 -0.180209 6.000000
4.262513 3.127692 -0.676332 1.000000
11.933755 2.575809 -1.576951 1.000000
11.880790 -2.492849 -1.310197 1.000000
17.495775 -12.567360 -1.517670 8.000000
12.110193 -20.339243 -0.404923 33.000000
4.441942 3.234372 -0.706815 1.000000
12.020190 2.548393 -1.591488 1.000000
11.852350 -2.532270 -1.305936 1.000000
17.458744 -12.638023 -1.499565 7.000000
12.036788 -20.377443 -0.380054 24.000000
12.159142 2.531319 -1.619668 1.000000
11.751143 -2.551423 -1.299956 1.000000
17.468931 -12.743235 -1.500650 8.000000
11.928826 -20.348463 -0.362302 33.000000
12.463959 2.544884 -1.667991 1.000000
11.731332 -2.594330 -1.300978 1.000000
17.389008 -12.778170 -1.482470 6.000000
11.860836 -20.411722 -0.337888 25.000000
11.721744 -2.637310 -1.300978 1.000000
17.346273 -12.844939 -1.479045 7.000000
11.759724 -20.401318 -0.312370 28.000000
11.719060 -2.636706 -1.326139 1.000000
17.373993 -12.870162 -1.519519 8.000000
11.693772 -2.586024 -1.330660 1.000000
17.401880 -12.796985 -1.533197 7.000000
4.844124 -8.333073 -0.154783 1.000000
12.284816 2.557482 -1.678746 1.000000
11.725878 -2.552368 -1.339704 1.000000
17.406637 -12.702448 -1.559746 7.000000
11.904680 -20.315399 -0.406895 28.000000
12.028107 2.550071 -1.644933 1.000000
11.788565 -2.516491 -1.354222 1.000000
17.457766 -12.637315 -1.586439 7.000000
12.065230 -20.417454 -0.442946 30.000000
11.964661 2.584666 -1.639776 1.000000
11.791287 -2.476218 -1.359973 1.000000
17.453684 -12.546364 -1.604912 7.000000
12.105401 -20.323126 -0.474855 23.000000
11.520035 2.532844 -1.575910 1.000000
11.950660 -2.463989 -1.381617 1.000000
17.494576 -12.478760 -1.619542 7.000000
5.148814 -8.575845 -0.211275 8.000000
11.466699 2.567314 -1.569950 1.000000
12.061581 -2.438614 -1.399874 1.000000
9.774523 -6.918187 -0.915125 1.000000
5.212204 -8.613155 -0.226704 1.000000
11.230098 2.557600 -1.538830 1.000000
12.054859 -2.391299 -1.406759 1.000000
9.691770 -6.808963 -0.917624 9.000000
5.260287 -8.624501 -0.241598 1.000000
4.309253 3.288718 -0.693462 1.000000
11.196767 2.593212 -1.533513 1.000000
12.277846 -2.388796 -1.433961 1.000000
9.683287 -6.750130 -0.924836 15.000000
5.988214 -9.737510 -0.285367 15.000000
4.277894 3.289667 -0.686522 8.000000
11.143313 2.625955 -1.527561 1.000000
12.412639 -2.367837 -1.455384 1.000000
6.120220 -4.206311 -0.593594 5.000000
6.008785 -9.694957 -0.300670 10.000000
4.257286 3.301099 -0.680559 197.000000
10.960612 2.625341 -1.499821 1.000000
12.601694 -2.351514 -1.485501 6.000000
6.169574 -4.203866 -0.603296 5.000000
6.037066 -9.665079 -0.316318 21.000000
4.262331 3.327702 -0.679291 119.000000
10.936511 2.664012 -1.493913 1.000000
12.848961 -2.351272 -1.515983 5.000000
6.078575 -9.656351 -0.328683 25.000000
4.266075 3.355865 -0.677995 38.000000
10.873749 2.690981 -1.486677 1.000000
13.121222 -2.351425 -1.549437 1.000000
5.801471 -9.145185 -0.325214 34.000000
4.268582 3.385663 -0.675719 35.000000
10.805655 2.718203 -1.478783 1.000000
13.480867 -2.364913 -1.600557 1.000000
5.592404 -8.744599 -0.324389 123.000000
4.280873 3.418599 -0.676544 15.000000
10.834539 2.767732 -1.480143 1.000000
13.660886 -2.342460 -1.623302 2.000000
5.522513 -8.569262 -0.331066 30.000000
4.295839 3.456413 -0.676022 8.000000
10.848811 2.813776 -1.479511 1.000000
13.894387 -2.330109 -1.652516 2.000000
5.522261 -8.503536 -0.339899 33.000000
4.321971 3.503612 -0.679194 6.000000
10.742060 2.830153 -1.466424 26.000000
14.117589 -2.314374 -1.685636 3.000000
5.609104 -8.571609 -0.357720 37.000000
4.313402 3.522942 -0.674940 5.000000
10.698586 2.860674 -1.457978 255.000000
14.473504 -2.318280 -1.732294 1.000000
5.662249 -8.583991 -0.371679 42.000000
10.683736 2.898702 -1.453461 255.000000
14.746305 -2.303936 -1.771797 6.000000
5.691922 -8.563789 -0.384243 32.000000
4.315026 3.577318 -0.670347 1.000000
10.667747 2.938387 -1.452810 247.000000
14.911409 -2.273777 -1.793291 4.000000
5.729894 -8.555984 -0.395586 21.000000
4.275569 3.571128 -0.662302 1.000000
10.652617 2.976269 -1.448298 242.000000
15.179611 -2.257775 -1.827255 1.000000
5.767794 -8.547888 -0.410561 56.000000
10.646894 3.016782 -1.445085 249.000000
15.604856 -2.259816 -1.885759 1.000000
6.009553 -8.836154 -0.436670 47.000000
10.635716 3.057780 -1.441222 239.000000
6.991334 -4.363582 -0.745669 1.000000
6.167170 -9.000184 -0.457282 27.000000
10.629439 3.098199 -1.439935 222.000000
18.133574 -2.490439 -2.195556 6.000000
7.044940 -4.361242 -0.755509 1.000000
6.220931 -9.011022 -0.472335 30.000000
10.636966 3.144756 -1.438643 1.000000
18.166039 -2.427094 -2.208130 6.000000
6.924538 -4.251678 -0.748071 1.000000
6.296376 -9.049183 -0.489036 38.000000
10.621098 3.182441 -1.434129 1.000000
18.096077 -2.347059 -2.201746 6.000000
6.948131 -4.231176 -0.754668 1.000000
6.270286 -8.944923 -0.496044 32.000000
10.652546 3.234460 -1.436016 1.000000
18.064777 -2.275706 -2.200132 6.000000
6.994329 -4.220914 -0.765030 1.000000
5.863180 -8.302355 -0.473986 16.000000
10.640766 3.275560 -1.430187 1.000000
17.974072 -2.197386 -2.191296 6.000000
7.110436 -4.258880 -0.780559 1.000000
6.457991 -9.073853 -0.531068 17.000000
10.633423 3.316015 -1.430824 1.000000
17.922848 -2.121309 -2.187238 6.000000
6.448503 -8.993901 -0.541255 10.000000
10.654777 3.365573 -1.431383 1.000000
17.993465 -2.062822 -2.204541 6.000000
6.128592 -8.485011 -0.524734 255.000000
10.604698 3.394591 -1.420470 1.000000
17.808134 -1.975475 -2.184107 6.000000
5.953621 -8.179437 -0.517804 28.000000
10.597375 3.435118 -1.417214 1.000000
17.815678 -1.913382 -2.177852 6.000000
10.660589 3.498839 -1.423394 1.000000
4.457361 4.105938 -0.649795 1.000000
10.659051 3.537531 -1.418772 1.000000
6.686004 -8.989594 -0.610675 42.000000
4.417184 4.098958 -0.640805 1.000000
6.666117 -8.891356 -0.619354 23.000000
4.384375 4.098522 -0.632924 7.000000
6.671175 -8.836892 -0.626791 20.000000
4.300860 4.050092 -0.618837 6.000000
5.750914 -0.485950 -0.710685 10.000000
5.727312 -3.149918 -0.663940 1.000000
4.424295 4.195566 -0.632247 13.000000
5.713085 -0.461671 -0.705796 23.000000
5.707840 -3.112015 -0.664942 9.000000
6.250668 -8.157815 -0.605178 20.000000
5.679981 -0.438048 -0.702513 28.000000
5.718696 -3.090797 -0.670615 10.000000
6.229561 -8.065928 -0.614412 43.000000
5.661825 -0.414785 -0.700065 28.000000
5.755874 -3.083686 -0.678252 28.000000
6.271260 -8.064496 -0.624832 28.000000
13.950747 13.415728 -1.972806 4.000000
5.638433 -0.392300 -0.697992 19.000000
5.771214 -3.064734 -0.682190 28.000000
6.295547 -8.031895 -0.636690 144.000000
14.131138 13.689243 -1.991521 6.000000
5.604930 -0.369331 -0.695663 22.000000
5.794974 -3.050175 -0.690606 18.000000
14.135518 13.794273 -1.981839 6.000000
5.611260 -0.346148 -0.697259 18.000000
5.855242 -3.051944 -0.700984 9.000000
6.283611 -7.899581 -0.652744 34.000000
14.179658 13.929447 -1.976974 6.000000
5.582655 -0.325804 -0.693566 23.000000
5.816423 -3.007224 -0.698606 1.000000
6.357856 -7.941581 -0.668560 32.000000
14.219231 14.076015 -1.972381 6.000000
5.573540 -0.304779 -0.695258 25.000000
