VERSION .7
FIELDS x y z intensity
SIZE 4 4 4 4
TYPE F F F F
COUNT 1 1 1 1
WIDTH 1253
HEIGHT 1
VIEWPOINT 0 0 0 1 0 0 0
POINTS 1253
DATA ascii
9.505678 2.149171 -1.956210 4.000000
8.638041 -1.776278 -1.964768 34.000000
4.979352 -3.605774 -1.231801 13.000000
10.420292 18.365414 -1.369189 8.000000
9.478909 2.181409 -1.948879 4.000000
8.672827 -1.748749 -1.974380 37.000000
4.979718 -3.578290 -1.234206 16.000000
10.347143 18.385725 -1.342121 9.000000
4.378655 3.325990 -0.789425 1.000000
9.543397 2.234869 -1.956771 5.000000
8.645966 -1.708811 -1.966757 25.000000
4.976311 -3.548258 -1.233460 20.000000
10.283917 18.423550 -1.308979 8.000000
4.297016 3.287694 -0.770025 3.000000
9.565886 2.273623 -1.955780 2.000000
8.657254 -1.676528 -1.967846 35.000000
4.975786 -3.521749 -1.235813 21.000000
10.155045 18.342831 -1.275006 9.000000
4.234498 3.264536 -0.756201 222.000000
9.595884 2.319716 -1.960138 3.000000
8.725616 -1.655032 -1.983553 9.000000
4.972091 -3.491852 -1.235021 28.000000
10.100024 18.387077 -1.239001 9.000000
4.231154 3.286753 -0.750121 227.000000
9.641707 2.368230 -1.960453 1.000000
8.784397 -1.632850 -1.995542 8.000000
4.976714 -3.466641 -1.237263 20.000000
10.073901 18.339520 -1.224802 9.000000
4.233850 3.275834 -0.746625 208.000000
9.724694 2.388614 -1.966434 1.000000
8.792212 -1.632715 -1.984148 20.000000
4.972497 -3.475317 -1.229853 23.000000
10.179233 18.371384 -1.247806 9.000000
4.241694 3.257119 -0.747801 208.000000
9.748768 2.354873 -1.965824 1.000000
8.792373 -1.667694 -1.977422 27.000000
4.973147 -3.502973 -1.224341 20.000000
10.257261 18.360733 -1.271610 9.000000
4.272773 3.256159 -0.755952 2.000000
9.723656 2.309329 -1.962580 3.000000
8.776995 -1.699717 -1.972144 28.000000
4.973311 -3.530431 -1.220914 25.000000
10.340000 18.358036 -1.303444 9.000000
9.736833 2.274791 -1.963544 2.000000
8.785787 -1.736446 -1.970686 39.000000
5.001258 -3.577909 -1.224290 10.000000
10.440301 18.385723 -1.330217 8.000000
9.726369 2.232996 -1.959690 3.000000
8.804648 -1.773729 -1.969789 49.000000
4.996933 -3.602576 -1.220867 10.000000
10.540786 18.412701 -1.360848 9.000000
9.738989 2.196562 -1.964139 1.000000
8.778974 -1.803661 -1.963940 23.000000
4.992836 -3.627507 -1.215272 22.000000
10.645505 18.431124 -1.391334 9.000000
9.718236 2.154481 -1.958347 4.000000
8.901760 -1.867783 -1.986488 7.000000
4.977345 -3.660237 -1.206535 35.000000
10.704999 18.400417 -1.417669 9.000000
9.706595 2.112831 -1.957955 5.000000
8.957973 -1.912248 -1.997160 5.000000
4.972627 -3.684925 -1.203051 34.000000
10.801087 18.417372 -1.448074 9.000000
9.690648 2.070420 -1.953120 4.000000
8.932827 -1.941139 -1.988113 7.000000
4.971726 -3.712564 -1.200498 35.000000
10.894993 18.429768 -1.474555 8.000000
9.673125 2.033158 -1.950011 8.000000
8.935526 -1.977686 -1.987044 8.000000
4.974948 -3.743450 -1.196692 38.000000
10.973513 18.415548 -1.506550 8.000000
9.689801 1.997844 -1.955400 5.000000
8.976213 -2.022877 -1.994441 6.000000
4.980931 -3.777993 -1.195956 38.000000
11.098402 18.478148 -1.541298 9.000000
9.654131 1.951875 -1.946675 6.000000
8.955444 -2.054361 -1.984849 4.000000
4.980580 -3.805187 -1.191117 65.000000
11.198794 18.491407 -1.568573 9.000000
9.689754 1.922138 -1.954216 2.000000
9.000887 -2.099541 -1.993237 7.000000
4.978432 -3.833909 -1.188435 37.000000
11.231091 18.399481 -1.590568 9.000000
9.687421 1.879535 -1.955720 7.000000
9.021971 -2.141018 -1.996325 7.000000
5.011749 -3.888913 -1.194050 23.000000
11.186959 18.184143 -1.605294 7.000000
9.000104 -2.172367 -1.989936 4.000000
5.006187 -3.914078 -1.189245 18.000000
11.078561 17.867889 -1.606613 6.000000
5.812740 1.065789 -1.173356 7.000000
9.050072 -2.219561 -1.997665 6.000000
5.023675 -3.957503 -1.189907 14.000000
11.089774 17.747349 -1.621290 9.000000
5.715022 1.025206 -1.154935 7.000000
9.061134 -2.259195 -1.998598 7.000000
5.029364 -3.991945 -1.187757 18.000000
11.182312 17.757212 -1.655227 9.000000
5.651098 0.991357 -1.142280 18.000000
9.066823 -2.300995 -1.996839 7.000000
5.044821 -4.037329 -1.189394 14.000000
11.253978 17.733431 -1.678794 9.000000
5.630136 0.966423 -1.139392 27.000000
9.107106 -2.345086 -2.002354 7.000000
5.047530 -4.067028 -1.187358 10.000000
11.336016 17.725634 -1.711361 9.000000
5.619102 0.942332 -1.137453 29.000000
9.121612 -2.387906 -2.005914 7.000000
5.066488 -4.115955 -1.188631 8.000000
11.416131 17.707579 -1.735857 9.000000
5.588418 0.915139 -1.132577 23.000000
9.124027 -2.422601 -2.001405 7.000000
5.087886 -4.161421 -1.190957 9.000000
11.484851 17.678364 -1.762846 8.000000
4.365895 2.855874 -0.813229 1.000000
5.577016 0.892295 -1.130621 30.000000
9.143669 -2.465440 -2.004321 7.000000
5.084952 -4.190221 -1.186732 9.000000
11.588791 17.702784 -1.799057 9.000000
5.565674 0.868576 -1.128660 26.000000
9.135245 -2.499120 -2.001016 4.000000
5.112169 -4.244204 -1.189524 11.000000
11.542320 17.498201 -1.808148 8.000000
5.539887 0.842775 -1.122766 27.000000
9.149826 -2.540911 -2.002869 8.000000
5.112635 -4.276342 -1.186069 10.000000
11.461484 17.244390 -1.811532 6.000000
4.312100 2.753463 -0.810331 1.000000
5.542745 0.822436 -1.123744 30.000000
9.169266 -2.584273 -2.004072 6.000000
5.146660 -4.336962 -1.191584 9.000000
11.467712 17.123798 -1.828432 6.000000
4.357942 2.753912 -0.820187 7.000000
5.531946 0.793224 -1.121770 31.000000
9.183930 -2.624778 -2.005885 3.000000
5.199250 -4.413967 -1.200133 7.000000
11.322964 16.774351 -1.820462 6.000000
4.379949 2.745406 -0.827055 5.000000
5.505434 0.767860 -1.117807 34.000000
9.170426 -2.659049 -1.998192 4.000000
11.279380 16.584648 -1.828841 6.000000
5.503160 0.746991 -1.117790 26.000000
8.803641 -2.589383 -1.918752 15.000000
7.442027 -6.378589 -1.712405 9.000000
11.226173 16.383142 -1.835399 6.000000
5.496075 0.724548 -1.116785 21.000000
8.673410 -2.585656 -1.885827 14.000000
7.419951 -6.406991 -1.702140 9.000000
11.149081 16.149450 -1.837750 6.000000
5.484038 0.701549 -1.114787 24.000000
8.556275 -2.586551 -1.859249 11.000000
7.362598 -6.400209 -1.685074 8.000000
11.118828 15.985988 -1.847556 6.000000
5.476652 0.680212 -1.113774 25.000000
8.514444 -2.609628 -1.847459 1.000000
7.278720 -6.372038 -1.658789 7.000000
10.939104 15.605264 -1.828315 6.000000
5.474164 0.658569 -1.113747 22.000000
8.533493 -2.649720 -1.850434 1.000000
7.237917 -6.383327 -1.646142 7.000000
10.831266 15.337244 -1.827793 6.000000
5.466724 0.636389 -1.112728 25.000000
8.454118 -2.660707 -1.830585 1.000000
7.180149 -6.383804 -1.630192 7.000000
10.840539 15.237217 -1.836846 6.000000
5.464449 0.614868 -1.110777 24.000000
8.402457 -2.679950 -1.818404 9.000000
7.134702 -6.385884 -1.612640 8.000000
10.842694 15.128175 -1.857776 6.000000
5.461216 0.594242 -1.112664 27.000000
8.221046 -2.655326 -1.776523 14.000000
7.093978 -6.396420 -1.600153 7.000000
10.914593 15.111208 -1.877023 5.000000
5.463264 0.573248 -1.113623 28.000000
8.155519 -2.668786 -1.761443 12.000000
7.036838 -6.396297 -1.581101 8.000000
10.843001 14.902221 -1.878501 1.000000
5.450991 0.550808 -1.109686 25.000000
8.062394 -2.672628 -1.738899 10.000000
7.005685 -6.410536 -1.570355 8.000000
10.720114 14.625744 -1.870743 4.000000
5.452781 0.530807 -1.110642 23.000000
7.993598 -2.682379 -1.718504 17.000000
6.957233 -6.415455 -1.551432 7.000000
10.695464 14.480501 -1.879398 1.000000
5.439963 0.510396 -1.107662 37.000000
7.900303 -2.684867 -1.697618 11.000000
6.904360 -6.409193 -1.535932 8.000000
10.700046 14.381387 -1.893511 3.000000
5.427219 0.486276 -1.105633 30.000000
7.812476 -2.687001 -1.676346 10.000000
6.843708 -6.404229 -1.518072 9.000000
10.551866 14.074219 -1.873671 1.000000
5.434121 0.465869 -1.105675 23.000000
7.710912 -2.685224 -1.649336 9.000000
6.796197 -6.406653 -1.502696 8.000000
10.522573 13.943663 -1.885354 4.000000
5.425292 0.446993 -1.106539 25.000000
7.613460 -2.682616 -1.629117 9.000000
6.743632 -6.399467 -1.487436 8.000000
10.451254 13.739119 -1.884448 2.000000
5.432002 0.424646 -1.107535 30.000000
7.478582 -2.670359 -1.596867 9.000000
6.708491 -6.417498 -1.473725 8.000000
10.397737 13.565295 -1.880915 3.000000
5.428898 0.403437 -1.105589 28.000000
7.372703 -2.663061 -1.572062 9.000000
6.683600 -6.438516 -1.463223 8.000000
10.368875 13.439980 -1.892039 1.000000
5.424808 0.384097 -1.107441 31.000000
7.281441 -2.673279 -1.549934 10.000000
6.624120 -6.423704 -1.446606 8.000000
10.324424 13.276644 -1.895418 2.000000
5.416402 0.363555 -1.105446 29.000000
7.223822 -2.690822 -1.534755 9.000000
6.587475 -6.435185 -1.433865 8.000000
10.319493 13.170403 -1.906342 3.000000
4.772685 2.521677 -0.944998 1.000000
5.422575 0.341159 -1.107392 27.000000
7.146417 -2.704683 -1.515753 9.000000
6.541532 -6.441825 -1.419636 8.000000
10.215010 12.953028 -1.897015 4.000000
4.920460 2.577825 -0.976467 1.000000
5.409060 0.321357 -1.104396 30.000000
7.091386 -2.713611 -1.502049 9.000000
6.500127 -6.443648 -1.405468 9.000000
10.168276 12.797023 -1.899849 4.000000
4.933943 2.561885 -0.979274 1.000000
5.419846 0.301119 -1.107341 29.000000
7.008452 -2.712772 -1.482589 9.000000
6.436654 -6.425430 -1.386838 9.000000
10.103032 12.624186 -1.896577 1.000000
4.965165 2.552844 -0.989458 1.000000
5.420913 0.281252 -1.107341 23.000000
6.944361 -2.717272 -1.467072 8.000000
6.396652 -6.432477 -1.373570 9.000000
10.042750 12.459460 -1.896908 6.000000
5.402186 0.259486 -1.104287 40.000000
6.888966 -2.726144 -1.453541 8.000000
6.353198 -6.435787 -1.359609 8.000000
9.961903 12.266864 -1.889915 6.000000
5.427614 0.239822 -1.109288 26.000000
6.811293 -2.724323 -1.435261 8.000000
6.309793 -6.438850 -1.345709 9.000000
9.884633 12.076661 -1.888551 5.000000
5.251204 2.626169 -1.053236 1.000000
5.398894 0.218730 -1.104230 30.000000
6.728686 -2.721298 -1.416100 8.000000
6.265475 -6.442929 -1.330302 8.000000
9.846332 11.944554 -1.892447 6.000000
5.326440 2.639434 -1.069592 2.000000
5.404590 0.198177 -1.105231 28.000000
6.669151 -2.725704 -1.403053 8.000000
6.229040 -6.452612 -1.317981 9.000000
9.837832 11.845520 -1.901553 6.000000
5.291692 2.596956 -1.064853 4.000000
5.415164 0.175855 -1.107233 21.000000
6.613951 -2.732828 -1.389749 10.000000
6.182337 -6.451388 -1.303537 9.000000
9.822803 11.752110 -1.907789 6.000000
5.330402 2.594055 -1.076249 3.000000
5.415359 0.156940 -1.109124 32.000000
6.545672 -2.732746 -1.373643 10.000000
6.135677 -6.443096 -1.288446 9.000000
9.743718 11.562843 -1.902161 5.000000
5.220441 2.514673 -1.056179 1.000000
5.405911 0.136838 -1.108063 30.000000
6.486039 -2.737143 -1.359501 10.000000
6.090294 -6.447064 -1.274860 9.000000
9.656788 11.386893 -1.894083 4.000000
5.242272 2.501559 -1.062924 1.000000
5.406396 0.116080 -1.108063 24.000000
6.409086 -2.732385 -1.340416 10.000000
6.036911 -6.437657 -1.260756 9.000000
9.633229 11.267111 -1.898981 4.000000
5.411700 0.095406 -1.109066 25.000000
6.340565 -2.731991 -1.324521 10.000000
6.018970 -6.463596 -1.249132 9.000000
9.573265 11.126019 -1.898490 2.000000
5.412000 0.076515 -1.109066 28.000000
6.300581 -2.739570 -1.314330 10.000000
5.964472 -6.447813 -1.235998 9.000000
9.573484 11.044141 -1.908651 3.000000
5.416773 0.054835 -1.111961 33.000000
6.217538 -2.734487 -1.296927 10.000000
5.918227 -6.445048 -1.221959 9.000000
9.535677 10.923252 -1.908945 4.000000
5.422230 0.034069 -1.111074 27.000000
6.154636 -2.733788 -1.279798 10.000000
5.890020 -6.459445 -1.209897 10.000000
9.466306 10.763897 -1.902421 4.000000
5.402341 0.013200 -1.108945 31.000000
6.100161 -2.736404 -1.268129 18.000000
5.840559 -6.452547 -1.195299 9.000000
9.406782 10.628695 -1.898866 5.000000
5.417243 -0.004727 -1.111015 22.000000
6.032438 -2.733897 -1.250237 9.000000
5.804458 -6.460096 -1.183484 9.000000
9.332007 10.466658 -1.893457 5.000000
5.427175 -0.025575 -1.112077 25.000000
6.113309 -2.795021 -1.265267 8.000000
5.766338 -6.462905 -1.169528 9.000000
9.306076 10.360872 -1.895330 5.000000
8.372545 3.739961 -1.721068 1.000000
5.426648 -0.046410 -1.113972 33.000000
6.201080 -2.863988 -1.283231 6.000000
5.718165 -6.460937 -1.155810 9.000000
9.324235 10.308479 -1.906515 4.000000
8.165177 3.611491 -1.680549 1.000000
5.426453 -0.065353 -1.113972 14.000000
6.027329 -2.808029 -1.245591 6.000000
5.677976 -6.451741 -1.142163 9.000000
9.216714 10.114841 -1.896408 5.000000
8.267922 3.619042 -1.705348 1.000000
5.435942 -0.087293 -1.115982 31.000000
5.847807 -2.753016 -1.206096 9.000000
5.655075 -6.473405 -1.133162 9.000000
9.183882 10.008410 -1.894535 5.000000
8.050427 3.488737 -1.662597 1.000000
5.445398 -0.106459 -1.117993 27.000000
5.780239 -2.748369 -1.189705 26.000000
5.612596 -6.472507 -1.120270 10.000000
9.168736 9.918681 -1.898321 5.000000
5.440008 -0.129151 -1.116988 32.000000
5.713070 -2.742150 -1.174508 26.000000
5.568210 -6.466788 -1.105307 9.000000
9.115950 9.789352 -1.894237 5.000000
5.449316 -0.148406 -1.118999 20.000000
5.673109 -2.748598 -1.161529 25.000000
5.522665 -6.461641 -1.091911 10.000000
9.100847 9.704987 -1.903001 5.000000
5.443780 -0.170127 -1.117993 23.000000
5.649444 -2.763967 -1.157713 32.000000
5.481678 -6.459201 -1.077739 10.000000
9.067515 9.605406 -1.898772 5.000000
5.443348 -0.189135 -1.117043 13.000000
5.614866 -2.770164 -1.145726 30.000000
5.442711 -6.461138 -1.065738 13.000000
9.005472 9.463290 -1.894103 5.000000
8.136819 3.347111 -1.694295 1.000000
5.457265 -0.210601 -1.120056 25.000000
5.591208 -2.786455 -1.138665 33.000000
5.401856 -6.458257 -1.051697 10.000000
9.033649 9.426787 -1.907059 4.000000
8.076031 3.285906 -1.683733 1.000000
5.476301 -0.234313 -1.122161 32.000000
5.563598 -2.799415 -1.130731 31.000000
5.371498 -6.472299 -1.040183 10.000000
8.959781 9.281366 -1.902671 5.000000
8.146398 3.279787 -1.700656 1.000000
5.475298 -0.252462 -1.123118 10.000000
5.527505 -2.806690 -1.122126 31.000000
5.338069 -6.475595 -1.028941 10.000000
8.153542 3.246337 -1.704301 1.000000
5.474289 -0.273484 -1.123118 11.000000
5.501343 -2.816391 -1.114249 32.000000
5.319256 -6.498860 -1.020755 9.000000
7.732654 7.896326 -1.653699 1.000000
8.218791 3.237468 -1.723448 1.000000
5.468307 -0.294239 -1.122114 10.000000
5.454876 -2.821503 -1.105009 26.000000
5.258621 -6.473039 -1.003327 10.000000
7.594442 7.703917 -1.630253 1.000000
5.477113 -0.315808 -1.123164 10.000000
5.433251 -2.833194 -1.097006 26.000000
5.224291 -6.476848 -0.990773 9.000000
7.523048 7.570466 -1.619823 4.000000
6.850208 2.606255 -1.443256 1.000000
5.480691 -0.338094 -1.124167 16.000000
5.400565 -2.843782 -1.089404 30.000000
5.183491 -6.479320 -0.977680 9.000000
7.481398 7.476176 -1.620337 1.000000
7.042647 2.649963 -1.485838 1.000000
5.489057 -0.357848 -1.127132 18.000000
5.373386 -2.854675 -1.081643 29.000000
5.163639 -6.496237 -0.970439 9.000000
7.413218 7.353938 -1.607184 1.000000
7.227817 2.699495 -1.526307 1.000000
5.502302 -0.379934 -1.130143 26.000000
5.332676 -2.859356 -1.071293 32.000000
5.149858 -6.527876 -0.960573 9.000000
7.449076 7.335536 -1.624064 1.000000
7.148327 2.628656 -1.512218 3.000000
5.515655 -0.402141 -1.132189 15.000000
5.314155 -2.874552 -1.065332 34.000000
5.112240 -6.526917 -0.950469 9.000000
7.378057 7.215043 -1.614149 1.000000
7.307636 2.678554 -1.545325 1.000000
5.528994 -0.423492 -1.134230 22.000000
5.278298 -2.880212 -1.055925 29.000000
5.151232 -6.624202 -0.950143 9.000000
7.363832 2.678761 -1.561507 3.000000
5.532210 -0.445111 -1.135232 23.000000
5.260226 -2.894225 -1.050004 26.000000
5.197246 -6.734162 -0.955659 8.000000
7.409741 2.664750 -1.573447 1.000000
5.549788 -0.467980 -1.140212 23.000000
5.296250 -2.941805 -1.057364 6.000000
7.654207 2.719521 -1.630503 1.000000
5.567666 -0.491025 -1.143248 27.000000
5.394571 -3.019868 -1.074539 1.000000
7.658692 2.689541 -1.633769 1.000000
5.560951 -0.510980 -1.142246 14.000000
5.242542 -2.960052 -1.042082 5.000000
7.779560 2.698477 -1.660322 1.000000
5.593281 -0.535616 -1.148279 15.000000
5.201439 -2.964443 -1.030888 10.000000
7.862751 2.695088 -1.680486 1.000000
5.601132 -0.558080 -1.149299 14.000000
5.191371 -2.982760 -1.028798 9.000000
7.880932 2.667548 -1.689730 3.000000
5.618239 -0.581580 -1.154286 29.000000
5.171450 -2.998991 -1.022931 6.000000
9.070566 3.031448 -1.947500 5.000000
5.655238 -0.606367 -1.161302 10.000000
5.152529 -3.013308 -1.017078 24.000000
5.810733 -7.930644 -1.026400 9.000000
9.146100 3.019472 -1.964830 1.000000
5.657956 -0.626643 -1.162302 10.000000
5.168601 -3.045754 -1.017929 9.000000
5.947684 -8.177277 -1.041357 6.000000
9.114729 2.970351 -1.960855 1.000000
5.699287 -0.655398 -1.170303 19.000000
5.183057 -3.081146 -1.017686 8.000000
6.047859 -8.376315 -1.053076 9.000000
9.110262 2.932003 -1.964531 4.000000
5.750036 -0.683615 -1.182307 9.000000
5.172033 -3.100304 -1.015581 7.000000
5.936736 -8.286232 -1.026427 17.000000
9.106469 2.892241 -1.966518 1.000000
5.830363 -0.714846 -1.198287 8.000000
5.165613 -3.122248 -1.011145 7.000000
5.891196 -8.283593 -1.011003 20.000000
9.083146 2.849968 -1.962786 1.000000
5.905811 -0.745030 -1.213238 7.000000
5.133678 -3.128694 -1.002818 5.000000
5.851473 -8.288849 -0.996629 10.000000
9.070142 2.805943 -1.962709 1.000000
5.135379 -3.155601 -1.001078 8.000000
5.831667 -8.322300 -0.987454 7.000000
9.037066 2.757735 -1.961845 3.000000
9.769814 -1.270611 -2.009803 8.000000
5.143626 -3.180490 -1.002244 7.000000
5.764874 -8.291478 -0.968830 25.000000
9.037082 2.721573 -1.963106 2.000000
9.707394 -1.296967 -1.996101 10.000000
5.170502 -3.223364 -1.003221 6.000000
5.744951 -8.324673 -0.959671 22.000000
9.037423 2.683871 -1.964361 1.000000
9.761165 -1.340585 -2.006364 8.000000
5.088081 -3.197938 -0.986265 1.000000
5.817793 -8.493492 -0.964096 23.000000
9.004400 2.636483 -1.960095 4.000000
9.751096 -1.377370 -2.005367 2.000000
5.139430 -3.256551 -0.994164 1.000000
5.945523 -8.745288 -0.977284 25.000000
8.984475 2.594934 -1.960489 1.000000
9.712138 -1.409924 -1.996670 1.000000
5.119871 -3.270518 -0.987250 5.000000
5.900077 -8.747224 -0.963935 25.000000
8.983974 2.557457 -1.963328 2.000000
9.736329 -1.449893 -2.000933 4.000000
5.099839 -3.284103 -0.983529 8.000000
5.889551 -8.797706 -0.954186 10.000000
9.007198 2.526721 -1.969679 1.000000
9.745566 -1.489540 -2.002200 5.000000
5.063644 -3.287113 -0.973459 9.000000
8.945006 2.473946 -1.957466 3.000000
9.759830 -1.530094 -2.002732 4.000000
5.023495 -3.287282 -0.961601 34.000000
8.920081 2.430221 -1.956698 4.000000
9.739023 -1.565169 -2.001474 4.000000
5.019497 -3.312263 -0.960034 35.000000
5.712808 -8.733412 -0.903850 22.000000
8.900013 2.388081 -1.955312 1.000000
9.801261 -1.612045 -2.013660 9.000000
5.012130 -3.333836 -0.955569 35.000000
5.729170 -8.825520 -0.894657 33.000000
8.903317 2.354020 -1.957489 5.000000
9.742533 -1.640831 -1.999284 33.000000
5.004671 -3.355397 -0.951095 31.000000
5.709626 -8.863001 -0.885312 7.000000
8.864302 2.307326 -1.950290 4.000000
9.649571 -1.663302 -1.979724 38.000000
5.013213 -3.387824 -0.951825 39.000000
8.848091 2.266866 -1.951461 3.000000
9.643069 -1.698598 -1.981433 33.000000
5.001310 -3.406549 -0.947601 32.000000
8.817095 2.224519 -1.949453 1.000000
9.694353 -1.746036 -1.993334 33.000000
5.001418 -3.433525 -0.946745 23.000000
8.772719 2.177529 -1.941079 2.000000
9.678280 -1.781536 -1.989633 15.000000
4.993540 -3.455113 -0.942218 30.000000
5.377286 -8.612145 -0.806194 5.000000
8.769452 2.144249 -1.945282 4.000000
9.720217 -1.827870 -1.996089 9.000000
4.993406 -3.482153 -0.941330 32.000000
5.392336 -8.703731 -0.800414 4.000000
8.738577 2.102787 -1.939994 1.000000
9.746802 -1.869882 -2.004745 4.000000
4.993410 -3.509427 -0.938297 27.000000
5.255390 -8.549201 -0.772177 7.000000
8.698430 2.054619 -1.935685 4.000000
9.729932 -1.905410 -2.002765 7.000000
4.993013 -3.536559 -0.937372 27.000000
5.277856 -8.653307 -0.769235 30.000000
8.677038 2.014421 -1.932445 8.000000
9.761680 -1.950576 -2.007210 8.000000
4.992751 -3.563925 -0.934291 21.000000
5.219773 -8.625664 -0.750996 7.000000
8.645286 1.972096 -1.930156 5.000000
9.720502 -1.979425 -2.002024 8.000000
4.988078 -3.588259 -0.932580 26.000000
5.150034 -8.581270 -0.734945 5.000000
8.641605 1.937963 -1.934212 7.000000
9.737511 -2.021859 -2.003498 7.000000
4.995090 -3.603898 -0.934830 25.000000
5.186773 -8.711261 -0.733850 1.000000
8.619368 1.901400 -1.929351 8.000000
9.724879 -2.058218 -2.002511 5.000000
4.990502 -3.628474 -0.930947 27.000000
4.953862 -8.386543 -0.693073 7.000000
8.620514 1.866971 -1.934442 4.000000
9.712114 -2.094511 -2.001523 5.000000
5.001624 -3.664659 -0.931094 23.000000
5.035878 -8.593753 -0.698257 9.000000
8.582989 1.825936 -1.930928 7.000000
9.714348 -2.128729 -2.005234 7.000000
5.012419 -3.700878 -0.932287 10.000000
4.885943 -8.405011 -0.669596 7.000000
8.584167 1.791762 -1.934446 9.000000
9.706786 -2.166166 -2.001762 7.000000
5.015343 -3.731518 -0.929791 16.000000
4.388476 -7.610264 -0.594275 33.000000
8.546614 1.749705 -1.930843 8.000000
9.688155 -2.201095 -2.003257 8.000000
5.005849 -3.753036 -0.928343 24.000000
4.370716 -7.644069 -0.587941 187.000000
8.522570 1.710713 -1.933464 6.000000
9.674177 -2.237017 -2.005735 6.000000
5.011260 -3.787237 -0.930916 24.000000
8.442748 1.696224 -1.929623 6.000000
9.584831 -2.216357 -2.005088 6.000000
5.019847 -3.781353 -0.942620 19.000000
8.417054 1.724711 -1.925250 7.000000
9.505543 -2.161351 -1.993920 4.000000
5.012294 -3.748311 -0.946559 28.000000
4.388720 -7.678667 -0.604499 135.000000
8.391267 1.753027 -1.920877 6.000000
9.483731 -2.118127 -1.994693 7.000000
4.997282 -3.708603 -0.948929 10.000000
4.335439 -7.524356 -0.604199 7.000000
8.366349 1.779849 -1.913518 1.000000
9.447697 -2.073754 -1.989021 6.000000
4.998233 -3.680977 -0.952085 27.000000
4.867204 -8.379505 -0.689524 6.000000
8.373432 1.814990 -1.918288 5.000000
9.430634 -2.032085 -1.989037 8.000000
4.994791 -3.650282 -0.956612 26.000000
4.933730 -8.426177 -0.708481 9.000000
8.366402 1.847128 -1.918288 8.000000
9.413054 -1.990506 -1.990706 6.000000
4.978560 -3.611828 -0.958778 24.000000
4.910398 -8.322909 -0.716425 1.000000
8.364661 1.880456 -1.916388 8.000000
9.410019 -1.953860 -1.992035 6.000000
4.990948 -3.592968 -0.965219 28.000000
12.398394 -20.848104 -1.828091 23.000000
8.357379 1.912560 -1.916388 5.000000
9.392444 -1.912621 -1.991980 7.000000
4.989714 -3.549939 -0.969894 27.000000
12.469600 -20.802212 -1.866190 24.000000
8.341146 1.939511 -1.914207 7.000000
9.363772 -1.874466 -1.991526 6.000000
4.981690 -3.516800 -0.972369 26.000000
8.343785 1.973925 -1.913396 5.000000
9.274162 -1.819518 -1.974409 10.000000
4.977674 -3.486700 -0.974524 22.000000
5.210615 -8.556494 -0.799005 1.000000
8.374075 2.016622 -1.920604 4.000000
9.232624 -1.771240 -1.969107 18.000000
4.985386 -3.464934 -0.981150 29.000000
5.083449 -8.282450 -0.788724 7.000000
8.367310 2.045920 -1.919101 5.000000
9.290668 -1.750452 -1.983683 5.000000
4.997346 -3.446151 -0.986448 28.000000
5.358234 -8.662188 -0.839189 2.000000
8.398261 2.087695 -1.923269 6.000000
9.253672 -1.706715 -1.976084 31.000000
4.996870 -3.418867 -0.990383 26.000000
5.126781 -8.223716 -0.813767 10.000000
8.390183 2.119927 -1.923269 6.000000
9.244352 -1.668319 -1.979560 38.000000
4.996405 -3.391730 -0.993232 28.000000
5.168176 -8.226015 -0.827728 9.000000
8.410998 2.159577 -1.926746 6.000000
9.274440 -1.637003 -1.986359 17.000000
5.003990 -3.370153 -0.997685 27.000000
5.143018 -8.122889 -0.830985 6.000000
8.388742 2.189795 -1.920471 3.000000
9.241128 -1.596220 -1.981378 6.000000
5.007235 -3.345728 -1.002361 28.000000
5.248326 -8.225544 -0.858800 9.000000
8.390033 2.224577 -1.921118 1.000000
9.251533 -1.558137 -1.987324 5.000000
5.010945 -3.320447 -1.007014 30.000000
5.298080 -8.233630 -0.875540 33.000000
8.410363 2.264567 -1.924561 6.000000
9.189006 -1.514640 -1.974443 4.000000
5.012807 -3.297811 -1.011646 18.000000
5.274680 -8.140946 -0.877682 9.000000
8.450157 2.306947 -1.932292 4.000000
9.169672 -1.476952 -1.972500 1.000000
5.090323 -3.322139 -1.029190 7.000000
5.356830 -8.204834 -0.900376 9.000000
8.432475 2.336947 -1.927083 1.000000
9.189430 -1.443956 -1.977240 1.000000
5.056766 -3.272620 -1.025265 7.000000
5.863567 -8.912863 -0.995337 20.000000
8.428878 2.369251 -1.926630 2.000000
9.160045 -1.403320 -1.974816 5.000000
5.092133 -3.270346 -1.036637 18.000000
5.800360 -8.750109 -0.994204 16.000000
8.443004 2.411427 -1.928938 4.000000
9.145337 -1.365148 -1.973875 5.000000
5.090853 -3.243231 -1.039373 5.000000
5.845538 -8.748466 -1.009417 23.000000
8.415242 2.438485 -1.923118 3.000000
9.158933 -1.332879 -1.980809 7.000000
5.072629 -3.205544 -1.039718 7.000000
5.872732 -8.716525 -1.023138 12.000000
8.430755 2.474912 -1.925411 1.000000
9.183003 -1.300395 -1.986613 1.000000
5.075226 -3.181215 -1.043238 8.000000
5.935591 -8.750373 -1.044200 28.000000
8.455364 2.515834 -1.928284 1.000000
9.110095 -1.254408 -1.971463 2.000000
5.090967 -3.163919 -1.048281 9.000000
5.968182 -8.732649 -1.057615 25.000000
8.488378 2.561176 -1.934798 1.000000
9.143577 -1.223262 -1.979361 4.000000
5.105941 -3.147341 -1.054377 8.000000
5.910433 -8.583677 -1.054927 10.000000
8.501899 2.604160 -1.935473 4.000000
9.123416 -1.186544 -1.975722 1.000000
5.163024 -3.156473 -1.068124 1.000000
5.868859 -8.453623 -1.054408 34.000000
8.498069 2.635468 -1.933430 6.000000
5.147076 -3.113497 -1.070441 7.000000
5.877445 -8.409471 -1.065677 10.000000
8.503304 2.671294 -1.931949 7.000000
5.819671 -0.686744 -1.264847 7.000000
5.136707 -3.081566 -1.070243 9.000000
5.920324 -8.408162 -1.080824 21.000000
8.483670 2.700960 -1.929831 4.000000
5.729672 -0.654840 -1.245810 8.000000
5.147323 -3.062336 -1.074425 10.000000
5.953149 -8.383090 -1.095182 20.000000
8.478849 2.735326 -1.926225 4.000000
5.683138 -0.627424 -1.237248 10.000000
5.123638 -3.022873 -1.073592 13.000000
5.672222 -7.934574 -1.050962 24.000000
8.530122 2.786426 -1.935263 1.000000
5.646417 -0.601434 -1.229779 10.000000
5.116887 -2.993662 -1.075214 20.000000
5.751416 -7.986280 -1.072629 9.000000
8.551818 2.833212 -1.937925 1.000000
5.629026 -0.577732 -1.226534 22.000000
5.128212 -2.972721 -1.079352 31.000000
8.537240 2.861492 -1.936873 1.000000
5.611443 -0.555151 -1.223281 29.000000
5.128532 -2.950228 -1.083757 29.000000
5.584135 -0.530806 -1.217900 22.000000
5.143436 -2.932575 -1.088792 35.000000
7.833085 2.691032 -1.772578 1.000000
5.580630 -0.508859 -1.219773 27.000000
5.161881 -2.918074 -1.095776 35.000000
7.661926 2.665166 -1.731707 7.000000
5.553341 -0.484878 -1.213393 30.000000
5.176162 -2.901164 -1.100827 33.000000
4.902981 -6.561110 -0.944798 9.000000
7.749832 2.727626 -1.749326 1.000000
5.525740 -0.461096 -1.207980 21.000000
5.203274 -2.891349 -1.108631 35.000000
4.899411 -6.506462 -0.949593 8.000000
7.703021 2.744437 -1.738142 1.000000
5.522159 -0.442362 -1.207882 22.000000
5.230035 -2.881182 -1.118547 34.000000
4.921388 -6.488390 -0.959543 8.000000
7.380123 2.661374 -1.664713 2.000000
5.499461 -0.419299 -1.202556 32.000000
5.244686 -2.863059 -1.123639 32.000000
4.958259 -6.489828 -0.973873 9.000000
7.380055 2.691957 -1.664047 1.000000
5.505833 -0.396595 -1.204585 21.000000
5.276059 -2.855135 -1.132448 34.000000
4.991393 -6.481456 -0.987072 10.000000
6.896244 6.762739 -1.597275 1.000000
7.356713 2.715493 -1.656833 1.000000
5.477314 -0.375327 -1.201064 21.000000
5.298777 -2.842370 -1.139428 29.000000
5.018306 -6.471893 -0.996847 9.000000
6.933187 6.853778 -1.603452 1.000000
7.345815 2.746488 -1.654095 1.000000
5.478838 -0.352380 -1.201064 25.000000
5.335113 -2.834341 -1.151341 30.000000
5.063649 -6.478844 -1.012558 9.000000
6.967571 6.933604 -1.606143 1.000000
5.484224 -0.334469 -1.205009 20.000000
5.357296 -2.822192 -1.158376 32.000000
5.092412 -6.473626 -1.024455 9.000000
6.990226 7.004882 -1.602809 1.000000
5.461505 -0.312039 -1.197744 20.000000
5.384296 -2.811253 -1.166375 27.000000
5.130843 -6.473513 -1.036191 9.000000
6.961816 7.027741 -1.595104 1.000000
5.457577 -0.290795 -1.197629 34.000000
5.411281 -2.800151 -1.174401 31.000000
5.161900 -6.466200 -1.048167 9.000000
6.985838 7.103879 -1.594076 1.000000
6.805606 2.690409 -1.523499 1.000000
5.458653 -0.269838 -1.197629 24.000000
5.443104 -2.790174 -1.183403 31.000000
5.202279 -6.470330 -1.062082 9.000000
7.033354 7.204829 -1.600121 1.000000
6.664378 2.664212 -1.488936 1.000000
5.449474 -0.248412 -1.197393 30.000000
5.483189 -2.785391 -1.194345 32.000000
5.237624 -6.465619 -1.074786 9.000000
7.082400 7.311023 -1.606727 1.000000
6.740595 2.726115 -1.504427 1.000000
5.435619 -0.224969 -1.195126 29.000000
5.501974 -2.767205 -1.202701 30.000000
5.277255 -6.463641 -1.088184 10.000000
7.025028 7.300085 -1.588323 1.000000
6.700035 2.736962 -1.493546 1.000000
5.441216 -0.207128 -1.196199 27.000000
5.528119 -2.757423 -1.209769 32.000000
5.321865 -6.476639 -1.103599 9.000000
7.074448 7.405575 -1.594636 1.000000
5.427329 -0.185733 -1.192981 27.000000
5.551484 -2.742509 -1.214814 33.000000
5.343918 -6.450512 -1.111719 9.000000
7.087491 7.471268 -1.588721 1.000000
5.423328 -0.164750 -1.190961 27.000000
5.587173 -2.734710 -1.224932 29.000000
5.393099 -6.466111 -1.126457 9.000000
7.138936 7.580955 -1.597168 1.000000
5.423506 -0.143914 -1.192855 27.000000
5.618737 -2.723466 -1.235212 26.000000
5.420994 -6.453624 -1.139553 10.000000
5.409372 -0.122756 -1.189634 31.000000
5.716322 -2.744939 -1.259045 8.000000
5.460836 -6.450600 -1.153229 9.000000
5.404902 -0.102836 -1.188560 32.000000
5.893818 -2.803634 -1.300604 1.000000
5.506023 -6.455846 -1.168328 10.000000
5.410141 -0.082156 -1.189634 29.000000
5.841822 -2.751444 -1.290305 1.000000
5.544831 -6.460133 -1.181336 9.000000
8.513332 9.303703 -1.877967 1.000000
7.604233 3.304837 -1.680865 1.000000
5.400650 -0.061271 -1.187486 30.000000
5.908805 -2.756577 -1.307594 3.000000
5.577376 -6.450064 -1.192328 9.000000
8.570507 9.435392 -1.882280 5.000000
7.430754 3.263420 -1.640852 1.000000
5.391079 -0.040460 -1.185339 31.000000
5.909616 -2.729374 -1.310173 1.000000
5.621655 -6.455589 -1.207634 9.000000
8.520603 9.443182 -1.864579 5.000000
7.497117 3.322265 -1.651972 1.000000
5.396071 -0.021661 -1.186413 32.000000
6.002257 -2.748048 -1.334679 1.000000
5.667294 -6.460035 -1.221523 9.000000
8.627280 9.635542 -1.884478 5.000000
7.358411 3.297743 -1.621510 1.000000
5.390817 0.000000 -1.187221 32.000000
6.190171 -2.806684 -1.377872 3.000000
5.699528 -6.455755 -1.236363 8.000000
8.623016 9.702101 -1.875110 5.000000
5.385901 0.018800 -1.186145 31.000000
6.258134 -2.808580 -1.395576 7.000000
5.742021 -6.456037 -1.249675 9.000000
8.662875 9.815738 -1.872559 2.000000
5.395969 0.039555 -1.186413 30.000000
6.263241 -2.783337 -1.398167 6.000000
5.798767 -6.469642 -1.267447 8.000000
8.650931 9.867971 -1.865355 5.000000
5.390480 0.060215 -1.187221 30.000000
6.219180 -2.735209 -1.390918 6.000000
5.812669 -6.442043 -1.275091 9.000000
8.745987 10.050474 -1.879550 5.000000
5.390209 0.080912 -1.187221 29.000000
6.228495 -2.712106 -1.394475 22.000000
5.858627 -6.445324 -1.289302 9.000000
8.719034 10.090412 -1.862329 5.000000
5.385409 0.100584 -1.184265 31.000000
6.291936 -2.711038 -1.411323 10.000000
5.913413 -6.460145 -1.307324 9.000000
8.734847 10.183924 -1.859345 5.000000
5.409358 2.596375 -1.179366 1.000000
5.384569 0.121253 -1.186145 31.000000
6.364207 -2.714564 -1.429070 10.000000
5.928151 -6.424276 -1.315790 8.000000
8.845242 10.385776 -1.873565 4.000000
5.409377 2.620821 -1.177099 1.000000
5.388994 0.140175 -1.187221 33.000000
6.432534 -2.714563 -1.445873 15.000000
5.977796 -6.437380 -1.330155 9.000000
8.846758 10.465020 -1.867380 5.000000
5.352160 2.617364 -1.161330 1.000000
5.388980 0.162765 -1.184398 35.000000
6.495714 -2.713220 -1.462956 10.000000
6.030625 -6.446722 -1.347678 8.000000
8.872457 10.562546 -1.865088 3.000000
5.369202 2.651293 -1.162890 7.000000
5.388379 0.181575 -1.184398 40.000000
6.545146 -2.707074 -1.475820 16.000000
6.063410 -6.434335 -1.359201 8.000000
8.976275 10.769837 -1.875661 3.000000
5.360174 2.671316 -1.158709 7.000000
5.387571 0.204145 -1.184398 37.000000
6.596015 -2.697157 -1.488731 18.000000
6.115460 -6.444351 -1.375343 8.000000
9.020133 10.903468 -1.878081 4.000000
5.355454 2.693513 -1.155474 3.000000
5.382191 0.221817 -1.182385 33.000000
6.650968 -2.689867 -1.502713 19.000000
6.151529 -6.434959 -1.389280 9.000000
9.036961 11.001775 -1.871871 4.000000
5.376438 2.729983 -1.157889 6.000000
5.386094 0.244581 -1.183457 36.000000
6.705703 -2.682090 -1.518005 10.000000
6.191192 -6.429107 -1.402482 8.000000
9.117630 11.175336 -1.880884 5.000000
5.328553 2.727932 -1.146268 5.000000
5.384795 0.263360 -1.185339 36.000000
6.786849 -2.688474 -1.537009 10.000000
6.229760 -6.424125 -1.415734 9.000000
9.163451 11.319959 -1.881196 4.000000
5.348987 2.765549 -1.147596 4.000000
5.384363 0.284067 -1.182516 30.000000
6.856273 -2.682804 -1.555542 10.000000
6.279828 -6.428441 -1.431396 7.000000
9.176813 11.413654 -1.876109 4.000000
5.351747 2.793070 -1.148298 4.000000
5.387695 0.304992 -1.185471 34.000000
6.928650 -2.681883 -1.576496 9.000000
6.312327 -6.414506 -1.446323 7.000000
9.187132 11.516765 -1.866341 5.000000
5.355576 2.820092 -1.144763 7.000000
5.386691 0.325690 -1.184529 65.000000
7.020862 -2.686624 -1.596489 10.000000
6.368533 -6.426596 -1.462153 8.000000
9.246649 11.674736 -1.870855 5.000000
5.380588 0.345118 -1.183457 35.000000
7.134544 -2.700190 -1.627037 8.000000
6.411879 -6.423079 -1.476444 9.000000
9.284926 11.811758 -1.868704 5.000000
5.384302 0.366121 -1.183587 34.000000
7.204671 -2.706623 -1.644325 8.000000
6.448088 -6.412176 -1.490766 8.000000
9.371153 11.998844 -1.877448 5.000000
4.742244 2.565192 -1.008032 1.000000
5.387933 0.387157 -1.183715 29.000000
7.266241 -2.709511 -1.656862 8.000000
6.509238 -6.425707 -1.507646 8.000000
9.413647 12.144752 -1.875810 6.000000
4.767947 2.601729 -1.011592 1.000000
5.386406 0.407842 -1.183715 33.000000
7.331906 -2.713609 -1.673172 9.000000
6.554965 -6.425822 -1.524554 8.000000
9.460380 12.293427 -1.874431 5.000000
5.389876 0.428925 -1.183842 34.000000
7.385668 -2.705694 -1.689127 9.000000
6.598338 -6.421086 -1.540719 6.000000
9.496027 12.438275 -1.868778 2.000000
5.393341 0.449100 -1.183967 33.000000
7.474529 -2.702791 -1.709748 8.000000
6.642331 -6.416665 -1.552119 7.000000
9.535103 12.580262 -1.862747 3.000000
5.401721 0.470689 -1.184211 29.000000
7.553048 -2.698435 -1.729721 8.000000
6.689535 -6.415034 -1.567626 8.000000
9.613770 12.771811 -1.872235 5.000000
5.404945 0.491889 -1.184331 29.000000
7.644325 -2.702494 -1.751524 6.000000
6.726090 -6.402931 -1.580687 7.000000
9.683471 12.958302 -1.874575 1.000000
5.403223 0.512658 -1.183384 28.000000
7.796797 -2.722763 -1.788577 1.000000
6.780544 -6.407560 -1.598009 6.000000
9.704843 13.081886 -1.864496 1.000000
5.411143 0.534381 -1.184565 34.000000
8.010031 -2.761203 -1.839581 1.000000
6.830389 -6.409678 -1.614572 7.000000
9.728863 13.215214 -1.858095 1.000000
5.414213 0.554730 -1.184680 48.000000
6.895852 -6.423739 -1.634634 6.000000
9.757304 13.351213 -1.851957 1.000000
5.417108 0.576053 -1.184792 28.000000
6.928939 -6.407288 -1.647081 8.000000
9.872466 13.608252 -1.862024 5.000000
5.419713 0.597384 -1.185855 27.000000
8.674657 -2.878950 -1.994494 6.000000
6.972868 -6.400661 -1.662151 7.000000
9.904838 13.753625 -1.853222 2.000000
5.422849 0.618814 -1.184060 28.000000
8.636752 -2.834610 -1.988594 4.000000
7.024539 -6.400809 -1.675705 8.000000
9.956831 13.933227 -1.851322 1.000000
5.435197 0.641374 -1.186285 25.000000
8.618705 -2.792074 -1.986927 3.000000
7.071986 -6.396759 -1.693434 7.000000
9.998417 14.095173 -1.849886 1.000000
5.437866 0.661906 -1.186388 26.000000
8.614566 -2.752572 -1.990028 1.000000
7.108710 -6.382761 -1.706937 5.000000
10.085178 14.323172 -1.850441 1.000000
5.445426 0.682125 -1.187546 25.000000
8.619133 -2.720910 -1.990531 3.000000
7.164006 -6.385139 -1.723227 7.000000
10.141813 14.510945 -1.848247 1.000000
5.447778 0.705609 -1.186687 22.000000
8.605544 -2.680329 -1.988300 1.000000
7.230454 -6.396966 -1.742256 5.000000
10.151913 14.633922 -1.837392 1.000000
5.450332 0.725293 -1.186783 25.000000
8.586777 -2.638357 -1.986541 5.000000
7.267262 -6.382199 -1.755938 7.000000
10.226387 14.857255 -1.838447 6.000000
5.457676 0.748579 -1.186008 32.000000
8.586958 -2.600734 -1.989080 6.000000
7.318878 -6.380167 -1.773252 6.000000
10.307620 15.087769 -1.839954 6.000000
5.459666 0.768278 -1.188023 26.000000
8.576612 -2.564951 -1.987876 4.000000
7.389148 -6.393912 -1.795163 8.000000
10.281631 15.163093 -1.815687 6.000000
5.476642 0.792123 -1.189339 23.000000
8.581050 -2.530423 -1.989915 5.000000
7.433721 -6.384985 -1.809136 8.000000
10.240986 15.217235 -1.795251 6.000000
5.483437 0.814614 -1.190472 25.000000
8.570955 -2.491715 -1.990247 7.000000
10.291292 15.407828 -1.790636 4.000000
5.500158 0.837713 -1.192730 32.000000
8.561267 -2.454904 -1.985894 6.000000
5.159752 -4.340299 -1.264260 7.000000
10.425654 15.727577 -1.800290 3.000000
5.517327 0.856100 -1.195948 26.000000
8.569294 -2.421635 -1.992111 7.000000
5.114261 -4.270123 -1.256494 8.000000
10.557936 16.048494 -1.809114 6.000000
5.533520 0.880384 -1.199159 32.000000
8.525823 -2.374038 -1.984738 1.000000
5.106337 -4.231841 -1.256722 9.000000
10.611804 16.259859 -1.804615 6.000000
4.322715 2.850305 -0.867404 4.000000
5.534717 0.902378 -1.201184 31.000000
8.538912 -2.342390 -1.988923 7.000000
5.079069 -4.177936 -1.253370 9.000000
10.697091 16.516218 -1.801203 6.000000
5.551491 0.926013 -1.201444 33.000000
8.523224 -2.304531 -1.986526 6.000000
5.074479 -4.143070 -1.254407 9.000000
10.750948 16.727049 -1.795598 6.000000
5.562562 0.949827 -1.203590 23.000000
8.531675 -2.271698 -1.988067 7.000000
5.073348 -4.111249 -1.257485 10.000000
10.811502 16.951065 -1.790822 6.000000
5.593009 0.977142 -1.208909 23.000000
8.510684 -2.231148 -1.987620 7.000000
5.053099 -4.064248 -1.254635 10.000000
10.905426 17.230696 -1.787637 6.000000
5.623124 1.004669 -1.215201 28.000000
8.505020 -2.194798 -1.984314 7.000000
5.032410 -4.017320 -1.252831 11.000000
10.896704 17.350647 -1.770903 7.000000
5.653502 1.031493 -1.220478 12.000000
8.489080 -2.155952 -1.981863 5.000000
5.030857 -3.985979 -1.254613 17.000000
11.003369 17.657038 -1.768981 8.000000
5.707830 1.064068 -1.229903 9.000000
8.491523 -2.123472 -1.983815 6.000000
5.018433 -3.944864 -1.252355 17.000000
10.942796 17.697165 -1.743562 8.000000
5.824261 1.108930 -1.253737 8.000000
8.484736 -2.087192 -1.983550 6.000000
5.019362 -3.917325 -1.257247 12.000000
10.867392 17.699284 -1.714849 10.000000
8.458843 -2.046410 -1.978839 5.000000
4.998769 -3.870461 -1.252944 15.000000
10.816997 17.755909 -1.691094 10.000000
8.993794 1.753104 -1.934301 10.000000
8.475451 -2.016011 -1.984098 5.000000
4.996499 -3.839494 -1.254555 16.000000
10.698565 17.714237 -1.650483 9.000000
8.997585 1.789731 -1.931563 10.000000
8.487877 -1.984563 -1.985208 6.000000
4.997970 -3.811570 -1.257112 14.000000
10.641327 17.745201 -1.624807 9.000000
9.025514 1.828061 -1.935560 7.000000
8.466252 -1.945252 -1.981579 5.000000
4.992320 -3.777032 -1.256580 15.000000
10.604972 17.839523 -1.596907 8.000000
9.019424 1.864550 -1.929130 3.000000
8.463816 -1.912060 -1.979355 5.000000
4.989573 -3.746277 -1.258089 24.000000
10.546291 17.882631 -1.568304 8.000000
9.051168 1.907380 -1.934102 5.000000
8.389523 -1.861449 -1.963450 10.000000
4.986494 -3.715464 -1.260648 22.000000
10.710074 18.291431 -1.578875 9.000000
9.030429 1.935956 -1.929420 6.000000
8.329267 -1.814551 -1.950834 32.000000
4.979847 -3.682204 -1.258924 22.000000
10.666161 18.377907 -1.545506 9.000000
9.047809 1.977705 -1.928067 6.000000
8.360003 -1.787651 -1.956411 33.000000
4.981211 -3.653712 -1.261328 21.000000
10.582972 18.382072 -1.516691 9.000000
9.083811 2.022151 -1.933991 7.000000
8.375676 -1.757399 -1.961630 38.000000
4.973699 -3.620239 -1.262769 16.000000
10.476710 18.330441 -1.480081 9.000000
9.120330 2.063720 -1.939883 9.000000
8.358161 -1.720245 -1.957534 31.000000
4.970820 -3.607538 -1.260759 16.000000
10.406166 18.355442 -1.453254 9.000000
9.142653 2.104026 -1.939427 5.000000
8.350372 -1.685247 -1.954180 35.000000
4.967220 -3.577203 -1.262079 21.000000
10.319441 18.343990 -1.416416 10.000000
9.193039 2.152823 -1.944983 5.000000
8.409370 -1.663575 -1.966477 27.000000
4.955678 -3.541380 -1.260274 13.000000
10.239283 18.351110 -1.384725 9.000000
4.283849 3.281178 -0.799708 2.000000
9.185418 2.186581 -1.943335 4.000000
8.453008 -1.640036 -1.978427 5.000000
4.956358 -3.513195 -1.262537 16.000000
10.161592 18.362219 -1.353452 9.000000
4.233973 3.266488 -0.785846 104.000000
9.211595 2.230221 -1.943775 4.000000
8.426069 -1.601263 -1.969092 6.000000
4.964656 -3.491808 -1.264698 19.000000
10.081637 18.368795 -1.318287 9.000000
4.226633 3.285608 -0.780033 203.000000
9.293993 2.287984 -1.959520 3.000000
8.474594 -1.576794 -1.982170 5.000000
4.965261 -3.463814 -1.265865 15.000000
10.082773 18.363266 -1.307004 9.000000
4.228772 3.275446 -0.776511 175.000000
9.325588 2.294036 -1.952130 4.000000
8.509619 -1.586384 -1.980950 6.000000
4.965086 -3.475300 -1.259485 15.000000
10.182508 18.392437 -1.330021 9.000000
4.241102 3.259019 -0.778378 170.000000
9.349277 2.261828 -1.951760 2.000000
8.572490 -1.630639 -1.988952 7.000000
4.965752 -3.502953 -1.254053 19.000000
10.260556 18.381699 -1.353961 9.000000
4.276189 3.261123 -0.786453 2.000000
9.362660 2.227047 -1.952754 4.000000
8.553845 -1.661150 -1.976494 20.000000
4.957940 -3.524727 -1.248694 17.000000
10.328732 18.353010 -1.380333 9.000000
9.332590 2.183785 -1.944800 5.000000
8.485559 -1.681725 -1.960606 35.000000
4.970119 -3.560880 -1.247257 20.000000
10.431285 18.384789 -1.411391 8.000000
9.330693 2.145585 -1.946154 1.000000
8.514442 -1.718359 -1.962279 30.000000
4.965860 -3.585445 -1.243912 33.000000
10.509395 18.372736 -1.439250 9.000000
9.328642 2.107433 -1.947500 2.000000
8.532031 -1.757583 -1.964747 40.000000
4.972919 -3.619672 -1.242447 27.000000
10.617428 18.412184 -1.471324 9.000000
9.365334 2.079675 -1.951812 6.000000
8.531000 -1.791544 -1.961283 40.000000
4.966207 -3.657392 -1.234654 21.000000
10.696597 18.393360 -1.495333 9.000000
9.311017 2.030130 -1.938853 5.000000
8.577873 -1.835805 -1.967232 9.000000
4.977431 -3.693872 -1.234053 14.000000
10.779847 18.388508 -1.527900 9.000000
9.331789 1.997155 -1.948506 7.000000
8.647688 -1.882339 -1.984738 6.000000
4.992042 -3.733165 -1.236535 16.000000
10.878529 18.409252 -1.559031 8.000000
9.339046 1.962939 -1.948506 8.000000
8.674756 -1.923147 -1.987745 6.000000
4.991282 -3.761200 -1.231819 10.000000
10.921469 18.335484 -1.578472 9.000000
9.322524 1.922119 -1.943505 8.000000
8.654037 -1.955033 -1.978277 6.000000
4.981244 -3.785083 -1.225144 9.000000
10.858647 18.086121 -1.586175 7.000000
9.310297 1.882359 -1.941162 5.000000
8.666860 -1.989752 -1.979526 6.000000
5.015615 -3.838890 -1.231163 9.000000
10.783759 17.820139 -1.595390 7.000000
9.331207 1.849321 -1.947486 6.000000
8.697142 -2.035092 -1.985100 4.000000
5.002359 -3.857902 -1.225651 9.000000
10.808535 17.721128 -1.615405 8.000000
8.723852 -2.076706 -1.986433 8.000000
5.011096 -3.896820 -1.224718 25.000000
10.913660 17.753784 -1.647462 9.000000
8.727083 -2.108079 -1.985461 8.000000
5.006886 -3.920258 -1.219954 16.000000
10.985150 17.731050 -1.670882 9.000000
8.748045 -2.148726 -1.988795 8.000000
5.016452 -3.957492 -1.220031 19.000000
11.064206 17.720192 -1.702847 9.000000
5.682899 1.021491 -1.188378 8.000000
8.763326 -2.191442 -1.991032 5.000000
5.018293 -3.988872 -1.217069 14.000000
11.172362 17.762030 -1.732540 9.000000
5.633924 0.990371 -1.176292 17.000000
8.780634 -2.228366 -1.990089 7.000000
5.035312 -4.032603 -1.217775 12.000000
11.234001 17.708784 -1.757340 9.000000
5.613484 0.962556 -1.173244 25.000000
8.795937 -2.269871 -1.992282 5.000000
5.039189 -4.069018 -1.215631 16.000000
11.256847 17.608612 -1.780677 9.000000
5.577735 0.935394 -1.168136 31.000000
8.820901 -2.312474 -1.996597 7.000000
5.070979 -4.125484 -1.219854 8.000000
11.276590 17.504553 -1.799751 8.000000
5.566670 0.913573 -1.164117 31.000000
8.822889 -2.345941 -1.995549 4.000000
5.084714 -4.164755 -1.220539 8.000000
11.235901 17.308384 -1.812635 6.000000
4.310244 2.823769 -0.834580 1.000000
5.555231 0.889804 -1.163049 26.000000
8.838069 -2.386349 -1.997692 6.000000
5.077820 -4.190299 -1.216620 9.000000
11.169619 17.075470 -1.817438 6.000000
5.543341 0.867073 -1.162951 30.000000
8.852983 -2.428546 -1.998216 6.000000
5.092177 -4.236623 -1.216953 9.000000
11.091074 16.826887 -1.816364 6.000000
5.522630 0.842122 -1.156901 24.000000
8.872506 -2.470572 -2.001382 6.000000
5.107746 -4.281352 -1.217201 9.000000
10.983088 16.543404 -1.814145 6.000000
4.289547 2.743280 -0.836542 1.000000
5.496367 0.816535 -1.152758 24.000000
8.878607 -2.505699 -2.001347 7.000000
5.135686 -4.333849 -1.221219 9.000000
10.959252 16.383104 -1.825036 6.000000
4.330862 2.741032 -0.847584 1.000000
5.495246 0.788940 -1.152711 29.000000
8.846545 -2.531694 -1.992835 7.000000
5.188052 -4.410697 -1.231369 7.000000
10.906787 16.182159 -1.827494 6.000000
4.394812 2.758998 -0.860906 3.000000
5.483356 0.766732 -1.150628 33.000000
8.894751 -2.582480 -1.997453 6.000000
7.505960 -6.394853 -1.779552 8.000000
10.827716 15.944469 -1.828665 6.000000
5.466460 0.742981 -1.148484 28.000000
8.861994 -2.609907 -1.988958 1.000000
7.418651 -6.363046 -1.755040 10.000000
10.662644 15.584065 -1.818194 6.000000
5.478779 0.723241 -1.151487 17.000000
8.764033 -2.616003 -1.965771 1.000000
7.374549 -6.372281 -1.737832 9.000000
10.529140 15.268559 -1.808746 6.000000
5.467149 0.700358 -1.147465 27.000000
8.684720 -2.628689 -1.945260 1.000000
7.298306 -6.357751 -1.715409 7.000000
10.549875 15.184937 -1.825999 6.000000
5.459369 0.679033 -1.148308 26.000000
8.567705 -2.629224 -1.918026 1.000000
7.275854 -6.385247 -1.708651 8.000000
10.607235 15.154330 -1.849583 6.000000
5.452415 0.656918 -1.145306 20.000000
8.521152 -2.650781 -1.904983 1.000000
7.219290 -6.378109 -1.688192 7.000000
10.581355 15.005587 -1.858585 1.000000
5.444579 0.634775 -1.146135 21.000000
8.512013 -2.682194 -1.901867 1.000000
7.161498 -6.371698 -1.669524 7.000000
10.528350 14.814827 -1.862160 1.000000
5.447067 0.614837 -1.145178 31.000000
8.502599 -2.715161 -1.897194 1.000000
7.133492 -6.398269 -1.658632 7.000000
10.581561 14.780169 -1.884879 4.000000
5.444324 0.593366 -1.145111 22.000000
8.474586 -2.743752 -1.885263 1.000000
7.060091 -6.379282 -1.636730 7.000000
10.454488 14.495505 -1.872138 2.000000
5.431762 0.570901 -1.142995 26.000000
8.233139 -2.697368 -1.830475 8.000000
7.023138 -6.392805 -1.625053 7.000000
10.385717 14.284226 -1.874921 3.000000
5.423977 0.549035 -1.141898 33.000000
8.166962 -2.713621 -1.813566 8.000000
6.990426 -6.410035 -1.609282 7.000000
10.317325 14.091676 -1.872625 1.000000
5.425847 0.528185 -1.142849 28.000000
6.919442 -6.387314 -1.589355 7.000000
10.270864 13.925971 -1.873689 2.000000
5.422874 0.507838 -1.141823 28.000000
7.907932 -2.690539 -1.752664 12.000000
6.879144 -6.396971 -1.575358 8.000000
10.199474 13.728598 -1.873055 5.000000
5.415234 0.486155 -1.138822 25.000000
7.816162 -2.691321 -1.726969 11.000000
6.832774 -6.398471 -1.559767 9.000000
10.149863 13.557734 -1.878741 1.000000
5.411591 0.464888 -1.140641 25.000000
7.732108 -2.695632 -1.709180 9.000000
6.779521 -6.399876 -1.543430 7.000000
10.160036 13.473035 -1.889797 1.000000
5.408657 0.443722 -1.138667 30.000000
6.723857 -6.389630 -1.523933 7.000000
10.106629 13.305346 -1.888932 1.000000
5.400490 0.423131 -1.136613 27.000000
7.570691 -2.703249 -1.667690 9.000000
6.702675 -6.420901 -1.516644 8.000000
9.951624 13.002068 -1.871304 1.000000
5.401877 0.402377 -1.137559 31.000000
7.455165 -2.694318 -1.640180 10.000000
6.646770 -6.409750 -1.500524 8.000000
9.971286 12.933964 -1.886716 1.000000
5.398303 0.381273 -1.137476 27.000000
7.295402 -2.678404 -1.602336 9.000000
6.611687 -6.420610 -1.484449 9.000000
9.914436 12.767804 -1.887531 2.000000
4.779506 2.550946 -0.976743 1.000000
5.389964 0.359891 -1.135419 28.000000
7.212554 -2.693794 -1.581816 7.000000
6.572855 -6.434368 -1.471637 9.000000
9.855906 12.596847 -1.884565 5.000000
4.840407 2.560701 -0.991212 1.000000
5.391048 0.340121 -1.136362 39.000000
7.132100 -2.702111 -1.561399 8.000000
6.522192 -6.431755 -1.455726 8.000000
9.778534 12.408465 -1.881050 4.000000
5.392202 0.321300 -1.136362 29.000000
7.035520 -2.696457 -1.538400 8.000000
6.466856 -6.419624 -1.438337 8.000000
9.659665 12.170001 -1.872006 6.000000
5.392802 0.300560 -1.139190 31.000000
6.962381 -2.697734 -1.520487 8.000000
