VERSION .7
FIELDS x y z intensity
SIZE 4 4 4 4
TYPE F F F F
COUNT 1 1 1 1
WIDTH 1240
HEIGHT 1
VIEWPOINT 0 0 0 1 0 0 0
POINTS 1240
DATA ascii
6.466845 -8.560014 -0.889558 30.000000
7.840589 2.673736 -1.361002 1.000000
5.647500 -0.553742 -0.928232 25.000000
5.398312 -3.075397 -0.844431 19.000000
5.980010 -7.973317 -0.815906 87.000000
7.942696 2.677643 -1.381603 1.000000
5.665230 -0.576452 -0.930466 25.000000
5.374624 -3.088050 -0.838084 25.000000
5.882896 -7.904021 -0.794486 255.000000
11.612740 3.867547 -2.017514 1.000000
5.692581 -0.601328 -0.934305 24.000000
5.338300 -3.093260 -0.827604 30.000000
5.992094 -8.109684 -0.800653 10.000000
11.540818 3.796660 -2.013480 1.000000
5.705217 -0.623815 -0.935720 20.000000
5.318618 -3.107949 -0.824124 34.000000
11.550924 3.746437 -2.019021 1.000000
5.771100 -0.653453 -0.949011 8.000000
5.303415 -3.125197 -0.819164 30.000000
6.146110 -8.443889 -0.807277 58.000000
11.502846 3.684304 -2.012576 1.000000
5.911305 -0.691281 -0.969278 5.000000
5.301060 -3.150043 -0.815102 24.000000
6.099570 -8.441726 -0.794060 255.000000
11.487352 3.630767 -2.016057 1.000000
5.281219 -3.164501 -0.811642 23.000000
6.045828 -8.432280 -0.780154 9.000000
11.375947 3.554106 -2.000841 1.000000
5.278554 -3.189256 -0.808644 18.000000
5.947436 -8.356495 -0.760416 5.000000
11.431251 3.523265 -2.012467 1.000000
12.669005 -1.571272 -2.083661 40.000000
5.271545 -3.211454 -0.804985 18.000000
11.415112 3.472529 -2.011655 1.000000
12.432898 -1.592691 -2.043618 37.000000
5.271369 -3.231565 -0.803041 14.000000
5.891325 -8.404314 -0.737500 8.000000
11.294466 3.388502 -1.998670 1.000000
12.397690 -1.636590 -2.036608 37.000000
5.281056 -3.264194 -0.801926 11.000000
5.868159 -8.433748 -0.725665 1.000000
4.438724 3.791028 -0.857815 1.000000
11.315592 3.349683 -2.004461 1.000000
12.415705 -1.685289 -2.042814 39.000000
5.269412 -3.283750 -0.798675 16.000000
5.694484 -8.245384 -0.698955 10.000000
4.278352 3.627023 -0.830249 1.000000
11.270919 3.289442 -1.998512 1.000000
12.371098 -1.727637 -2.029837 14.000000
5.266211 -3.308614 -0.795610 13.000000
5.642213 -8.234076 -0.682235 36.000000
4.222949 3.553535 -0.821887 67.000000
11.305573 3.254638 -2.008867 1.000000
12.462035 -1.786927 -2.048074 1.000000
5.271395 -3.338880 -0.792702 10.000000
5.549307 -8.159431 -0.664060 19.000000
4.227581 3.531046 -0.827144 120.000000
11.259188 3.196644 -2.006940 1.000000
12.519263 -1.844219 -2.054094 8.000000
5.255406 -3.355805 -0.787719 11.000000
5.501639 -8.150377 -0.651413 20.000000
4.232325 3.508755 -0.830457 135.000000
11.256466 3.149216 -2.008485 1.000000
12.507844 -1.884935 -2.055501 8.000000
5.248652 -3.376047 -0.786168 10.000000
5.982947 -8.933846 -0.700965 28.000000
4.225286 3.476868 -0.833409 125.000000
11.223829 3.095773 -2.008993 1.000000
12.505070 -1.938122 -2.054094 8.000000
5.268926 -3.419066 -0.785686 10.000000
5.797521 -8.722668 -0.669955 27.000000
4.225952 3.451518 -0.835912 114.000000
11.177903 3.036969 -2.002834 1.000000
12.523302 -1.983496 -2.055887 7.000000
5.274630 -3.447678 -0.783770 10.000000
5.775664 -8.755929 -0.659928 24.000000
4.230329 3.429322 -0.839150 134.000000
11.145452 2.984330 -1.999195 1.000000
12.530562 -2.033997 -2.056072 6.000000
5.273745 -3.477394 -0.780109 14.000000
5.723636 -8.743301 -0.644650 24.000000
4.238448 3.410236 -0.843136 124.000000
11.189498 2.950126 -2.009210 1.000000
12.566844 -2.087188 -2.063267 7.000000
5.262411 -3.495013 -0.777904 10.000000
5.572315 -8.580613 -0.620391 34.000000
4.226949 3.375537 -0.845151 139.000000
11.089222 2.880260 -1.997536 1.000000
12.553517 -2.134538 -2.064690 6.000000
5.277538 -3.535672 -0.778855 9.000000
5.521106 -8.567079 -0.605518 29.000000
4.234139 3.357141 -0.850038 129.000000
11.074986 2.831214 -2.001223 1.000000
12.584867 -2.187358 -2.068862 6.000000
5.274462 -3.559009 -0.775630 9.000000
5.507586 -8.611971 -0.598377 24.000000
4.234769 3.331238 -0.852410 124.000000
11.085099 2.788498 -2.005213 1.000000
12.518769 -2.225424 -2.054832 8.000000
5.268898 -3.586119 -0.771279 9.000000
5.553917 -8.754951 -0.594183 51.000000
4.233874 3.306675 -0.856630 100.000000
11.079544 2.743962 -2.010590 1.000000
12.515030 -2.272110 -2.057849 6.000000
5.276517 -3.619674 -0.770932 9.000000
5.648645 -8.973370 -0.596526 23.000000
4.234476 3.281046 -0.857073 100.000000
11.027124 2.686084 -2.003276 1.000000
12.540894 -2.326581 -2.058987 6.000000
5.281265 -3.648745 -0.768843 8.000000
5.649462 -9.044542 -0.585007 10.000000
4.265205 3.279909 -0.867596 38.000000
11.007486 2.638600 -2.002013 1.000000
12.361776 -2.342486 -2.033294 1.000000
5.296707 -3.688167 -0.769626 7.000000
6.002190 -9.684315 -0.613062 6.000000
10.977839 2.586961 -2.002921 1.000000
12.284913 -2.374597 -2.024310 1.000000
5.279528 -3.705010 -0.764531 7.000000
6.003540 -9.766252 -0.606819 12.000000
10.957793 2.539880 -2.001602 1.000000
12.301726 -2.424653 -2.019550 1.000000
5.309849 -3.758192 -0.764193 6.000000
5.933393 -9.728092 -0.589198 10.000000
10.856056 2.472414 -1.987284 1.000000
12.243931 -2.462139 -2.011599 1.000000
5.333970 -3.801876 -0.767157 6.000000
5.284408 -8.732472 -0.517060 19.000000
10.858886 2.431229 -1.994175 4.000000
12.219535 -2.506088 -2.011391 1.000000
5.420898 -3.876691 -0.780534 3.000000
5.243933 -8.734274 -0.503602 17.000000
10.829008 2.380912 -1.990989 1.000000
12.201290 -2.548982 -2.005448 1.000000
5.399145 -3.891122 -0.773564 3.000000
4.579860 -7.688887 -0.433008 16.000000
10.788204 2.330522 -1.989858 1.000000
12.340743 -2.627609 -2.032272 1.000000
5.377137 -3.905285 -0.768930 1.000000
5.082716 -8.604684 -0.474789 18.000000
10.767173 2.282742 -1.990298 1.000000
12.437165 -2.695828 -2.049764 7.000000
5.339061 -3.907602 -0.762017 1.000000
4.547898 -7.761012 -0.416344 29.000000
10.712560 2.228216 -1.982552 1.000000
12.384035 -2.734138 -2.038181 7.000000
5.369213 -3.959972 -0.762488 1.000000
4.767003 -8.200404 -0.429066 7.000000
10.612924 2.166941 -1.972394 1.000000
12.378052 -2.780436 -2.043403 7.000000
5.382681 -4.000447 -0.765292 2.000000
4.820915 -8.360176 -0.426416 6.000000
10.570909 2.116114 -1.974727 1.000000
12.308500 -2.814501 -2.040473 1.000000
5.363518 -4.018267 -0.762386 1.000000
4.906961 -8.581924 -0.428163 2.000000
10.451108 2.094029 -1.973573 4.000000
12.251744 -2.801523 -2.055831 1.000000
5.368640 -4.008954 -0.775251 6.000000
10.434402 2.130491 -1.968035 2.000000
12.198647 -2.742373 -2.049703 5.000000
5.342741 -3.959196 -0.776468 8.000000
10.439573 2.173335 -1.976344 1.000000
12.129441 -2.680150 -2.049770 1.000000
5.323762 -3.916417 -0.779904 8.000000
4.786254 -8.240141 -0.451059 5.000000
10.441444 2.215589 -1.974441 1.000000
12.153405 -2.636542 -2.056553 3.000000
5.297318 -3.867121 -0.780914 9.000000
4.557278 -7.783246 -0.439539 97.000000
10.438060 2.254882 -1.975350 1.000000
12.075096 -2.573250 -2.048334 1.000000
5.282537 -3.826730 -0.784745 9.000000
4.690669 -7.947308 -0.464257 13.000000
10.438929 2.297057 -1.977169 1.000000
12.025115 -2.516558 -2.047091 1.000000
5.254895 -3.778807 -0.785552 9.000000
4.577627 -7.694299 -0.462942 7.000000
10.430031 2.337123 -1.977169 1.000000
12.019144 -2.467176 -2.051051 5.000000
5.231566 -3.733018 -0.787982 9.000000
5.310323 -8.855356 -0.546560 8.000000
10.436450 2.378767 -1.976161 1.000000
11.993565 -2.416149 -2.049551 6.000000
5.232327 -3.686900 -0.794995 10.000000
5.345966 -8.844649 -0.561519 9.000000
10.398835 2.412233 -1.968852 4.000000
11.977161 -2.365025 -2.053944 1.000000
5.224905 -3.653084 -0.797478 9.000000
5.919286 -9.716403 -0.632115 20.000000
4.317909 3.342077 -0.906868 1.000000
10.428116 2.461259 -1.974237 1.000000
11.956352 -2.315418 -2.051092 8.000000
5.209153 -3.613718 -0.798666 10.000000
5.979545 -9.731024 -0.652552 6.000000
4.298473 3.352298 -0.900473 7.000000
10.481524 2.514456 -1.984134 1.000000
11.920855 -2.261090 -2.047854 1.000000
5.205328 -3.582876 -0.802785 9.000000
4.272182 3.354637 -0.894370 10.000000
10.519902 2.566421 -1.991296 5.000000
11.855305 -2.203672 -2.041686 1.000000
5.204432 -3.556882 -0.805295 9.000000
5.632636 -9.028121 -0.634063 7.000000
4.274766 3.384495 -0.892861 20.000000
10.428830 2.586670 -1.975923 1.000000
11.838025 -2.153468 -2.045913 4.000000
5.188499 -3.516841 -0.808519 10.000000
5.581347 -8.876767 -0.637655 37.000000
4.255224 3.394469 -0.886495 32.000000
10.501019 2.645468 -1.987516 1.000000
11.777549 -2.097901 -2.036267 1.000000
5.174981 -3.482690 -0.809036 10.000000
5.646540 -8.911268 -0.656331 198.000000
4.262590 3.425986 -0.885742 33.000000
10.500983 2.688381 -1.985537 1.000000
11.770599 -2.050065 -2.035836 4.000000
5.175958 -3.453240 -0.812536 10.000000
5.534843 -8.667920 -0.652441 29.000000
4.254441 3.445178 -0.881764 27.000000
10.496490 2.728262 -1.982653 1.000000
11.776630 -2.006670 -2.044176 4.000000
5.167199 -3.420094 -0.815789 10.000000
5.534932 -8.601715 -0.661456 33.000000
4.260780 3.477485 -0.881900 27.000000
10.500203 2.772313 -1.985350 1.000000
11.745006 -1.954905 -2.039508 1.000000
5.149980 -3.381618 -0.817672 10.000000
5.589073 -8.612998 -0.680166 11.000000
4.261263 3.501486 -0.879463 31.000000
10.494901 2.814064 -1.982457 1.000000
11.707964 -1.904665 -2.033981 6.000000
5.148231 -3.356089 -0.819990 16.000000
5.790349 -8.862079 -0.712404 25.000000
4.247644 3.518955 -0.875612 31.000000
10.527233 2.864132 -1.990534 1.000000
11.718651 -1.860245 -2.043110 6.000000
5.147169 -3.328578 -0.825495 10.000000
5.804238 -8.815975 -0.725129 90.000000
4.254261 3.550811 -0.874696 24.000000
10.498194 2.899571 -1.981241 1.000000
11.681215 -1.810435 -2.037537 9.000000
5.146913 -3.300455 -0.827762 11.000000
5.848587 -8.809501 -0.739419 30.000000
4.250609 3.571745 -0.871410 25.000000
10.488161 2.938215 -1.977439 1.000000
11.546443 -1.744174 -2.014944 57.000000
5.154183 -3.278520 -0.832422 10.000000
5.921618 -8.855633 -0.758015 27.000000
4.226642 3.578117 -0.865219 11.000000
10.509925 2.987882 -1.983691 1.000000
11.532216 -1.698816 -2.017648 37.000000
5.151845 -3.253087 -0.835714 10.000000
5.926818 -8.796802 -0.769632 26.000000
4.232983 3.610201 -0.863252 5.000000
10.475405 3.021590 -1.975420 1.000000
11.509046 -1.650278 -2.014560 31.000000
5.163114 -3.233794 -0.841031 14.000000
5.951431 -8.767137 -0.780005 24.000000
10.544869 3.083536 -1.988657 1.000000
11.513971 -1.607938 -2.020648 66.000000
5.162804 -3.204818 -0.844283 10.000000
5.592904 -8.171288 -0.744539 39.000000
10.567304 3.134191 -1.987197 1.000000
11.588399 -1.572992 -2.032634 12.000000
5.174013 -3.185564 -0.848525 15.000000
5.589741 -8.105816 -0.752445 25.000000
10.523749 3.163284 -1.975233 1.000000
11.632096 -1.535526 -2.045628 5.000000
5.176695 -3.161108 -0.851377 12.000000
5.616114 -8.080529 -0.762369 32.000000
10.535724 3.211043 -1.975811 1.000000
11.588177 -1.488591 -2.039079 1.000000
5.178172 -3.138483 -0.854214 16.000000
5.712374 -8.164180 -0.784199 8.000000
10.556800 3.259801 -1.981991 1.000000
5.196250 -3.116054 -0.862316 15.000000
10.554588 3.303562 -1.977967 1.000000
5.203813 -3.092256 -0.866894 32.000000
6.146151 -8.648475 -0.862977 108.000000
10.533683 3.339458 -1.972349 1.000000
5.221911 -3.079625 -0.873602 15.000000
6.116266 -8.546261 -0.865876 75.000000
10.587379 3.401274 -1.978826 1.000000
5.747497 -0.626408 -1.015279 9.000000
5.237844 -3.060749 -0.879610 20.000000
6.186232 -8.580579 -0.884548 72.000000
10.593896 3.446254 -1.980386 1.000000
5.700253 -0.600127 -1.009632 26.000000
5.247565 -3.043131 -0.882786 14.000000
10.596485 3.488046 -1.979117 1.000000
5.697792 -0.577756 -1.007765 28.000000
5.262437 -3.026035 -0.887744 21.000000
10.616074 3.541790 -1.979372 1.000000
5.675289 -0.553467 -1.004428 20.000000
5.272953 -3.006420 -0.891982 19.000000
7.920801 2.676422 -1.475732 1.000000
5.647341 -0.529853 -1.002193 21.000000
5.283915 -2.985844 -0.896219 16.000000
5.888623 -7.929037 -0.872768 231.000000
7.929818 2.711891 -1.477746 1.000000
5.634622 -0.506842 -0.999584 20.000000
5.303011 -2.969829 -0.905107 10.000000
5.919985 -7.910528 -0.885280 24.000000
7.893109 2.730149 -1.468164 1.000000
5.616647 -0.484479 -0.997088 26.000000
5.312930 -2.951069 -0.908289 28.000000
7.873515 2.758809 -1.462064 1.000000
5.603572 -0.461682 -0.995457 32.000000
5.328369 -2.931718 -0.914335 23.000000
5.590578 -0.439006 -0.992842 36.000000
5.360359 -2.923776 -0.921249 10.000000
5.962625 -7.793150 -0.913737 21.000000
7.428183 2.662600 -1.375775 4.000000
5.567084 -0.416637 -0.991406 25.000000
5.382217 -2.912582 -0.929896 9.000000
5.958720 -7.731971 -0.921028 35.000000
9.920255 9.596623 -1.917699 5.000000
7.325231 2.674857 -1.354014 1.000000
5.563733 -0.394909 -0.990532 26.000000
5.435838 -2.915892 -0.941714 8.000000
6.082644 -7.836048 -0.948178 21.000000
9.865164 9.613574 -1.899146 5.000000
5.555146 -0.373842 -0.989755 34.000000
5.446053 -2.895718 -0.944944 7.000000
6.104576 -7.805074 -0.957603 27.000000
9.976217 9.793340 -1.912507 5.000000
5.541802 -0.351574 -0.987130 21.000000
5.439412 -2.864238 -0.947280 24.000000
6.068867 -7.698321 -0.962902 32.000000
10.026224 9.914851 -1.914007 5.000000
5.542939 -0.330282 -0.988099 23.000000
5.457697 -2.849577 -0.952027 30.000000
6.028983 -7.595784 -0.959409 31.000000
9.989458 9.947701 -1.898572 5.000000
5.534282 -0.309414 -0.986347 33.000000
5.502318 -2.847259 -0.964628 28.000000
6.098109 -7.628040 -0.979937 25.000000
10.055562 10.087202 -1.905496 5.000000
5.520166 -0.287367 -0.986614 26.000000
5.543037 -2.842622 -0.973275 27.000000
6.180207 -7.675648 -0.999243 19.000000
10.120792 10.227335 -1.912168 5.000000
9.343644 3.631667 -1.713537 1.000000
5.521182 -0.267133 -0.986614 23.000000
5.575818 -2.831222 -0.981500 29.000000
6.589516 -8.117078 -1.073051 23.000000
10.140218 10.322364 -1.907555 5.000000
9.395695 3.689702 -1.721808 1.000000
5.512161 -0.245486 -0.985820 24.000000
5.615441 -2.827957 -0.991316 31.000000
10.147058 10.401708 -1.900181 5.000000
9.418571 3.742393 -1.721459 1.000000
5.508145 -0.224119 -0.984940 28.000000
5.639876 -2.810709 -0.998052 33.000000
10.203610 10.536666 -1.899767 5.000000
5.504011 -0.203747 -0.984061 34.000000
5.666403 -2.800511 -1.004490 30.000000
10.310413 10.725339 -1.913759 5.000000
5.504753 -0.182611 -0.984061 30.000000
5.706881 -2.794537 -1.015529 28.000000
10.370184 10.863159 -1.915895 4.000000
5.495374 -0.162139 -0.983262 29.000000
5.738654 -2.784065 -1.023928 24.000000
5.727731 -6.809133 -0.965041 199.000000
10.451094 11.028565 -1.922130 5.000000
5.490986 -0.142828 -0.982381 29.000000
5.780127 -2.776819 -1.031714 29.000000
5.678085 -6.700108 -0.961839 39.000000
10.388181 11.042961 -1.901862 5.000000
5.481694 -0.119611 -0.980621 30.000000
5.816191 -2.767953 -1.042101 23.000000
5.613672 -6.577414 -0.956198 10.000000
10.496570 11.236517 -1.912521 3.000000
5.487017 -0.099608 -0.981501 33.000000
5.861351 -2.763142 -1.053013 25.000000
5.614299 -6.529530 -0.962872 9.000000
10.503910 11.327317 -1.904985 6.000000
5.487359 -0.078539 -0.981501 32.000000
5.906710 -2.758110 -1.062842 25.000000
5.613627 -6.482834 -0.967964 9.000000
10.567867 11.480399 -1.907616 6.000000
5.477415 -0.059274 -0.981653 29.000000
5.952413 -2.751662 -1.073857 21.000000
5.636568 -6.461319 -0.978440 9.000000
10.619972 11.609991 -1.909661 6.000000
5.477937 -0.039200 -0.979741 38.000000
5.997834 -2.746023 -1.083776 25.000000
5.684750 -6.470815 -0.990492 9.000000
10.645652 11.724060 -1.902364 6.000000
5.477877 -0.018165 -0.980697 35.000000
6.047779 -2.742121 -1.094548 22.000000
5.724080 -6.467620 -1.003901 10.000000
10.683717 11.852983 -1.899967 6.000000
5.473155 0.000000 -0.978860 33.000000
6.088289 -2.734909 -1.103735 17.000000
5.741607 -6.444239 -1.010856 10.000000
10.818205 12.095255 -1.914897 6.000000
5.467851 0.020995 -0.979889 31.000000
6.138127 -2.730303 -1.115767 14.000000
5.802910 -6.467450 -1.029969 10.000000
10.858524 12.221655 -1.911840 6.000000
5.438210 0.040814 -0.974597 79.000000
6.210748 -2.735383 -1.130790 15.000000
5.835836 -6.456382 -1.040849 13.000000
10.878414 12.326121 -1.905079 4.000000
5.433091 0.061639 -0.973715 79.000000
6.265028 -2.731916 -1.144973 10.000000
5.870966 -6.449846 -1.052358 9.000000
10.921534 12.462395 -1.905584 1.000000
5.437736 0.082575 -0.974597 65.000000
6.315666 -2.725184 -1.156009 23.000000
5.913946 -6.449418 -1.065115 9.000000
11.112063 12.773959 -1.926028 2.000000
5.442317 0.102597 -0.975479 65.000000
6.370583 -2.721227 -1.166714 20.000000
5.959229 -6.453434 -1.078544 10.000000
11.078465 12.825471 -1.909977 3.000000
5.436963 0.123382 -0.974597 54.000000
6.420913 -2.713620 -1.180272 18.000000
5.978691 -6.427086 -1.087127 10.000000
11.154493 13.018769 -1.910871 1.000000
5.436813 0.143318 -0.972698 54.000000
6.480652 -2.710915 -1.190680 19.000000
6.031958 -6.436878 -1.101896 10.000000
11.275915 13.244472 -1.920350 1.000000
5.436393 0.164197 -0.971749 58.000000
6.544620 -2.709532 -1.204415 21.000000
6.084238 -6.447412 -1.116758 10.000000
11.230577 13.299006 -1.900183 1.000000
5.435383 0.185059 -0.973648 112.000000
6.609125 -2.706558 -1.218213 22.000000
6.093349 -6.409839 -1.123520 9.000000
11.279903 13.447632 -1.903665 3.000000
5.434669 0.204979 -0.973648 83.000000
6.659119 -2.698574 -1.232050 17.000000
6.167161 -6.440049 -1.145423 10.000000
11.374579 13.657041 -1.902572 3.000000
5.429093 0.225648 -0.971818 69.000000
6.714100 -2.692248 -1.244288 16.000000
6.202815 -6.432184 -1.154210 10.000000
11.410488 13.797812 -1.897660 1.000000
5.428186 0.246493 -0.971818 183.000000
6.797066 -2.695266 -1.261678 27.000000
6.263505 -6.447655 -1.170670 12.000000
11.496548 14.006091 -1.904509 5.000000
5.437078 0.266869 -0.973579 86.000000
6.861320 -2.691685 -1.275740 14.000000
6.296492 -6.434257 -1.183607 10.000000
11.565298 14.190568 -1.901482 3.000000
5.436183 0.287753 -0.972628 97.000000
6.916911 -2.682893 -1.288152 20.000000
6.342393 -6.436066 -1.197632 9.000000
11.567842 14.300398 -1.887793 1.000000
5.435092 0.307675 -0.972628 126.000000
6.995051 -2.683748 -1.304906 18.000000
6.368693 -6.415550 -1.206178 9.000000
11.718649 14.590697 -1.897603 5.000000
5.438953 0.328849 -0.972557 90.000000
7.036902 -2.668853 -1.314852 36.000000
6.422653 -6.422653 -1.223228 9.000000
11.849288 14.864619 -1.907457 1.000000
5.457299 0.350995 -0.976071 36.000000
7.152050 -2.682582 -1.338643 9.000000
6.470157 -6.422901 -1.234264 9.000000
11.780240 14.884299 -1.881273 6.000000
5.456146 0.371006 -0.975117 36.000000
7.215647 -2.679175 -1.353031 9.000000
6.509254 -6.416755 -1.247190 9.000000
11.892808 15.140231 -1.887741 9.000000
5.469410 0.393012 -0.977750 31.000000
7.268867 -2.675863 -1.364391 9.000000
6.574117 -6.433357 -1.266541 11.000000
11.893325 15.250175 -1.872409 8.000000
5.468246 0.411160 -0.976793 34.000000
7.330659 -2.678289 -1.376162 9.000000
6.618011 -6.428996 -1.280296 10.000000
11.832071 15.281332 -1.850726 9.000000
5.466797 0.432166 -0.975836 32.000000
7.383258 -2.675617 -1.388956 9.000000
6.654983 -6.417669 -1.291113 10.000000
11.889575 15.472418 -1.844523 6.000000
5.469845 0.455470 -0.976711 33.000000
7.517228 -2.694518 -1.415256 10.000000
6.701230 -6.417274 -1.307291 11.000000
12.162771 15.942817 -1.874343 6.000000
5.473552 0.475986 -0.974711 26.000000
7.563944 -2.680019 -1.423637 12.000000
6.741982 -6.409093 -1.317273 9.000000
12.108418 15.986988 -1.849843 6.000000
5.486223 0.498320 -0.978293 33.000000
7.628994 -2.670141 -1.439761 16.000000
6.778821 -6.396979 -1.329839 9.000000
12.215837 16.252237 -1.846716 6.000000
5.475077 0.515619 -0.974624 32.000000
7.726878 -2.672651 -1.457848 13.000000
6.837492 -6.405130 -1.345078 9.000000
12.288245 16.467943 -1.844648 6.000000
5.483026 0.537615 -0.975408 31.000000
7.810882 -2.668172 -1.476213 13.000000
6.892501 -6.409392 -1.361329 8.000000
12.427684 16.776672 -1.848649 6.000000
5.485793 0.561096 -0.975317 25.000000
7.941113 -2.680197 -1.503488 18.000000
6.936709 -6.403253 -1.375510 8.000000
12.396942 16.864052 -1.827489 6.000000
4.604480 2.674495 -0.768273 1.000000
5.488968 0.579820 -0.975225 28.000000
7.973264 -2.660082 -1.510837 15.000000
6.992071 -6.407053 -1.390275 9.000000
12.547612 17.194460 -1.836078 6.000000
4.561172 2.671745 -0.757026 7.000000
5.486871 0.600910 -0.974261 23.000000
8.057908 -2.652423 -1.529432 12.000000
7.032721 -6.397040 -1.403858 9.000000
12.716796 17.554661 -1.843112 7.000000
4.551803 2.688713 -0.753335 8.000000
5.499478 0.622697 -0.975903 26.000000
8.128359 -2.641064 -1.543948 21.000000
7.090614 -6.404613 -1.421169 9.000000
12.642040 17.586782 -1.814958 9.000000
4.529721 2.698113 -0.746618 4.000000
5.497216 0.643829 -0.974937 24.000000
8.179375 -2.624535 -1.556446 22.000000
7.127841 -6.390956 -1.432466 9.000000
12.659819 17.741859 -1.803407 9.000000
4.545489 2.730126 -0.748974 10.000000
5.509654 0.665766 -0.976570 23.000000
8.263001 -2.619591 -1.573735 12.000000
7.168559 -6.380223 -1.446216 9.000000
12.578911 17.759260 -1.773934 13.000000
4.570004 2.767693 -0.748974 5.000000
5.517000 0.688157 -0.977333 29.000000
8.371260 -2.616977 -1.597083 1.000000
7.224290 -6.382526 -1.461335 9.000000
12.494912 17.778461 -1.744544 22.000000
4.556048 2.782115 -0.744553 5.000000
5.509601 0.708729 -0.975498 26.000000
8.493521 -2.619441 -1.621683 25.000000
7.287357 -6.390840 -1.479729 9.000000
12.393891 17.766226 -1.716259 13.000000
4.478893 2.757589 -0.728913 7.000000
5.531547 0.732171 -0.978848 22.000000
8.544415 -2.602509 -1.632879 4.000000
7.339575 -6.389196 -1.494258 9.000000
12.290585 17.749857 -1.680192 10.000000
4.410272 2.737682 -0.715680 27.000000
5.538961 0.754804 -0.977649 22.000000
8.878057 -2.668613 -1.699775 25.000000
7.384388 -6.380784 -1.507329 9.000000
12.243661 17.814636 -1.659496 10.000000
4.409029 2.759349 -0.713415 27.000000
5.545744 0.776443 -0.980349 28.000000
8.794279 -2.603315 -1.684942 23.000000
7.436524 -6.378376 -1.523695 9.000000
12.185034 17.869289 -1.633838 9.000000
4.428740 2.794327 -0.713601 8.000000
5.552641 0.799159 -0.981094 24.000000
8.864274 -2.588737 -1.701522 22.000000
7.481405 -6.369427 -1.536880 8.000000
12.202490 18.016228 -1.620845 8.000000
4.347817 2.765600 -0.698527 9.000000
5.559589 0.820969 -0.981836 31.000000
8.910481 -2.568509 -1.712007 16.000000
12.315368 18.334112 -1.610296 8.000000
4.383945 2.811202 -0.702280 9.000000
5.572395 0.838767 -0.981467 26.000000
12.410869 18.602278 -1.606876 9.000000
4.398402 2.835663 -0.701054 3.000000
5.588776 0.863191 -0.983912 31.000000
5.188301 -4.293662 -1.076287 1.000000
12.293636 18.580706 -1.573565 8.000000
4.354053 2.831879 -0.693023 6.000000
5.595645 0.885262 -0.983649 29.000000
10.557464 -2.915941 -2.033927 8.000000
5.122879 -4.207981 -1.067817 8.000000
12.199128 18.585531 -1.542883 8.000000
4.315132 2.829125 -0.683892 21.000000
5.621552 0.911500 -0.987787 23.000000
10.553666 -2.871324 -2.035006 3.000000
5.122241 -4.176110 -1.070405 10.000000
12.113416 18.596127 -1.513000 9.000000
4.322371 2.855494 -0.681095 38.000000
5.637784 0.935351 -0.990207 26.000000
10.545578 -2.821734 -2.037064 1.000000
5.113913 -4.138210 -1.070201 10.000000
12.014215 18.585373 -1.481543 9.000000
4.320523 2.877075 -0.678775 36.000000
5.653921 0.960350 -0.991620 26.000000
10.517141 -2.772858 -2.033523 1.000000
5.078012 -4.078451 -1.067722 17.000000
11.956738 18.624533 -1.454504 9.000000
4.303311 2.886257 -0.672053 39.000000
5.665781 0.981706 -0.991165 18.000000
10.517242 -2.733657 -2.031685 1.000000
5.077057 -4.047161 -1.067886 24.000000
11.814853 18.545603 -1.418132 9.000000
4.313536 2.916093 -0.672542 36.000000
5.705806 1.011222 -0.997798 17.000000
10.531735 -2.694296 -2.036399 1.000000
5.063897 -4.006405 -1.068968 24.000000
11.715286 18.546082 -1.383964 9.000000
4.298372 2.931052 -0.665546 46.000000
5.799017 1.051769 -1.012710 7.000000
10.536083 -2.654302 -2.039271 4.000000
5.063282 -3.974403 -1.069072 21.000000
11.618975 18.543797 -1.353767 9.000000
4.316692 2.966780 -0.665416 46.000000
5.940472 1.101001 -1.037058 7.000000
10.488272 -2.599471 -2.031976 6.000000
5.068311 -3.949836 -1.075285 21.000000
11.566676 18.589874 -1.331457 9.000000
4.303133 2.978519 -0.661133 37.000000
10.482719 -2.557350 -2.032970 6.000000
5.059291 -3.911675 -1.075915 21.000000
11.439753 18.529770 -1.293768 9.000000
4.317166 3.011697 -0.659381 9.000000
11.524779 2.183880 -2.005023 13.000000
10.463794 -2.510203 -2.027416 4.000000
5.065175 -3.886645 -1.078713 25.000000
11.370720 18.562601 -1.262782 9.000000
4.301980 3.025727 -0.654170 9.000000
11.506539 2.230393 -1.999248 6.000000
10.467883 -2.468716 -2.030244 1.000000
5.039418 -3.837618 -1.075912 24.000000
11.249609 18.509632 -1.229950 8.000000
4.300487 3.046041 -0.650806 10.000000
11.509778 2.270648 -1.994787 1.000000
10.472075 -2.429223 -2.029316 5.000000
5.025474 -3.797979 -1.073349 74.000000
11.149607 18.490210 -1.199603 9.000000
4.297925 3.067944 -0.646502 1.000000
11.559648 2.326635 -2.000729 1.000000
10.437523 -2.379011 -2.024706 1.000000
5.022838 -3.767143 -1.075469 93.000000
11.083385 18.526323 -1.165416 9.000000
11.605190 2.380093 -2.003726 1.000000
10.422954 -2.333627 -2.018196 5.000000
5.032709 -3.744438 -1.079004 46.000000
10.986238 18.510294 -1.135615 8.000000
11.649735 2.435879 -2.008744 1.000000
10.454739 -2.300536 -2.026575 3.000000
5.021858 -3.707848 -1.079367 40.000000
10.886785 18.489470 -1.105714 9.000000
11.665526 2.483840 -2.008742 1.000000
10.414785 -2.249854 -2.020993 3.000000
5.018758 -3.677212 -1.081389 40.000000
10.800278 18.489866 -1.073501 8.000000
11.695923 2.535159 -2.009119 1.000000
10.423347 -2.209847 -2.020993 1.000000
5.019791 -3.649770 -1.082070 43.000000
10.691343 18.450956 -1.039221 8.000000
11.614557 2.564254 -1.992550 1.000000
10.378132 -2.160544 -2.012594 4.000000
5.017023 -3.618391 -1.084033 56.000000
10.620029 18.476257 -1.012455 8.000000
11.563128 2.597382 -1.976842 1.000000
10.376037 -2.118573 -2.014426 8.000000
4.997452 -3.595002 -1.078855 62.000000
10.546179 18.496920 -0.985493 9.000000
11.568166 2.645214 -1.975168 1.000000
10.412992 -2.084502 -2.020032 5.000000
4.994417 -3.563799 -1.080757 139.000000
10.435579 18.452337 -0.947803 9.000000
11.578951 2.692376 -1.970153 1.000000
10.381659 -2.038682 -2.014404 6.000000
4.990601 -3.533542 -1.082624 128.000000
10.344860 18.441864 -0.915823 8.000000
11.574329 2.738189 -1.964743 1.000000
10.394235 -1.999733 -2.015339 1.000000
5.011110 -3.520561 -1.087575 30.000000
10.285816 18.487556 -0.890409 8.000000
11.656020 2.802666 -1.976041 1.000000
10.425970 -1.964354 -2.020015 7.000000
5.016047 -3.495339 -1.089027 29.000000
10.188092 18.463310 -0.854343 6.000000
10.453104 -1.927935 -2.021901 4.000000
5.028197 -3.476498 -1.093295 30.000000
10.178651 18.446201 -0.842502 6.000000
10.517643 -1.939838 -2.024714 3.000000
5.027869 -3.487957 -1.086700 34.000000
10.275059 18.460638 -0.859649 7.000000
11.603584 2.787916 -1.937129 1.000000
10.531508 -1.984239 -2.017213 1.000000
5.012254 -3.504406 -1.077288 32.000000
10.373218 18.484858 -0.884692 9.000000
11.541678 2.728337 -1.925112 1.000000
10.568278 -2.033217 -2.019902 2.000000
5.024605 -3.540530 -1.074983 31.000000
10.454358 18.478016 -0.912091 9.000000
11.493730 2.670446 -1.919618 1.000000
10.610367 -2.081671 -2.021578 8.000000
5.000309 -3.550908 -1.067048 84.000000
10.538113 18.475279 -0.936081 9.000000
11.571124 2.643765 -1.928786 1.000000
10.607459 -2.123430 -2.020609 6.000000
5.004192 -3.581329 -1.064032 53.000000
10.644291 18.510988 -0.965907 9.000000
11.566086 2.595926 -1.930518 1.000000
10.658782 -2.174366 -2.024031 6.000000
5.019760 -3.620365 -1.064595 35.000000
10.709045 18.466644 -0.988036 9.000000
11.598959 2.558687 -1.938683 1.000000
10.737330 -2.233368 -2.038580 1.000000
5.008132 -3.656011 -1.056552 33.000000
10.815674 18.501394 -1.018150 10.000000
11.738247 2.542188 -1.964622 1.000000
10.748610 -2.278806 -2.038400 5.000000
5.006066 -3.685398 -1.053647 33.000000
10.897299 18.492561 -1.046035 9.000000
12.099813 2.574102 -2.023545 1.000000
10.770062 -2.324635 -2.038103 5.000000
5.010396 -3.714269 -1.051547 62.000000
11.007028 18.530581 -1.076749 9.000000
12.065790 2.518477 -2.018432 1.000000
10.819376 -2.378794 -2.045150 1.000000
5.001580 -3.736217 -1.045841 29.000000
11.081319 18.508204 -1.100338 9.000000
12.069416 2.473105 -2.021924 1.000000
10.859268 -2.429324 -2.050343 4.000000
4.999232 -3.765824 -1.041766 31.000000
11.181273 18.528095 -1.130343 9.000000
4.241289 2.988576 -0.616850 1.000000
12.069147 2.424800 -2.020305 3.000000
10.903999 -2.483332 -2.052503 1.000000
4.999085 -3.791763 -1.039848 27.000000
11.271100 18.530418 -1.159450 9.000000
4.309784 3.011023 -0.629702 6.000000
12.077607 2.380480 -2.022453 1.000000
10.903780 -2.531371 -2.050400 5.000000
4.996586 -3.821561 -1.034616 27.000000
11.374842 18.547520 -1.185972 9.000000
4.332759 3.003502 -0.634246 8.000000
12.067283 2.330346 -2.019211 1.000000
10.958607 -2.582428 -2.056217 1.000000
4.987167 -3.843410 -1.029933 27.000000
11.475492 18.565907 -1.216449 8.000000
4.363822 3.001415 -0.640930 7.000000
12.051158 2.281447 -2.017298 1.000000
10.954090 -2.625801 -2.053184 5.000000
5.001040 -3.883401 -1.030058 27.000000
11.555271 18.549885 -1.244820 9.000000
4.382529 2.990680 -0.646762 7.000000
10.992884 -2.677744 -2.058200 4.000000
5.000648 -3.909746 -1.025820 21.000000
11.669560 18.588457 -1.277037 9.000000
4.401211 2.979844 -0.652610 8.000000
5.881278 1.048674 -0.986853 4.000000
11.035746 -2.733115 -2.064075 1.000000
5.014131 -3.949985 -1.025834 24.000000
11.733654 18.546469 -1.300020 10.000000
4.418925 2.970514 -0.657546 7.000000
5.753695 1.005215 -0.964851 6.000000
10.998420 -2.766694 -2.050799 1.000000
5.015788 -3.981169 -1.023420 18.000000
11.819476 18.531443 -1.328944 9.000000
4.343122 2.895407 -0.649233 8.000000
5.665125 0.966322 -0.950371 9.000000
11.007478 -2.813956 -2.050392 1.000000
5.027589 -4.023538 -1.022201 19.000000
11.939997 18.577051 -1.358407 8.000000
4.352824 2.879979 -0.652877 9.000000
5.663435 0.944686 -0.951559 28.000000
11.025861 -2.863803 -2.051744 2.000000
5.044968 -4.066417 -1.022817 14.000000
12.066250 18.630188 -1.392587 9.000000
4.343321 2.848690 -0.652493 27.000000
5.642515 0.918942 -0.948470 30.000000
11.068326 -2.918179 -2.057498 1.000000
5.091349 -4.136152 -1.029567 5.000000
12.143906 18.607410 -1.421300 9.000000
4.352361 2.834022 -0.656119 35.000000
5.621325 0.894354 -0.945371 29.000000
11.100518 -2.972298 -2.061448 5.000000
5.074613 -4.150565 -1.021927 1.000000
12.219287 18.573814 -1.449421 9.000000
4.354001 2.812420 -0.658485 8.000000
5.605060 0.869713 -0.943084 30.000000
11.123490 -3.022186 -2.063604 6.000000
5.174587 -4.264084 -1.038009 5.000000
12.334590 18.621407 -1.479643 9.000000
4.405553 2.822889 -0.669353 8.000000
5.593106 0.847875 -0.942599 37.000000
11.127425 -3.069183 -2.058189 1.000000
5.174828 -4.296225 -1.035200 4.000000
12.454861 18.647060 -1.512989 9.000000
4.382280 2.784300 -0.669714 9.000000
5.581665 0.823233 -0.941118 31.000000
12.516049 18.597786 -1.540041 9.000000
4.331990 2.723778 -0.663692 104.000000
5.575555 0.795505 -0.940456 29.000000
5.241446 -4.419965 -1.041814 10.000000
12.641863 18.636902 -1.574752 10.000000
4.421482 2.757487 -0.679549 8.000000
5.559029 0.771379 -0.937162 21.000000
8.946855 -2.575612 -1.648344 30.000000
12.710664 18.612194 -1.599750 8.000000
4.451274 2.755606 -0.686437 9.000000
5.551751 0.750626 -0.936493 27.000000
8.871282 -2.590784 -1.632914 24.000000
7.499609 -6.375900 -1.485188 13.000000
12.851624 18.664314 -1.636287 9.000000
4.440661 2.724440 -0.687734 26.000000
5.539311 0.728281 -0.936945 21.000000
8.805614 -2.606670 -1.619269 29.000000
7.458394 -6.388102 -1.472889 10.000000
12.779116 18.421019 -1.646395 9.000000
4.488314 2.731084 -0.697291 87.000000
5.537583 0.704470 -0.935144 25.000000
8.744201 -2.625050 -1.606532 7.000000
7.377707 -6.370513 -1.451558 10.000000
12.634126 18.070238 -1.642387 8.000000
5.530179 0.682940 -0.934464 26.000000
8.555830 -2.604354 -1.568921 25.000000
7.344066 -6.388601 -1.440855 13.000000
12.606956 17.898016 -1.657621 7.000000
4.592311 2.748441 -0.718855 6.000000
5.527701 0.661095 -0.934609 40.000000
8.523217 -2.628599 -1.561488 1.000000
7.280994 -6.380766 -1.420974 13.000000
12.671229 17.856539 -1.680928 9.000000
4.550788 2.700986 -0.714563 8.000000
5.510333 0.638542 -0.932266 28.000000
8.339442 -2.608628 -1.525011 22.000000
7.232707 -6.385468 -1.405789 9.000000
12.712363 17.776098 -1.700753 10.000000
4.555956 2.681522 -0.717584 22.000000
5.522382 0.618458 -0.934893 25.000000
8.256158 -2.614250 -1.505211 18.000000
7.196495 -6.398337 -1.394503 9.000000
12.784571 17.758888 -1.725996 10.000000
4.595021 2.682962 -0.724150 4.000000
5.509697 0.598545 -0.932404 21.000000
8.200109 -2.629610 -1.493643 22.000000
7.135579 -6.386669 -1.378264 10.000000
12.898255 17.772488 -1.759117 15.000000
4.566723 2.641915 -0.721765 8.000000
5.501986 0.576340 -0.931711 24.000000
8.129780 -2.641526 -1.478059 17.000000
7.088901 -6.396330 -1.363992 9.000000
12.976611 17.756287 -1.784943 15.000000
4.627498 2.654485 -0.733622 7.000000
5.494508 0.554237 -0.929086 26.000000
8.031604 -2.642210 -1.458922 16.000000
7.050207 -6.403957 -1.352145 10.000000
13.060937 17.728378 -1.818118 9.000000
5.496527 0.532160 -0.930050 32.000000
8.050173 -2.682619 -1.459580 10.000000
6.985489 -6.396537 -1.332844 15.000000
13.139295 17.711441 -1.844093 9.000000
5.493280 0.512497 -0.930183 36.000000
8.008083 -2.701243 -1.450697 10.000000
6.932323 -6.390246 -1.318346 10.000000
13.131282 17.572121 -1.857483 7.000000
5.494960 0.492346 -0.931145 32.000000
7.802957 -2.665464 -1.407974 13.000000
6.898976 -6.406437 -1.306410 10.000000
13.038423 17.308855 -1.861600 7.000000
5.496974 0.469324 -0.931145 29.000000
7.681796 -2.655557 -1.384939 16.000000
6.853621 -6.413506 -1.292458 10.000000
12.995422 17.133251 -1.866244 6.000000
5.483598 0.449870 -0.929609 34.000000
7.621046 -2.667359 -1.371473 15.000000
6.793470 -6.399603 -1.276812 14.000000
12.953773 16.955093 -1.881773 6.000000
5.485123 0.428799 -0.930570 32.000000
7.546836 -2.672475 -1.355560 10.000000
6.747134 -6.407269 -1.263002 10.000000
12.871953 16.726646 -1.883670 6.000000
5.491574 0.409058 -0.931403 33.000000
7.439968 -2.665359 -1.335272 12.000000
6.719481 -6.423519 -1.253546 10.000000
12.666283 16.335159 -1.870256 7.000000
5.483107 0.387263 -0.930695 33.000000
7.323208 -2.672669 -1.310144 9.000000
6.671846 -6.424948 -1.239169 10.000000
12.666173 16.206131 -1.886376 6.000000
5.479634 0.365878 -0.929860 33.000000
7.264931 -2.690263 -1.297801 9.000000
6.623155 -6.427256 -1.224864 10.000000
12.592790 16.002583 -1.881870 6.000000
5.480776 0.345782 -0.930819 32.000000
7.193001 -2.702239 -1.281698 8.000000
6.579198 -6.431589 -1.211283 9.000000
12.520149 15.796497 -1.891151 6.000000
5.462379 0.323568 -0.927477 35.000000
7.077156 -2.689773 -1.258813 9.000000
6.514091 -6.414802 -1.193878 10.000000
12.225729 15.309425 -1.858891 7.000000
5.453523 0.302990 -0.926759 119.000000
7.012611 -2.694698 -1.245038 9.000000
6.484379 -6.432527 -1.183019 10.000000
12.258945 15.241603 -1.879955 11.000000
5.444800 0.281538 -0.925086 140.000000
6.961908 -2.704541 -1.233770 8.000000
6.434546 -6.427811 -1.169945 9.000000
12.338545 15.225963 -1.904306 9.000000
5.445634 0.261573 -0.926037 79.000000
6.878405 -2.702544 -1.218152 9.000000
6.382721 -6.418469 -1.153145 10.000000
12.321133 15.096438 -1.914074 9.000000
5.451438 0.242781 -0.926875 112.000000
6.842481 -2.714657 -1.209419 9.000000
6.345779 -6.428271 -1.144312 14.000000
12.258520 14.913149 -1.920065 6.000000
5.447321 0.219739 -0.926989 97.000000
6.768007 -2.716606 -1.194252 8.000000
6.303541 -6.436964 -1.130164 10.000000
12.165843 14.690310 -1.917276 1.000000
5.443164 0.199592 -0.926151 86.000000
6.689517 -2.714971 -1.178352 20.000000
6.273591 -6.446772 -1.120447 10.000000
12.129729 14.543063 -1.923607 1.000000
5.453743 0.179014 -0.927827 126.000000
6.634619 -2.721056 -1.165292 10.000000
6.223151 -6.442011 -1.106124 10.000000
11.999043 14.279645 -1.917594 4.000000
5.449436 0.158880 -0.926989 97.000000
6.597806 -2.734250 -1.156740 22.000000
6.170568 -6.439107 -1.091883 12.000000
12.047512 14.236134 -1.937125 2.000000
5.449843 0.137950 -0.927940 112.000000
6.514973 -2.729281 -1.140252 16.000000
6.115743 -6.424407 -1.076519 10.000000
11.856319 13.906523 -1.917521 1.000000
5.455240 0.118081 -0.928780 86.000000
6.469106 -2.737981 -1.130199 10.000000
6.084983 -6.441442 -1.066035 11.000000
11.847974 13.798880 -1.934047 1.000000
5.460223 0.099122 -0.931525 126.000000
6.423255 -2.746378 -1.120188 15.000000
6.043965 -6.440673 -1.053203 10.000000
11.763790 13.599666 -1.931201 5.000000
5.450734 0.076112 -0.929843 97.000000
6.363345 -2.749711 -1.107850 25.000000
5.992867 -6.435565 -1.039259 9.000000
11.643337 13.365832 -1.922535 5.000000
5.450956 0.058036 -0.929843 90.000000
6.323039 -2.757213 -1.098715 10.000000
5.978973 -6.463490 -1.031213 16.000000
11.589280 13.205739 -1.924222 6.000000
5.461009 0.035266 -0.931525 90.000000
6.275640 -2.767887 -1.090029 20.000000
5.926843 -6.458955 -1.017380 10.000000
11.642846 13.169104 -1.943719 1.000000
5.456173 0.015237 -0.930684 112.000000
6.207672 -2.765132 -1.073897 18.000000
5.878211 -6.451015 -1.003630 9.000000
11.487923 12.911900 -1.929396 3.000000
5.480674 -0.002870 -0.935844 35.000000
6.166138 -2.773760 -1.067254 10.000000
5.855112 -6.473164 -0.996014 10.000000
11.460857 12.786797 -1.935174 5.000000
5.485714 -0.023936 -0.935729 32.000000
6.102957 -2.770993 -1.054389 17.000000
5.808920 -6.469603 -0.981423 9.000000
11.353132 12.573581 -1.927158 5.000000
5.480654 -0.044959 -0.934888 33.000000
6.039873 -2.769096 -1.038108 20.000000
5.800322 -6.505565 -0.973019 9.000000
11.255233 12.378016 -1.920943 6.000000
5.485380 -0.065105 -0.935729 33.000000
6.011915 -2.782990 -1.033864 20.000000
5.785756 -6.532712 -0.968037 9.000000
11.208580 12.236305 -1.922921 6.000000
5.494976 -0.084403 -0.937410 34.000000
5.970994 -2.790667 -1.023867 20.000000
5.808382 -6.606889 -0.966543 8.000000
11.158481 12.096565 -1.930362 6.000000
5.494302 -0.104537 -0.939328 29.000000
5.920504 -2.794818 -1.013531 23.000000
5.821904 -6.669074 -0.963279 8.000000
11.093200 11.937704 -1.928789 6.000000
5.493860 -0.125632 -0.939328 36.000000
5.897317 -2.810349 -1.007816 26.000000
5.892490 -6.800078 -0.969542 29.000000
11.055395 11.814052 -1.932217 6.000000
5.498264 -0.146858 -0.940171 28.000000
5.843073 -2.810825 -0.995666 26.000000
5.959346 -6.921045 -0.974441 22.000000
10.981453 11.649160 -1.928824 6.000000
5.502616 -0.167159 -0.941013 32.000000
5.784294 -2.808702 -0.983952 25.000000
6.429602 -7.528096 -1.044037 57.000000
10.977859 11.568251 -1.935565 6.000000
5.507022 -0.188460 -0.940894 26.000000
5.766192 -2.824828 -0.977957 19.000000
6.356934 -7.493187 -1.027596 25.000000
10.960478 11.465478 -1.941935 6.000000
5.511220 -0.208830 -0.941735 33.000000
5.725239 -2.830833 -0.969343 28.000000
6.292978 -7.470505 -1.011127 17.000000
10.840728 11.253384 -1.935197 6.000000
5.515302 -0.230195 -0.942577 33.000000
5.674327 -2.834063 -0.960376 30.000000
6.311452 -7.553769 -1.008542 9.000000
10.870117 11.201432 -1.949700 6.000000
5.514585 -0.250416 -0.941614 31.000000
5.651551 -2.848616 -0.951504 35.000000
10.698012 10.951183 -1.925876 5.000000
5.513255 -0.271572 -0.943541 25.000000
5.615275 -2.854956 -0.945944 27.000000
10.721164 10.890907 -1.938761 5.000000
6.805168 2.634086 -1.198881 1.000000
5.517093 -0.293001 -0.944383 35.000000
5.577961 -2.864222 -0.937112 28.000000
10.637344 10.726836 -1.932557 5.000000
6.859541 2.629011 -1.209551 1.000000
5.536159 -0.314366 -0.944850 26.000000
5.554832 -2.878122 -0.930527 25.000000
6.282237 -7.738566 -0.973813 23.000000
10.580334 10.598815 -1.931745 6.000000
6.942802 2.630393 -1.226436 1.000000
5.534698 -0.333669 -0.946785 26.000000
5.532537 -2.889882 -0.925052 26.000000
6.088281 -7.550680 -0.940789 23.000000
10.626613 10.571116 -1.946745 5.000000
5.538522 -0.354277 -0.946658 24.000000
5.504973 -2.901215 -0.917776 18.000000
6.020748 -7.523191 -0.924423 31.000000
10.466287 10.335582 -1.926087 5.000000
5.551742 -0.378480 -0.949180 30.000000
5.498215 -2.925915 -0.914158 23.000000
6.020022 -7.576344 -0.914733 23.000000
10.382298 10.177752 -1.919242 5.000000
5.555329 -0.400160 -0.949049 19.000000
5.475450 -2.938372 -0.907642 13.000000
6.043365 -7.660470 -0.913747 80.000000
10.389428 10.110334 -1.931720 5.000000
7.496711 2.747859 -1.333273 1.000000
5.573484 -0.422007 -0.952408 24.000000
5.465199 -2.958722 -0.903303 12.000000
6.169398 -7.879448 -0.924831 139.000000
10.326900 9.972571 -1.928263 1.000000
7.383477 2.666953 -1.316519 1.000000
5.566744 -0.443001 -0.952543 26.000000
5.431845 -2.968921 -0.897546 10.000000
5.968537 -7.683510 -0.890575 35.000000
7.478665 2.677750 -1.335004 1.000000
5.594720 -0.465869 -0.956608 29.000000
5.438809 -2.998670 -0.896081 10.000000
5.947170 -7.714199 -0.877887 255.000000
7.594224 2.687764 -1.361095 1.000000
5.602711 -0.488203 -0.958287 27.000000
5.407750 -3.004972 -0.888192 10.000000
7.789710 2.724865 -1.397295 1.000000
5.625438 -0.508985 -0.963473 28.000000
5.366881 -3.008059 -0.879997 10.000000
7.785444 2.689866 -1.399104 1.000000
5.633573 -0.533521 -0.962191 31.000000
5.354900 -3.030890 -0.874627 21.000000
6.436176 -8.534894 -0.929584 37.000000
7.878520 2.689741 -1.418534 1.000000
5.645864 -0.556566 -0.966686 25.000000
5.339721 -3.048194 -0.871777 12.000000
5.920373 -7.908169 -0.846909 24.000000
7.949036 2.679780 -1.432381 1.000000
5.673577 -0.578302 -0.970730 23.000000
5.321657 -3.061325 -0.865016 10.000000
5.939231 -7.988440 -0.842891 206.000000
11.066789 3.685722 -2.002216 1.000000
5.691090 -0.602175 -0.973087 18.000000
5.315075 -3.083521 -0.862497 19.000000
5.876238 -7.961604 -0.829194 163.000000
11.014659 3.621436 -1.994420 1.000000
5.698814 -0.624122 -0.973763 13.000000
5.282886 -3.090781 -0.854749 24.000000
6.280532 -8.574978 -0.875729 26.000000
11.045609 3.586804 -2.003892 1.000000
5.804303 -0.658238 -0.991164 9.000000
5.263504 -3.105392 -0.849100 19.000000
6.256883 -8.611861 -0.865814 126.000000
10.969488 3.515583 -1.991760 1.000000
5.904495 -0.691529 -1.009766 6.000000
5.248338 -3.122433 -0.844148 23.000000
6.096152 -8.446306 -0.836261 62.000000
10.990031 3.477801 -2.003524 1.000000
6.038819 -0.730778 -1.033210 6.000000
5.232863 -3.139251 -0.841333 21.000000
6.094683 -8.509824 -0.829301 36.000000
11.006738 3.438757 -2.008405 1.000000
5.217710 -3.156225 -0.835329 20.000000
6.056858 -8.519678 -0.815346 5.000000
10.905889 3.361341 -1.993791 1.000000
12.106346 -1.507925 -2.074410 5.000000
5.214507 -3.181700 -0.832422 20.000000
6.073561 -8.606631 -0.810537 18.000000
10.912089 3.319507 -2.000893 1.000000
12.066872 -1.547943 -2.066420 27.000000
5.202308 -3.192976 -0.828551 19.000000
5.702159 -8.143527 -0.754478 5.000000
10.943623 3.283244 -2.004349 1.000000
11.983003 -1.583976 -2.050914 41.000000
5.203701 -3.220148 -0.826297 21.000000
5.742516 -8.262398 -0.751267 8.000000
10.920959 3.234935 -2.004265 1.000000
11.874892 -1.613991 -2.031257 37.000000
5.200760 -3.244750 -0.823355 17.000000
5.691504 -8.250304 -0.736044 26.000000
10.913605 3.185159 -2.008737 1.000000
11.864425 -1.658991 -2.026240 35.000000
5.193635 -3.266810 -0.818667 12.000000
5.557439 -8.119474 -0.712192 52.000000
4.226880 3.558102 -0.849405 43.000000
10.848830 3.123151 -1.998758 1.000000
11.853735 -1.701814 -2.023316 36.000000
5.194424 -3.293939 -0.818504 10.000000
5.577197 -8.215846 -0.704825 12.000000
4.223310 3.529983 -0.853092 39.000000
10.821510 3.070340 -1.999639 1.000000
11.822377 -1.743669 -2.021237 14.000000
5.186853 -3.315856 -0.815940 12.000000
4.224239 3.504540 -0.855585 90.000000
10.770057 3.013133 -1.994118 5.000000
11.996619 -1.814318 -2.049972 5.000000
5.187881 -3.343361 -0.811448 10.000000
5.948994 -8.893214 -0.738801 16.000000
4.224922 3.479043 -0.859006 90.000000
10.780874 2.971572 -1.998022 1.000000
12.013569 -1.864093 -2.056259 4.000000
5.180105 -3.365285 -0.808866 10.000000
5.841084 -8.798199 -0.718099 38.000000
4.225591 3.453682 -0.861443 86.000000
10.791532 2.929972 -2.001925 1.000000
11.967727 -1.904067 -2.047473 4.000000
5.197242 -3.403571 -0.809073 10.000000
5.769710 -8.756873 -0.698369 17.000000
4.241353 3.440712 -0.867942 47.000000
10.719028 2.872155 -1.994694 3.000000
12.048965 -1.962299 -2.058206 5.000000
5.201638 -3.433757 -0.808393 10.000000
5.791384 -8.856907 -0.693600 26.000000
4.249380 3.421476 -0.872871 61.000000
10.658243 2.808070 -1.989120 4.000000
12.011808 -2.003623 -2.055343 4.000000
5.189486 -3.453111 -0.804041 10.000000
5.566422 -8.581371 -0.661456 32.000000
4.253462 3.399142 -0.876994 35.000000
10.686164 2.773582 -2.000380 1.000000
12.042911 -2.054206 -2.064132 1.000000
5.201856 -3.488917 -0.804599 24.000000
5.504394 -8.550977 -0.646935 56.000000
4.257557 3.376918 -0.880146 26.000000
10.672901 2.726441 -1.995923 1.000000
11.982217 -2.091232 -2.050724 1.000000
5.222485 -3.530573 -0.804195 11.000000
5.501858 -8.612947 -0.635840 76.000000
4.269057 3.360623 -0.886784 21.000000
10.638534 2.676163 -1.995559 1.000000
11.988679 -2.137668 -2.055343 1.000000
5.201543 -3.544263 -0.800732 10.000000
5.542728 -8.747435 -0.633379 83.000000
4.280489 3.344285 -0.893422 15.000000
10.642601 2.633777 -2.002319 1.000000
12.000900 -2.183097 -2.056543 6.000000
5.197270 -3.569315 -0.796493 9.000000
5.568241 -8.855922 -0.630660 77.000000
4.276506 3.316003 -0.894898 9.000000
10.551153 2.570143 -1.987245 1.000000
12.022221 -2.234699 -2.057262 5.000000
5.205119 -3.602851 -0.794102 9.000000
5.667158 -9.083453 -0.632324 1.000000
4.302365 3.313267 -0.903849 8.000000
10.569157 2.531578 -1.996634 1.000000
12.018440 -2.279599 -2.060227 3.000000
5.204427 -3.630658 -0.792647 9.000000
10.538718 2.483480 -1.996965 1.000000
12.028961 -2.329479 -2.063549 1.000000
5.215664 -3.666990 -0.794139 9.000000
6.035446 -9.825841 -0.654802 10.000000
10.442117 2.418432 -1.980755 1.000000
12.029893 -2.379801 -2.060929 1.000000
5.231094 -3.706563 -0.792871 10.000000
5.945202 -9.758945 -0.636883 9.000000
10.474958 2.383698 -1.987173 6.000000
12.002530 -2.417955 -2.055477 1.000000
5.222073 -3.728996 -0.787885 9.000000
5.361411 -8.870203 -0.564956 203.000000
10.419088 2.334671 -1.982805 4.000000
11.993587 -2.461930 -2.055477 5.000000
5.233000 -3.747842 -0.790323 9.000000
5.320446 -8.872237 -0.553034 216.000000
10.441023 2.297518 -1.993008 5.000000
12.027131 -2.516980 -2.065072 2.000000
5.263831 -3.799189 -0.793627 9.000000
4.582608 -7.702672 -0.468151 8.000000
10.348145 2.237348 -1.975613 5.000000
12.057113 -2.569417 -2.067399 1.000000
5.274514 -3.836380 -0.791576 9.000000
10.364923 2.199351 -1.984845 1.000000
12.008606 -2.607324 -2.060783 1.000000
5.288776 -3.876472 -0.792359 9.000000
4.532942 -7.744783 -0.448313 44.000000
10.265050 2.138872 -1.975573 5.000000
11.992638 -2.652117 -2.066387 2.000000
5.294831 -3.910823 -0.791912 9.000000
4.907241 -8.451832 -0.481406 6.000000
10.219221 2.088413 -1.970851 4.000000
11.930620 -2.684306 -2.052994 4.000000
5.292741 -3.939343 -0.790249 9.000000
4.573865 -7.941360 -0.441799 10.000000
10.196914 2.043097 -1.972542 7.000000
11.929139 -2.732138 -2.058921 3.000000
5.298236 -3.973692 -0.792066 9.000000
10.092390 2.023987 -1.969146 9.000000
11.795888 -2.701619 -2.057647 1.000000
5.283478 -3.949671 -0.800612 9.000000
4.329392 3.137413 -0.947576 1.000000
10.051223 2.054080 -1.962570 1.000000
11.727374 -2.640727 -2.052630 2.000000
5.256591 -3.901042 -0.802586 9.000000
4.545832 -7.899062 -0.453708 10.000000
10.004467 2.084576 -1.956837 2.000000
11.711864 -2.592169 -2.054703 5.000000
5.234214 -3.854767 -0.803917 9.000000
4.895311 -8.434672 -0.497444 10.000000
10.039622 2.132156 -1.965300 3.000000
11.662543 -2.534318 -2.052905 1.000000
5.203447 -3.802772 -0.805041 9.000000
4.542234 -7.766877 -0.473117 8.000000
9.982696 2.160159 -1.959463 2.000000
11.655892 -2.488170 -2.058684 1.000000
5.175850 -3.754957 -0.805541 9.000000
4.556300 -7.728892 -0.484332 8.000000
10.047317 2.212723 -1.970002 3.000000
11.606441 -2.431055 -2.054681 1.000000
5.180725 -3.729588 -0.812090 9.000000
4.633907 -7.798187 -0.502389 205.000000
9.982026 2.234906 -1.958718 2.000000
11.589740 -2.383248 -2.058673 1.000000
5.149274 -3.678368 -0.811777 9.000000
5.945836 -9.926903 -0.657069 22.000000
10.020453 2.287629 -1.968122 4.000000
11.553941 -2.329683 -2.059189 4.000000
5.148320 -3.634432 -0.819596 10.000000
5.848401 -9.687358 -0.658413 24.000000
10.022237 2.326716 -1.966411 1.000000
11.470248 -2.269090 -2.044880 5.000000
5.148953 -3.606675 -0.822050 10.000000
