VERSION .7
FIELDS x y z intensity
SIZE 4 4 4 4
TYPE F F F F
COUNT 1 1 1 1
WIDTH 1218
HEIGHT 1
VIEWPOINT 0 0 0 1 0 0 0
POINTS 1218
DATA ascii
22.871254 25.643087 3.975676 8.000000
38.834656 -17.452988 6.857724 12.000000
7.316627 -8.134500 1.275581 10.000000
22.010128 24.851692 3.852788 8.000000
39.068897 -17.394594 6.873010 18.000000
7.353303 -8.109564 1.266607 22.000000
25.026155 28.466629 4.419080 9.000000
39.274620 -17.313986 6.882622 15.000000
7.334974 -8.032822 1.254765 26.000000
22.500141 25.783310 4.013917 8.000000
39.439571 -17.214331 6.885018 20.000000
7.381920 -8.024966 1.248115 23.000000
21.968447 25.361069 3.953433 9.000000
39.686329 -17.157364 6.909859 18.000000
7.472507 -8.063925 1.252594 6.000000
21.832655 25.382803 3.968617 17.000000
39.914585 -17.082680 6.923110 19.000000
21.451200 25.125010 3.933534 20.000000
40.094391 -16.994289 6.928381 10.000000
7.480015 -7.957054 1.230762 8.000000
21.344797 25.186737 3.948457 21.000000
40.372662 -16.937948 6.950023 8.000000
7.475405 -7.893973 1.219470 8.000000
21.252218 25.255709 3.965146 14.000000
40.556412 -16.840494 6.947412 8.000000
15.788053 -16.550144 2.553482 16.000000
21.189995 25.369934 3.988418 9.000000
40.745090 -16.752333 6.953911 8.000000
15.839508 -16.482700 2.535859 21.000000
20.762459 25.044056 3.948240 11.000000
41.068104 -16.709436 6.990609 8.000000
15.887499 -16.417547 2.522243 28.000000
20.590366 25.022572 3.950147 19.000000
41.268791 -16.615053 6.998442 14.000000
7.792103 -7.993233 1.226472 9.000000
20.466606 25.049877 3.966076 9.000000
41.507755 -16.543123 7.013148 10.000000
7.755628 -7.897697 1.210301 8.000000
20.582247 25.362606 4.022122 9.000000
41.696770 -16.458431 7.027808 20.000000
7.593517 -7.681496 1.175298 16.000000
20.599842 25.593584 4.068892 10.000000
41.872383 -16.342201 7.030704 15.000000
7.603816 -7.630404 1.164533 6.000000
20.239557 25.326443 4.032402 10.000000
42.132462 -16.266012 7.048165 9.000000
7.909024 -7.881465 1.201141 3.000000
19.956772 25.161135 4.017177 18.000000
42.414478 -16.196514 7.077248 13.000000
16.071001 -15.898030 2.419859 25.000000
19.869688 25.240803 4.029632 23.000000
42.630203 -16.108610 7.087523 10.000000
16.109379 -15.819592 2.396964 28.000000
19.817629 25.365408 4.066437 10.000000
42.884495 -16.025326 7.111805 9.000000
16.107321 -15.702019 2.380138 30.000000
19.575766 25.218742 4.044368 8.000000
47.116341 -17.428864 7.777035 13.000000
16.160494 -15.649673 2.364434 31.000000
19.469366 25.272362 4.064126 20.000000
47.292896 -17.306744 7.796158 9.000000
16.161852 -15.542036 2.348768 24.000000
19.799608 25.896812 4.175978 9.000000
16.201609 -15.466372 2.334435 24.000000
19.639843 25.883919 4.185321 8.000000
16.282505 -15.419147 2.325286 25.000000
19.524622 25.919458 4.191538 23.000000
46.565990 -16.471592 7.602366 9.000000
16.287338 -15.321598 2.306873 23.000000
19.448517 26.016298 4.218700 25.000000
44.898487 -15.705635 7.312636 9.000000
16.318817 -15.238857 2.291591 27.000000
19.538681 26.347263 4.283459 9.000000
44.846794 -15.485779 7.277081 9.000000
16.353130 -15.153771 2.268563 24.000000
19.391073 26.330263 4.287633 8.000000
44.010471 -15.033834 7.124939 9.000000
16.363325 -15.062670 2.259114 27.000000
19.152271 26.206629 4.279093 25.000000
44.120052 -14.899490 7.125897 9.000000
16.413799 -14.987858 2.242081 27.000000
19.121262 26.366512 4.316863 17.000000
44.458523 -14.815242 7.154161 9.000000
16.458429 -14.918359 2.228945 27.000000
19.001722 26.395058 4.327980 10.000000
16.443592 -14.795486 2.207878 20.000000
44.148285 -14.378730 7.063448 9.000000
16.486856 -14.740952 2.199662 17.000000
19.832508 27.979382 4.618635 9.000000
44.288921 -14.245201 7.085856 9.000000
16.534477 -14.674836 2.183239 26.000000
19.807777 28.162716 4.661359 8.000000
16.543634 -14.574914 2.173494 27.000000
45.063026 -14.139173 7.168034 9.000000
16.586559 -14.505100 2.160485 31.000000
45.316345 -14.045088 7.192014 12.000000
16.646744 -14.445308 2.149433 28.000000
18.845850 27.420883 4.569622 8.000000
45.051975 -13.782371 7.133582 9.000000
16.642630 -14.345268 2.131135 24.000000
45.142433 -13.629304 7.123110 9.000000
16.665688 -14.259013 2.115789 31.000000
18.818115 27.804691 4.652823 10.000000
45.437290 -13.528176 7.152924 9.000000
16.723635 -14.192714 2.104305 29.000000
18.628683 27.743319 4.654877 9.000000
45.573215 -13.404284 7.158806 9.000000
16.738314 -14.099963 2.088071 30.000000
18.524881 27.797905 4.670989 8.000000
45.841671 -13.300886 7.184750 19.000000
16.759092 -14.022719 2.073305 35.000000
46.225300 -13.237431 7.237590 9.000000
16.797285 -13.955283 2.060454 25.000000
46.112938 -13.022573 7.203922 9.000000
16.846317 -13.882094 2.048085 28.000000
20.855827 32.053886 5.428961 10.000000
46.357040 -12.916958 7.209204 9.000000
16.866119 -13.804759 2.033404 34.000000
20.940443 32.431015 5.507919 17.000000
46.345638 -12.730912 7.208703 9.000000
16.894619 -13.715202 2.026355 22.000000
20.889984 32.589516 5.543725 9.000000
45.787041 -12.397167 7.106237 9.000000
16.929205 -13.650393 2.013578 30.000000
21.282940 33.471947 5.715855 10.000000
45.693874 -12.200909 7.068246 8.000000
16.919266 -13.545195 1.995315 15.000000
21.150059 33.533787 5.741395 10.000000
45.538616 -11.980818 7.028987 10.000000
16.961819 -13.477545 1.983055 21.000000
20.890467 33.405781 5.733789 10.000000
45.540676 -11.811545 7.031294 28.000000
16.999916 -13.406464 1.974131 25.000000
20.699181 33.345364 5.739589 10.000000
45.810043 -11.702381 7.057776 9.000000
17.041637 -13.338352 1.965669 23.000000
20.517136 33.324059 5.757825 10.000000
45.810658 -11.523843 7.042889 23.000000
17.063692 -13.255046 1.951190 13.000000
20.797213 34.071304 5.894450 10.000000
45.784592 -11.347503 7.024333 23.000000
17.061428 -13.153305 1.937824 10.000000
20.453886 33.760082 5.857002 10.000000
46.064907 -11.237931 7.069432 6.000000
17.107771 -13.094079 1.930304 22.000000
20.238754 33.682945 5.858751 10.000000
83.429558 -20.045067 12.777541 1.000000
17.148521 -13.025873 1.918136 15.000000
19.991043 33.548599 5.857442 10.000000
83.309952 -19.693640 12.748082 1.000000
17.188461 -12.957138 1.913492 16.000000
19.708706 33.338882 5.829516 20.000000
83.332916 -19.376846 12.710118 1.000000
17.216959 -12.879931 1.896268 13.000000
19.448792 33.176189 5.822889 9.000000
83.510941 -19.111219 12.727017 1.000000
17.248322 -12.805064 1.890762 10.000000
19.205770 33.038597 5.813640 9.000000
83.747124 -18.842514 12.767715 1.000000
17.285425 -12.739259 1.882390 20.000000
83.978752 -18.586889 12.777714 2.000000
17.288303 -12.643860 1.870110 10.000000
19.609449 34.295525 6.073476 10.000000
84.633698 -18.406715 12.882466 18.000000
17.371601 -12.607316 1.862786 10.000000
19.474211 34.350574 6.098765 10.000000
84.893097 -18.153013 12.896740 9.000000
17.357323 -12.500085 1.852568 21.000000
19.292305 34.322315 6.116337 10.000000
84.997787 -17.849876 12.902618 20.000000
17.413797 -12.448675 1.842655 19.000000
19.066334 34.199234 6.117505 9.000000
84.892677 -17.518629 12.892765 12.000000
17.435190 -12.367659 1.836351 18.000000
18.910116 34.213264 6.135536 9.000000
17.436373 -12.272683 1.820479 21.000000
18.703693 34.134705 6.143920 1.000000
85.593483 -17.025604 13.011501 4.000000
17.489666 -12.214579 1.817607 24.000000
86.007401 -16.780468 13.080619 3.000000
17.503275 -12.133406 1.818353 12.000000
86.121849 -16.490942 13.136130 3.000000
17.522999 -12.052233 1.815800 15.000000
85.644730 -16.399582 13.172302 1.000000
17.531631 -12.062676 1.839363 15.000000
85.508362 -16.729584 13.208217 16.000000
17.498524 -12.134635 1.855521 10.000000
85.537735 -17.030033 13.268124 10.000000
17.440615 -12.189383 1.869074 13.000000
18.937277 34.290668 6.232322 9.000000
85.426598 -17.333662 13.291783 18.000000
17.415112 -12.266810 1.886134 13.000000
19.063244 34.235828 6.213377 10.000000
85.420052 -17.674095 13.316806 4.000000
17.422020 -12.367461 1.903054 21.000000
19.216261 34.214985 6.208292 10.000000
85.146179 -17.912075 13.329921 13.000000
17.367388 -12.424661 1.917075 14.000000
19.399658 34.246929 6.198785 10.000000
85.111771 -18.230846 13.381554 14.000000
17.341387 -12.502401 1.926773 14.000000
19.567234 34.263313 6.192906 10.000000
84.032974 -18.322151 13.237777 1.000000
17.330612 -12.591426 1.945768 11.000000
19.677578 34.165138 6.159956 7.000000
83.492126 -18.540339 13.209540 1.000000
17.262880 -12.639146 1.962178 16.000000
19.217331 33.098362 5.965989 10.000000
17.231358 -12.713339 1.978955 27.000000
19.452959 33.223156 5.973767 12.000000
83.257591 -19.099123 13.239003 1.000000
17.232315 -12.811852 1.988224 25.000000
19.701000 33.379017 5.993340 10.000000
17.184126 -12.874089 2.003214 23.000000
20.039639 33.670231 6.037771 10.000000
17.159542 -12.954136 2.021012 21.000000
20.235741 33.717907 6.038502 3.000000
17.141111 -13.034403 2.035563 22.000000
20.741781 34.289257 6.125120 10.000000
46.066830 -11.272481 7.401268 9.000000
17.104227 -13.105574 2.048257 27.000000
20.796915 34.097572 6.083055 10.000000
45.784542 -11.389909 7.388194 17.000000
17.078581 -13.185549 2.066160 26.000000
20.374369 33.143982 5.897796 9.000000
45.613453 -11.508101 7.391941 17.000000
17.053139 -13.265948 2.076561 27.000000
20.470749 33.028809 5.876739 9.000000
45.584068 -11.678562 7.402482 13.000000
16.999050 -13.324168 2.094932 33.000000
20.900387 33.447609 5.936684 10.000000
45.485065 -11.839495 7.402139 9.000000
17.008108 -13.432195 2.109738 21.000000
21.137238 33.565369 5.949405 10.000000
45.280041 -11.963502 7.400992 25.000000
16.973473 -13.506147 2.123034 31.000000
21.216728 33.419319 5.916071 10.000000
45.219791 -12.108148 7.406042 22.000000
16.914930 -13.561111 2.137195 28.000000
20.949396 32.732479 5.780302 10.000000
45.319443 -12.321514 7.438458 17.000000
16.899075 -13.650450 2.152985 23.000000
20.778862 32.217777 5.674830 9.000000
45.234234 -12.459584 7.439608 9.000000
16.882784 -13.739848 2.168820 25.000000
20.816601 32.042507 5.642457 9.000000
16.849232 -13.810591 2.182211 37.000000
46.372871 -13.130941 7.685259 9.000000
16.820335 -13.890285 2.200430 31.000000
46.166534 -13.255482 7.667660 9.000000
16.787544 -13.967010 2.214374 27.000000
16.735348 -14.027699 2.225808 28.000000
16.708405 -14.119696 2.241319 34.000000
18.711575 27.699316 4.834795 10.000000
16.694387 -14.203013 2.261208 23.000000
18.903997 27.764238 4.834250 8.000000
16.682854 -14.298936 2.278357 33.000000
45.212036 -13.865861 7.617043 9.000000
16.646994 -14.369299 2.291934 24.000000
18.969942 27.436981 4.765133 8.000000
45.301060 -14.075024 7.649175 9.000000
16.615822 -14.449006 2.306574 30.000000
43.983746 -13.834270 7.443109 9.000000
16.576801 -14.522118 2.320197 23.000000
44.056004 -14.034651 7.488835 9.000000
16.534040 -14.592111 2.329465 25.000000
19.891506 28.114586 4.852463 11.000000
44.091022 -14.224017 7.520195 10.000000
16.516693 -14.684839 2.346290 23.000000
19.998274 28.046898 4.841136 8.000000
43.955402 -14.349859 7.513845 10.000000
16.464930 -14.747220 2.366108 27.000000
19.121574 26.620291 4.583053 8.000000
44.360474 -14.662236 7.600595 9.000000
16.454136 -14.846600 2.384099 26.000000
19.147823 26.451681 4.548645 23.000000
44.182243 -14.783173 7.595984 9.000000
16.449114 -14.946563 2.402689 24.000000
19.243593 26.379883 4.525161 24.000000
44.596535 -15.095096 7.684659 9.000000
16.363956 -14.979050 2.410005 23.000000
19.300482 26.255209 4.498490 17.000000
44.611790 -15.282728 7.722239 22.000000
16.366482 -15.091980 2.430302 27.000000
44.650822 -15.479191 7.755703 9.000000
16.357464 -15.194973 2.449047 20.000000
19.549921 26.199591 4.477935 9.000000
44.534710 -15.613289 7.753414 10.000000
16.275005 -15.229881 2.460792 20.000000
19.615406 26.087317 4.441989 20.000000
46.766945 -16.588606 8.170362 9.000000
16.271753 -15.333725 2.476278 21.000000
19.611559 25.893534 4.409075 9.000000
46.707413 -16.751270 8.179022 9.000000
16.268560 -15.443685 2.496279 25.000000
19.494761 25.544256 4.338893 8.000000
46.890152 -17.011032 8.230828 9.000000
16.210585 -15.502001 2.511939 29.000000
19.486473 25.340277 4.304987 11.000000
46.914696 -17.214779 8.281999 9.000000
16.170599 -15.577631 2.526478 30.000000
19.588779 25.290140 4.285325 16.000000
16.151665 -15.673933 2.544413 22.000000
19.853739 25.457386 4.307590 19.000000
42.830994 -16.064995 7.589393 9.000000
16.099451 -15.732756 2.556761 26.000000
19.930050 25.344776 4.279130 32.000000
42.526501 -16.120338 7.569835 10.000000
16.076126 -15.825566 2.574216 22.000000
19.958235 25.199091 4.249144 23.000000
42.271244 -16.201021 7.551158 18.000000
16.083752 -15.949569 2.600801 25.000000
20.283749 25.418108 4.281259 8.000000
42.012611 -16.278749 7.523648 20.000000
7.934800 -7.926496 1.293725 1.000000
20.593365 25.631296 4.305295 12.000000
41.839401 -16.362997 7.517918 8.000000
7.681153 -7.729567 1.262762 19.000000
20.439022 25.249102 4.236353 8.000000
41.584160 -16.455938 7.491889 9.000000
7.726917 -7.830096 1.280609 8.000000
20.565899 25.207298 4.219462 15.000000
41.437042 -16.565247 7.491771 12.000000
15.920156 -16.251453 2.660432 17.000000
20.641335 25.129171 4.200505 28.000000
41.149609 -16.625521 7.466700 8.000000
15.866436 -16.315813 2.673510 22.000000
20.769474 25.097061 4.190495 22.000000
40.931988 -16.712370 7.446213 9.000000
15.864182 -16.433580 2.695387 30.000000
21.200632 25.418715 4.240146 10.000000
40.823006 -16.834366 7.468738 21.000000
15.802211 -16.489910 2.715319 30.000000
21.311749 25.380356 4.227876 14.000000
7.546646 -7.930301 1.307314 10.000000
21.361208 25.250746 4.201701 22.000000
40.486732 -17.035686 7.437214 8.000000
7.540922 -7.982670 1.317214 9.000000
21.725794 25.491642 4.231250 10.000000
40.418549 -17.164984 7.450873 8.000000
7.467155 -7.962845 1.313284 16.000000
21.914238 25.522671 4.231810 13.000000
7.433754 -7.985685 1.322208 10.000000
7.452530 -8.062100 1.336378 22.000000
22.411589 25.727119 4.261947 8.000000
39.367188 -17.240028 7.346137 21.000000
7.395612 -8.059590 1.337273 7.000000
21.994320 25.062063 4.135551 6.000000
39.200127 -17.313839 7.325076 24.000000
22.132395 25.042530 4.127284 8.000000
38.928196 -17.364523 7.293763 13.000000
7.262014 -8.031392 1.337154 9.000000
38.778763 -17.468559 7.308278 13.000000
7.003365 -7.802638 1.300360 30.000000
25.066072 27.966038 4.591263 15.000000
38.591946 -17.546707 7.284569 9.000000
6.929564 -7.774841 1.295380 14.000000
25.003700 27.691568 4.541391 9.000000
38.377285 -17.619127 7.271367 24.000000
7.005095 -7.912253 1.321889 30.000000
24.959660 27.439928 4.495387 21.000000
6.811844 -7.751031 1.296262 36.000000
25.026705 27.321426 4.470574 19.000000
6.921443 -7.931404 1.326111 71.000000
25.118685 27.220860 4.442920 21.000000
6.830011 -7.884780 1.321520 50.000000
25.175396 27.082472 4.422271 26.000000
6.751957 -7.852646 1.319325 40.000000
25.167995 26.876295 4.377566 11.000000
6.851620 -8.027889 1.348283 38.000000
25.110449 26.627934 4.325453 25.000000
99.547798 41.764286 18.336548 1.000000
6.816534 -8.043470 1.354377 54.000000
25.341774 26.676670 4.341917 21.000000
99.910995 41.486671 18.336464 1.000000
6.668289 -7.927269 1.338038 40.000000
25.578806 26.729305 4.339528 18.000000
99.303841 40.808487 18.178188 1.000000
6.731053 -8.061679 1.360279 10.000000
25.709715 26.669725 4.318910 18.000000
99.338676 40.418064 18.081617 1.000000
26.330715 -13.122273 5.139797 33.000000
6.615431 -7.982489 1.350177 39.000000
99.687386 40.134716 18.118193 1.000000
26.237535 -13.190370 5.151695 18.000000
6.650079 -8.081551 1.368571 39.000000
25.541706 -12.969259 5.035559 9.000000
6.481832 -7.936192 1.347200 25.000000
27.292105 27.724211 4.473780 9.000000
99.564659 39.259716 17.948326 1.000000
24.654753 -12.616474 4.868486 14.000000
6.617697 -8.163432 1.387246 24.000000
27.471851 27.683634 4.457406 9.000000
100.000237 39.008572 17.981689 22.000000
23.946161 -12.364828 4.747179 32.000000
6.627670 -8.237269 1.401289 24.000000
26.507053 26.516310 4.265180 9.000000
100.367073 38.748558 17.984615 17.000000
23.143763 -12.058150 4.606232 9.000000
6.604758 -8.267716 1.406296 170.000000
30.495842 30.294254 4.867163 11.000000
100.357620 38.322849 17.919088 29.000000
22.520422 -11.833515 4.499522 9.000000
6.555324 -8.267796 1.409711 17.000000
30.555418 30.131733 4.836256 5.000000
100.613670 38.018738 17.921705 21.000000
21.879585 -11.599317 4.388864 16.000000
6.515326 -8.279503 1.413241 33.000000
100.776665 37.658806 17.887442 31.000000
21.155998 -11.310491 4.260250 10.000000
6.662718 -8.527890 1.459352 31.000000
101.018730 37.327881 17.886686 34.000000
20.874794 -11.258724 4.220445 32.000000
6.630947 -8.551647 1.465018 31.000000
32.883060 31.721544 5.068410 8.000000
101.404449 37.068626 17.893236 32.000000
78.790131 -5.841291 14.985541 1.000000
20.107603 -10.935721 4.081271 101.000000
6.568719 -8.535817 1.465830 42.000000
101.598236 36.717892 17.884193 23.000000
19.613031 -10.760077 3.996923 10.000000
6.478265 -8.479352 1.457932 32.000000
26.223192 24.937122 3.975930 15.000000
101.898895 36.424904 17.875818 25.000000
19.148968 -10.601342 3.914561 15.000000
6.401635 -8.443019 1.455177 29.000000
102.267227 36.134396 17.897635 29.000000
18.597353 -10.376678 3.812645 9.000000
6.334602 -8.418523 1.450691 21.000000
26.987564 25.307579 4.019196 9.000000
102.979179 36.002277 17.962124 14.000000
18.224718 -10.252344 3.754866 14.000000
6.352149 -8.503462 1.467161 22.000000
103.032265 35.577457 17.888809 25.000000
18.148497 -10.297215 3.746913 13.000000
6.258392 -8.442314 1.460121 27.000000
103.418777 35.327515 17.915888 25.000000
79.627632 -7.597142 15.143041 1.000000
18.136936 -10.374514 3.759509 18.000000
6.526429 -8.871669 1.534150 15.000000
31.092392 28.530888 4.517212 21.000000
103.981812 35.054367 17.949577 23.000000
79.603256 -7.917399 15.187718 1.000000
18.113560 -10.449439 3.777651 20.000000
6.484318 -8.882446 1.541679 7.000000
33.629318 30.632528 4.829294 13.000000
104.452950 34.807629 17.990091 20.000000
18.076973 -10.512604 3.777651 19.000000
6.470389 -8.928646 1.549692 27.000000
18.058405 -10.590567 3.789403 18.000000
6.451440 -8.971519 1.560887 3.000000
33.912216 30.438375 4.789494 10.000000
18.026226 -10.660680 3.802150 12.000000
6.375148 -8.927736 1.555442 1.000000
78.486145 -8.942367 14.997465 1.000000
17.997355 -10.728576 3.803936 24.000000
6.134193 -8.660425 1.512313 1.000000
78.662903 -9.212931 15.008058 1.000000
17.977854 -10.806455 3.815724 22.000000
14.341657 -20.406115 3.563066 12.000000
17.962980 -10.883054 3.835757 22.000000
14.297615 -20.487530 3.591233 11.000000
17.917057 -10.940910 3.830296 10.000000
6.013564 -8.687928 1.520720 8.000000
30.030676 25.985878 4.061893 8.000000
80.293304 -10.285810 15.339459 1.000000
17.887915 -11.004719 3.839423 16.000000
14.232949 -20.709068 3.634506 17.000000
30.048082 25.808952 4.030470 20.000000
80.198479 -10.558329 15.328289 1.000000
17.854990 -11.083510 3.849456 12.000000
14.185698 -20.811056 3.656283 16.000000
30.193289 25.741968 4.016275 10.000000
80.171181 -10.853818 15.345202 1.000000
17.856173 -11.170779 3.869493 10.000000
14.166099 -20.946857 3.689023 22.000000
30.148533 25.513586 3.976965 10.000000
17.784851 -11.217066 3.870509 12.000000
14.107085 -21.025251 3.711752 15.000000
32.365871 27.187082 4.226480 11.000000
17.765768 -11.291904 3.878709 12.000000
14.065791 -21.122694 3.729314 23.000000
32.386745 27.002777 4.193955 8.000000
17.760378 -11.380087 3.894227 17.000000
14.044096 -21.258596 3.762368 15.000000
17.702885 -11.430608 3.897952 17.000000
13.996853 -21.340624 3.782305 16.000000
25.997257 21.361986 3.305151 7.000000
17.691151 -11.510730 3.908002 31.000000
13.961660 -21.449863 3.806702 16.000000
26.022728 21.223619 3.280725 18.000000
9.993376 -6.554439 2.217159 1.000000
13.943564 -21.594767 3.837080 12.000000
26.133059 21.154581 3.261143 7.000000
86.350151 -13.892891 16.589106 1.000000
9.953708 -6.578227 2.215593 5.000000
13.887239 -21.681507 3.857206 26.000000
32.000366 25.710571 3.959843 10.000000
86.427544 -14.230509 16.598043 1.000000
9.928885 -6.614235 2.219757 2.000000
13.818343 -21.740662 3.872917 10.000000
32.127132 25.619225 3.942169 10.000000
17.778324 -11.933031 3.987776 21.000000
13.777312 -21.869535 3.899831 16.000000
31.375154 24.849815 3.811568 10.000000
17.766003 -12.010408 4.001670 14.000000
13.749042 -21.977451 3.929866 10.000000
31.409678 24.672626 3.782597 10.000000
85.811897 -15.038314 16.508677 1.000000
17.764017 -12.099627 4.014594 20.000000
13.725014 -22.118937 3.955440 10.000000
31.513750 24.568136 3.756115 23.000000
85.734337 -15.379702 16.489752 2.000000
17.730350 -12.181176 4.025775 10.000000
13.681268 -22.247282 3.987194 10.000000
34.036545 26.353909 4.031209 11.000000
85.999725 -15.706339 16.550203 1.000000
17.646955 -12.205666 4.019403 10.000000
13.645914 -22.346825 4.016039 15.000000
34.131733 26.228079 3.993180 11.000000
85.654633 -15.967944 16.479195 12.000000
17.682156 -12.326068 4.041577 18.000000
13.589154 -22.438360 4.028198 11.000000
34.211235 26.071413 3.959919 11.000000
85.253670 -16.201332 16.397146 1.000000
17.590759 -12.353821 4.030519 10.000000
13.537292 -22.529837 4.054896 14.000000
60.034424 45.436630 6.891698 2.000000
17.575724 -12.439702 4.049167 13.000000
13.499063 -22.653881 4.082427 18.000000
59.974411 45.046432 6.799810 3.000000
85.394638 -16.862133 16.399847 1.000000
17.551624 -12.514832 4.057549 21.000000
13.471980 -22.788952 4.107732 23.000000
60.007149 44.727951 6.732213 14.000000
85.657806 -17.240530 16.446621 5.000000
17.384686 -12.487564 4.025141 17.000000
13.430116 -22.909397 4.130034 10.000000
60.125465 44.474266 6.687681 7.000000
85.372871 -17.493481 16.419289 9.000000
17.317762 -12.535969 4.027984 23.000000
13.358910 -22.971346 4.147023 10.000000
60.149136 44.151619 6.593517 14.000000
85.393547 -17.824087 16.388426 2.000000
17.278435 -12.599652 4.025177 27.000000
13.345466 -23.143002 4.178706 23.000000
60.210514 43.857986 6.517071 15.000000
17.242270 -12.665707 4.027027 23.000000
13.288403 -23.231056 4.195776 22.000000
60.369122 43.957394 6.388964 6.000000
17.251240 -12.667661 3.982210 24.000000
13.268360 -23.186626 4.149961 19.000000
60.188091 44.147888 6.372954 20.000000
17.275990 -12.593249 3.946876 24.000000
13.348727 -23.129995 4.110374 10.000000
60.110012 44.430382 6.381886 12.000000
85.344765 -17.503242 15.926860 12.000000
17.297478 -12.512085 3.918168 17.000000
13.368443 -22.969286 4.062009 13.000000
59.921688 44.615467 6.391521 9.000000
85.281494 -17.164789 15.856136 1.000000
17.393385 -12.484612 3.914053 21.000000
13.414293 -22.854971 4.026797 12.000000
59.957657 44.952061 6.398049 17.000000
85.450966 -16.888752 15.798062 15.000000
17.606642 -12.540159 3.928285 16.000000
13.477093 -22.770376 3.996948 24.000000
59.797768 45.175499 6.438141 17.000000
85.539139 -16.580648 15.787315 5.000000
17.555573 -12.411647 3.895572 14.000000
13.491287 -22.604927 3.953065 10.000000
59.730892 45.453339 6.447984 18.000000
17.611221 -12.354426 3.882337 18.000000
13.552873 -22.520140 3.923447 11.000000
59.604691 45.703239 6.492020 17.000000
85.797585 -15.994594 15.719108 18.000000
17.681246 -12.311684 3.868864 12.000000
13.562687 -22.350616 3.879227 14.000000
59.550198 46.009022 6.517640 20.000000
85.993828 -15.720772 15.713409 6.000000
17.639380 -12.186777 3.834456 12.000000
13.629128 -22.284344 3.857322 20.000000
86.034187 -15.402495 15.694616 5.000000
17.782471 -12.189592 3.848057 22.000000
13.686509 -22.194990 3.827264 10.000000
31.392521 24.623728 3.490587 9.000000
86.119751 -15.107758 15.653255 4.000000
17.766628 -12.087791 3.816128 27.000000
13.727726 -22.080276 3.792959 10.000000
31.399694 24.806883 3.508030 13.000000
17.755884 -11.985516 3.788934 13.000000
13.752498 -21.940371 3.754484 9.000000
31.494658 25.069935 3.543041 10.000000
17.827345 -11.943382 3.787539 9.000000
13.788929 -21.820358 3.728773 10.000000
31.731846 25.449291 3.594503 15.000000
86.192314 -14.160877 15.543291 19.000000
9.916796 -6.591198 2.093172 4.000000
13.855774 -21.757587 3.707906 12.000000
31.486866 25.433931 3.591027 10.000000
86.414505 -13.918718 15.528122 13.000000
9.954743 -6.563943 2.085364 1.000000
13.883688 -21.626064 3.671252 28.000000
26.011265 21.168949 2.993071 8.000000
17.664927 -11.568412 3.685300 10.000000
13.926937 -21.519531 3.638985 11.000000
17.704037 -11.492743 3.676213 27.000000
13.974642 -21.420708 3.612697 23.000000
32.492413 26.841877 3.783630 10.000000
17.727638 -11.424685 3.658059 22.000000
14.012977 -21.316500 3.580647 26.000000
32.503284 27.051895 3.818738 10.000000
17.786514 -11.366205 3.642203 19.000000
14.054092 -21.209282 3.553155 28.000000
32.213516 27.001621 3.803140 10.000000
17.820803 -11.296342 3.633138 17.000000
14.072935 -21.069595 3.515831 15.000000
32.607380 27.535866 3.884059 9.000000
17.823915 -11.219974 3.618999 23.000000
14.121634 -20.991459 3.497087 15.000000
32.428833 27.589340 3.897290 11.000000
80.478127 -10.895373 14.261467 4.000000
17.854757 -11.139566 3.597248 21.000000
14.156228 -20.869411 3.467844 26.000000
32.281097 27.668247 3.906662 11.000000
17.872776 -11.068640 3.578360 18.000000
14.211958 -20.787157 3.440422 12.000000
32.250610 27.837978 3.937204 11.000000
17.898706 -10.998443 3.575843 14.000000
5.934477 -8.612158 1.421526 15.000000
31.711523 27.576126 3.898500 1.000000
17.940632 -10.925237 3.560341 16.000000
6.023095 -8.672556 1.427623 5.000000
31.451427 27.553041 3.900996 9.000000
17.976458 -10.869784 3.549342 27.000000
6.056885 -8.656557 1.419073 6.000000
18.005148 -10.788668 3.531357 17.000000
6.114704 -8.671357 1.419508 4.000000
33.926704 30.153320 4.266633 7.000000
18.035278 -10.721342 3.522374 14.000000
14.404622 -20.269274 3.304632 12.000000
33.873066 30.328594 4.305862 8.000000
18.046307 -10.647065 3.510093 19.000000
6.413177 -8.954528 1.455913 10.000000
33.737823 30.431026 4.326824 13.000000
18.069242 -10.571508 3.499482 19.000000
6.465292 -8.961051 1.452786 89.000000
33.677074 30.600828 4.341402 13.000000
79.625153 -8.186325 13.883705 1.000000
18.120867 -10.508525 3.482852 19.000000
6.443292 -8.861924 1.432754 37.000000
30.682270 28.075741 3.989918 10.000000
104.630867 35.191849 16.419205 12.000000
79.519753 -7.881063 13.845833 1.000000
18.126743 -10.431761 3.469811 22.000000
6.400127 -8.735065 1.408338 24.000000
31.027243 28.581022 4.061943 24.000000
104.019974 35.370773 16.322058 26.000000
79.144630 -7.564999 13.775834 1.000000
18.146959 -10.359240 3.459244 19.000000
6.426791 -8.704358 1.399495 30.000000
103.517937 35.644085 16.303699 28.000000
79.115211 -7.269667 13.723141 3.000000
18.178318 -10.288986 3.443029 24.000000
6.197138 -8.332295 1.337616 41.000000
27.070910 25.323647 3.615066 15.000000
78.845787 -6.967451 13.700560 1.000000
18.346029 -10.295312 3.460081 10.000000
6.320399 -8.433298 1.350062 22.000000
27.345856 25.742411 3.669181 16.000000
18.836662 -10.484351 3.530235 10.000000
6.360940 -8.422887 1.342757 37.000000
26.354469 24.991980 3.567627 9.000000
102.320366 36.434643 16.232430 27.000000
19.337223 -10.670319 3.616693 13.000000
6.407355 -8.419998 1.338526 31.000000
102.350960 36.868793 16.278023 1.000000
19.861408 -10.869298 3.691386 14.000000
6.416008 -8.370576 1.328611 28.000000
20.883202 -11.329217 3.860781 14.000000
6.514154 -8.440503 1.333681 26.000000
32.956223 31.936802 4.580626 12.000000
101.599266 37.421524 16.219969 19.000000
79.162315 -5.591108 13.650720 2.000000
20.982872 -11.283945 3.858732 27.000000
6.530272 -8.391525 1.322534 36.000000
32.865707 32.083500 4.608649 13.000000
79.118362 -5.296647 13.639701 1.000000
21.519224 -11.475720 3.945608 9.000000
6.509360 -8.301695 1.306519 31.000000
30.667610 30.158026 4.338637 23.000000
22.225681 -11.748034 4.058212 10.000000
6.480425 -8.205641 1.287543 34.000000
30.587059 30.300131 4.365697 15.000000
22.854969 -11.978781 4.146973 22.000000
6.588269 -8.279623 1.295434 18.000000
23.868225 -12.398550 4.312920 24.000000
6.618995 -8.255948 1.289893 128.000000
26.275282 26.404003 3.816561 25.000000
24.180397 -12.443046 4.350927 23.000000
6.727750 -8.328864 1.297544 38.000000
27.431765 27.768970 4.019954 10.000000
25.172794 -12.848324 4.511686 23.000000
6.512997 -8.005672 1.243419 26.000000
27.335291 27.874926 4.041421 9.000000
25.719021 -13.008520 4.590693 25.000000
6.533403 -7.970899 1.234430 31.000000
100.014488 40.124481 16.374590 32.000000
26.321894 -13.198265 4.679512 27.000000
6.528345 -7.905450 1.220732 35.000000
26.077509 26.975769 3.930239 9.000000
100.030510 40.597843 16.442320 1.000000
6.538630 -7.859059 1.211832 31.000000
25.863440 26.932482 3.918004 9.000000
25.427408 26.692080 3.894173 9.000000
99.799454 41.297478 16.469452 24.000000
25.226755 26.667221 3.897112 28.000000
99.632988 41.656948 16.505640 33.000000
25.256304 26.895231 3.942928 22.000000
99.559052 42.034912 16.556208 1.000000
25.362251 27.188169 3.993214 9.000000
99.856262 42.592304 16.650871 10.000000
6.803370 -7.887343 1.199662 14.000000
25.289099 27.328873 4.012084 9.000000
99.466400 42.837002 16.610695 32.000000
7.097991 -8.165304 1.240336 57.000000
25.201736 27.425890 4.039695 16.000000
99.507339 43.287674 16.682688 21.000000
6.935336 -7.919381 1.199388 127.000000
25.146513 27.567919 4.066781 29.000000
99.419579 43.683540 16.733511 31.000000
38.245701 -17.647701 6.535725 9.000000
6.935149 -7.860849 1.188805 33.000000
25.033501 27.627481 4.083052 28.000000
99.496025 44.132126 16.811100 31.000000
38.502373 -17.603384 6.553914 18.000000
6.961591 -7.838273 1.183316 4.000000
22.960335 25.544830 3.785875 8.000000
99.477058 44.560760 16.874338 33.000000
38.697170 -17.521250 6.576097 19.000000
7.221336 -8.073789 1.215011 10.000000
23.050306 25.789421 3.824791 8.000000
99.659637 44.998055 16.927883 29.000000
38.914398 -17.480661 6.581298 14.000000
7.298512 -8.105818 1.215757 24.000000
99.763634 45.464905 17.031185 29.000000
39.004364 -17.357706 6.570970 13.000000
7.351827 -8.105093 1.215814 26.000000
22.643627 25.711279 3.836912 8.000000
99.696075 45.918331 17.090223 37.000000
39.333649 -17.315414 6.599323 21.000000
7.361398 -8.050467 1.204334 24.000000
22.365221 25.583601 3.817611 9.000000
39.487148 -17.210491 6.583673 23.000000
7.388622 -8.026628 1.196718 26.000000
21.900444 25.246927 3.778425 32.000000
39.719418 -17.146990 6.612379 11.000000
7.521366 -8.108131 1.205353 27.000000
21.604513 25.073273 3.759246 18.000000
39.969406 -17.081387 6.635766 24.000000
7.486979 -8.011964 1.189319 1.000000
21.440659 25.086048 3.771564 22.000000
40.153828 -16.994684 6.640920 9.000000
21.311064 25.102488 3.780858 12.000000
40.391235 -16.920874 6.654243 10.000000
7.428824 -7.836560 1.157797 9.000000
21.340048 25.315208 3.825076 8.000000
40.584621 -16.835602 6.660688 19.000000
15.836049 -16.583063 2.446447 21.000000
21.245832 25.391714 3.842412 8.000000
40.855080 -16.772552 6.671288 11.000000
15.853091 -16.479555 2.423588 15.000000
20.763805 25.001245 3.794779 8.000000
41.069595 -16.684984 6.680459 10.000000
7.731153 -7.983505 1.171985 14.000000
20.582323 24.968353 3.795485 18.000000
41.297306 -16.609785 6.708028 17.000000
7.739954 -7.934195 1.163035 16.000000
20.688353 25.276228 3.854403 8.000000
41.483032 -16.508102 6.720353 18.000000
20.657339 25.427916 3.877558 9.000000
41.762718 -16.459194 6.724739 19.000000
20.559198 25.515722 3.907331 23.000000
41.968437 -16.354372 6.747703 12.000000
20.381044 25.457907 3.911746 20.000000
42.273743 -16.295128 6.779057 18.000000
7.834116 -7.795924 1.132381 3.000000
19.922337 25.072746 3.852658 11.000000
42.478016 -16.203791 6.770256 16.000000
16.048910 -15.859560 2.299833 22.000000
19.828636 25.143478 3.875014 28.000000
42.629780 -16.099949 6.777768 10.000000
19.800694 25.289101 3.903845 8.000000
43.006351 -16.053755 6.827789 8.000000
16.112989 -15.691101 2.268677 23.000000
19.965044 25.692451 3.977841 9.000000
47.203686 -17.423719 7.448078 9.000000
16.146206 -15.608556 2.253406 26.000000
19.471607 25.247915 3.926183 8.000000
47.135918 -17.202669 7.436335 9.000000
16.190392 -15.542308 2.244074 30.000000
19.806383 25.877581 4.024331 25.000000
46.819534 -16.911474 7.350898 9.000000
16.228849 -15.476143 2.222516 32.000000
19.645182 25.853449 4.032906 9.000000
46.454399 -16.596504 7.284430 9.000000
16.257399 -15.389991 2.206849 33.000000
19.429525 25.765133 4.025152 9.000000
46.526642 -16.430269 7.268667 8.000000
16.307005 -15.324012 2.198057 31.000000
19.383804 25.901440 4.058259 22.000000
16.307348 -15.201527 2.178075 25.000000
19.421749 26.141872 4.108379 17.000000
16.331469 -15.112520 2.154283 17.000000
44.485027 -15.161269 6.889731 9.000000
16.380733 -15.052308 2.149918 20.000000
19.193550 26.234268 4.152561 10.000000
44.476929 -14.976783 6.863197 9.000000
16.403526 -14.962736 2.133964 27.000000
19.108070 26.319317 4.166449 10.000000
44.682384 -14.881176 6.878853 7.000000
16.446507 -14.902323 2.121387 29.000000
18.967985 26.319120 4.178933 22.000000
38.494171 -12.671131 5.912108 8.000000
16.462866 -14.797238 2.100225 25.000000
18.961565 26.514553 4.227822 8.000000
44.075920 -14.329639 6.744745 9.000000
16.496668 -14.723839 2.086286 25.000000
19.743406 27.822788 4.449076 9.000000
44.327133 -14.231886 6.766861 9.000000
16.538496 -14.662930 2.077632 23.000000
19.692526 27.946989 4.476676 9.000000
45.084003 -14.301488 6.874740 9.000000
16.570791 -14.583436 2.059414 29.000000
19.626326 28.081423 4.504353 16.000000
45.021492 -14.100250 6.832059 9.000000
16.564949 -14.470903 2.040466 27.000000
19.120365 27.572165 4.435228 8.000000
45.156666 -13.969687 6.836708 8.000000
16.607395 -14.401004 2.027571 30.000000
18.681324 27.130743 4.377633 9.000000
16.645775 -14.327738 2.014235 26.000000
16.658102 -14.237423 2.005844 26.000000
45.492458 -13.535959 6.848054 9.000000
16.703377 -14.170506 1.993464 21.000000
18.747910 27.889318 4.537606 8.000000
45.373005 -13.302388 6.805132 27.000000
16.742136 -14.088202 1.975922 28.000000
18.545853 27.787315 4.540668 8.000000
45.817463 -13.276525 6.874002 9.000000
16.762281 -14.010472 1.968962 27.000000
45.981174 -13.141475 6.882771 10.000000
16.796545 -13.939810 1.955738 29.000000
46.011131 -12.967813 6.871578 37.000000
16.825251 -13.859805 1.941647 31.000000
20.895525 32.053669 5.275407 8.000000
46.044121 -12.803788 6.852762 24.000000
16.849731 -13.776618 1.927146 13.000000
20.940222 32.368656 5.342613 9.000000
46.087120 -12.633949 6.843711 9.000000
16.912495 -13.724817 1.917065 10.000000
20.969206 32.675438 5.408156 20.000000
45.083042 -12.181224 6.679620 9.000000
16.947687 -13.650659 1.907715 18.000000
21.147749 33.220898 5.513599 10.000000
16.978931 -13.573522 1.894151 11.000000
21.270220 33.672180 5.604493 10.000000
45.240868 -11.877159 6.690239 9.000000
16.987709 -13.483613 1.882240 23.000000
21.073088 33.632488 5.620319 10.000000
17.045612 -13.428032 1.871742 28.000000
20.780375 33.437077 5.602938 10.000000
45.867821 -11.691562 6.761978 12.000000
17.036615 -13.320043 1.853974 23.000000
20.710682 33.599003 5.638399 10.000000
45.895096 -11.528052 6.751597 18.000000
17.085577 -13.257710 1.850200 10.000000
20.595348 33.674480 5.681152 10.000000
48.225483 -11.925669 7.079094 9.000000
9.248302 -7.122152 0.992510 105.000000
20.449709 33.713341 5.696101 10.000000
48.440811 -11.790685 7.113190 9.000000
9.249771 -7.071984 0.983872 130.000000
20.272936 33.699848 5.709260 10.000000
48.598404 -11.649504 7.121416 9.000000
9.295611 -7.053196 0.983941 8.000000
20.045334 33.599686 5.714673 10.000000
48.666073 -11.477270 7.116217 9.000000
9.297929 -7.001404 0.975326 68.000000
19.794863 33.444633 5.704228 17.000000
83.522583 -19.390219 12.218421 1.000000
9.292004 -6.943722 0.965912 144.000000
19.597515 33.389805 5.710202 10.000000
83.802681 -19.131813 12.233749 1.000000
9.325532 -6.915655 0.964716 23.000000
19.394220 33.309231 5.712307 9.000000
9.317917 -6.859725 0.955345 50.000000
19.042019 32.981743 5.678108 7.000000
17.269905 -12.616530 1.762133 14.000000
85.316277 -18.539572 12.410137 4.000000
17.357124 -12.582939 1.755014 23.000000
85.408920 -18.216557 12.428898 3.000000
17.472145 -12.568887 1.758193 10.000000
85.390625 -17.885698 12.432148 8.000000
17.491827 -12.490622 1.751999 9.000000
85.444962 -17.585960 12.415512 10.000000
17.554502 -12.438482 1.742359 8.000000
19.014860 34.360268 6.023301 1.000000
85.433945 -17.257542 12.420156 13.000000
17.575762 -12.357036 1.736188 8.000000
85.571114 -16.990105 12.447375 6.000000
17.625269 -12.295558 1.732839 8.000000
85.899834 -16.743917 12.502198 3.000000
17.643745 -12.217109 1.726683 8.000000
17.704836 -12.163647 1.728287 8.000000
17.623178 -12.112075 1.743062 8.000000
85.573097 -16.695734 12.688069 24.000000
17.556929 -12.161529 1.759670 9.000000
85.315559 -16.970320 12.705536 15.000000
17.511225 -12.225089 1.774580 9.000000
18.924982 34.197857 6.078642 7.000000
85.340569 -17.300697 12.749661 14.000000
17.517998 -12.325564 1.798655 14.000000
85.272141 -17.596935 12.733017 14.000000
17.439936 -12.366451 1.799040 21.000000
19.431692 34.556171 6.123188 4.000000
85.157440 -17.898924 12.803173 21.000000
17.381048 -12.420681 1.816425 10.000000
19.587139 34.535717 6.103867 9.000000
84.745644 -18.136953 12.766622 15.000000
17.366974 -12.507034 1.831020 19.000000
19.657112 34.378883 6.074089 10.000000
84.981361 -18.513395 12.858800 11.000000
17.348200 -12.590333 1.848969 20.000000
18.975224 32.905830 5.798938 9.000000
17.320993 -12.667768 1.866099 24.000000
19.245520 33.106976 5.825672 9.000000
17.253613 -12.715813 1.875156 12.000000
19.483278 33.235020 5.840093 9.000000
17.237823 -12.801939 1.893633 13.000000
19.732828 33.379684 5.850493 14.000000
17.201954 -12.873388 1.906200 16.000000
20.004658 33.571445 5.882356 10.000000
17.153587 -12.935546 1.921200 10.000000
20.223909 33.658237 5.882479 10.000000
48.402817 -11.647296 7.458104 5.000000
17.159079 -13.033893 1.938272 10.000000
20.378731 33.649284 5.872253 10.000000
48.317577 -11.814299 7.478223 7.000000
17.126200 -13.108184 1.951356 9.000000
20.576229 33.696049 5.865361 10.000000
45.774662 -11.362003 7.099164 22.000000
17.088787 -13.179154 1.967775 27.000000
20.476124 33.257446 5.774174 10.000000
45.869778 -11.547228 7.128258 13.000000
17.094595 -13.283837 1.985467 13.000000
20.664099 33.301815 5.773398 10.000000
45.730846 -11.707661 7.122339 9.000000
17.053087 -13.352113 1.993940 19.000000
20.973898 33.526180 5.804430 10.000000
45.480331 -11.812840 7.114868 11.000000
17.010252 -13.429068 2.006663 28.000000
21.169477 33.577557 5.797777 10.000000
45.635719 -12.014882 7.153795 9.000000
16.968422 -13.487625 2.022257 24.000000
21.219172 33.384525 5.763735 10.000000
45.627678 -12.208831 7.177027 9.000000
16.937473 -13.564622 2.035942 19.000000
20.900402 32.618298 5.617019 9.000000
45.743347 -12.411047 7.227384 18.000000
16.894001 -13.631741 2.055820 13.000000
20.847136 32.286510 5.544989 9.000000
46.320614 -12.750125 7.334506 9.000000
16.884665 -13.721795 2.064332 14.000000
20.891840 32.096981 5.498262 9.000000
46.295887 -12.908626 7.345913 9.000000
16.856245 -13.801591 2.082376 28.000000
46.025768 -13.006629 7.318755 9.000000
16.827738 -13.881585 2.096652 28.000000
46.183266 -13.251561 7.377947 9.000000
16.793423 -13.966943 2.118584 30.000000
19.266123 28.910191 4.932097 8.000000
45.786648 -13.302250 7.330110 16.000000
16.750263 -14.025275 2.126693 32.000000
18.653814 27.770269 4.719481 8.000000
45.555099 -13.424876 7.301239 9.000000
16.720999 -14.105346 2.137236 30.000000
18.823713 27.812963 4.725917 18.000000
16.694590 -14.188124 2.155936 25.000000
45.237797 -13.675328 7.299286 9.000000
16.666782 -14.264990 2.170360 30.000000
18.823559 27.388449 4.635154 8.000000
45.060993 -13.793730 7.286905 19.000000
16.639902 -14.347980 2.185311 35.000000
18.781828 27.114290 4.576903 9.000000
45.285954 -14.061663 7.349301 10.000000
16.620138 -14.437484 2.201292 28.000000
19.248192 27.571121 4.647949 8.000000
44.843967 -14.104838 7.311122 9.000000
16.564339 -14.506089 2.221005 21.000000
19.775999 28.117531 4.733330 8.000000
47.157013 -14.995328 7.704716 9.000000
16.545706 -14.587003 2.228869 26.000000
19.767960 27.908960 4.684902 8.000000
44.203701 -14.234818 7.238969 9.000000
16.535593 -14.686149 2.250341 29.000000
44.125340 -14.388295 7.251319 9.000000
16.484482 -14.749184 2.262429 28.000000
19.038460 26.446089 4.423198 16.000000
38.383514 -12.679273 6.322920 8.000000
16.463490 -14.844618 2.282994 28.000000
19.085472 26.317163 4.395417 15.000000
16.437534 -14.930805 2.298719 34.000000
19.183157 26.248890 4.378395 26.000000
16.391008 -14.988045 2.306987 30.000000
19.315964 26.247459 4.365654 8.000000
16.345451 -15.056759 2.327931 20.000000
19.459755 26.231264 4.352148 8.000000
16.348179 -15.170409 2.340158 29.000000
19.474030 26.050426 4.316627 32.000000
45.089336 -15.798897 7.550058 9.000000
16.306467 -15.248650 2.362251 17.000000
19.508556 25.898130 4.280177 18.000000
46.348457 -16.431059 7.770926 9.000000
16.253489 -15.311157 2.370571 23.000000
19.582188 25.826649 4.261244 8.000000
46.103916 -16.516670 7.765351 11.000000
16.241405 -15.401747 2.388098 21.000000
19.764900 25.870127 4.268782 9.000000
46.504360 -16.843525 7.851503 9.000000
16.201611 -15.477186 2.406393 27.000000
19.456570 25.273994 4.153844 19.000000
47.232590 -17.303370 8.003109 9.000000
16.172520 -15.563163 2.422417 27.000000
19.597210 25.273680 4.153658 9.000000
47.105770 -17.443647 8.000877 9.000000
16.138601 -15.639392 2.437403 25.000000
19.789188 25.329004 4.151826 27.000000
42.810268 -16.031658 7.313949 14.000000
16.140720 -15.756571 2.458379 26.000000
19.865273 25.235195 4.125563 24.000000
42.569962 -16.119820 7.291087 8.000000
16.071003 -15.803961 2.472490 33.000000
19.912739 25.105618 4.099230 17.000000
42.322010 -16.195068 7.274483 8.000000
16.072075 -15.921307 2.493605 29.000000
20.327095 25.445089 4.143112 20.000000
42.050568 -16.268139 7.238027 15.000000
7.784725 -7.768437 1.218049 6.000000
20.561537 25.545992 4.154337 9.000000
41.859020 -16.362246 7.222889 10.000000
7.609890 -7.647170 1.200581 13.000000
20.456877 25.226109 4.091446 9.000000
41.624207 -16.446585 7.224780 8.000000
20.487770 25.075777 4.061994 16.000000
41.408955 -16.537254 7.189906 19.000000
20.582380 25.012865 4.051931 24.000000
41.154064 -16.602262 7.187459 17.000000
20.742672 25.020189 4.036604 9.000000
40.982094 -16.707796 7.175997 10.000000
15.870450 -16.422855 2.594004 20.000000
21.217308 25.402634 4.093227 8.000000
40.795734 -16.798132 7.153590 8.000000
15.815524 -16.480757 2.606529 17.000000
21.211849 25.216669 4.051814 8.000000
40.494637 -16.848000 7.127286 8.000000
7.544684 -7.919931 1.254004 9.000000
21.369215 25.215551 4.052480 17.000000
40.288143 -16.935575 7.125308 8.000000
21.475758 25.153770 4.037597 10.000000
40.076595 -17.011505 7.113955 13.000000
7.512567 -8.002870 1.271971 1.000000
21.841986 25.393652 4.059263 21.000000
39.837101 -17.082436 7.082510 20.000000
7.585725 -8.137542 1.295063 4.000000
22.006170 25.404619 4.061367 8.000000
39.591568 -17.141006 7.080379 23.000000
7.431005 -8.036002 1.281891 16.000000
22.456779 25.733622 4.102903 8.000000
39.441460 -17.247948 7.072508 16.000000
7.376987 -8.030848 1.282948 23.000000
39.182415 -17.297844 7.036841 9.000000
7.337012 -8.046328 1.286897 9.000000
22.681969 25.628286 4.068847 8.000000
38.982880 -17.364450 7.026609 19.000000
22.845385 25.632092 4.063856 8.000000
38.780647 -17.444986 7.024506 8.000000
25.080389 27.932930 4.423258 9.000000
38.571285 -17.512949 6.997613 18.000000
24.920984 27.551586 4.357585 27.000000
98.972954 43.962147 17.889671 1.000000
38.388031 -17.599731 6.991168 10.000000
7.009851 -7.909276 1.273323 9.000000
25.013744 27.470476 4.338132 26.000000
98.983925 43.574593 17.826658 23.000000
37.952587 -17.560678 6.937985 8.000000
6.893216 -7.832587 1.262638 54.000000
25.123529 27.388716 4.306860 22.000000
99.166756 43.221874 17.792152 19.000000
7.060104 -8.081752 1.302425 44.000000
25.119392 27.193043 4.270211 20.000000
98.912193 42.700687 17.700319 27.000000
7.052598 -8.133134 1.314158 37.000000
25.199402 27.060902 4.245694 15.000000
99.110016 42.355808 17.669180 32.000000
6.801992 -7.902464 1.280237 27.000000
25.121147 26.798130 4.191534 10.000000
99.080498 41.914391 17.559298 33.000000
25.170279 26.644756 4.169669 26.000000
99.254364 41.539356 17.561712 37.000000
25.424837 26.736061 4.171040 23.000000
99.339691 41.188480 17.533279 37.000000
25.647434 26.754242 4.163702 10.000000
99.534721 40.822166 17.501358 36.000000
26.763063 -13.209699 5.021213 7.000000
6.659471 -7.967463 1.298927 37.000000
25.796186 26.731401 4.153742 9.000000
99.630547 40.476025 17.417456 29.000000
26.321833 -13.100645 4.946554 23.000000
6.624847 -7.982501 1.303117 92.000000
99.868057 40.146702 17.413860 32.000000
26.265385 -13.198627 4.955986 21.000000
6.642274 -8.063457 1.319759 104.000000
27.114082 27.687988 4.292068 10.000000
100.071793 39.823402 17.425039 28.000000
25.615776 -12.990005 4.862987 33.000000
6.536884 -7.995049 1.310126 23.000000
27.265007 27.648384 4.273217 19.000000
100.144661 39.427841 17.373896 27.000000
24.690273 -12.634651 4.696045 151.000000
6.652303 -8.194420 1.344599 28.000000
26.306374 26.481426 4.087951 15.000000
100.313133 39.090290 17.321512 32.000000
23.969967 -12.371822 4.576917 24.000000
6.615558 -8.210473 1.348857 23.000000
27.674025 27.654709 4.263971 9.000000
100.539680 38.754719 17.297401 32.000000
23.481483 -12.228896 4.501680 15.000000
6.652972 -8.319134 1.370252 23.000000
30.568218 30.323778 4.669937 11.000000
100.780746 38.423973 17.295221 31.000000
22.631109 -11.876559 4.345785 9.000000
6.552523 -8.252422 1.361097 114.000000
30.568699 30.102766 4.615247 11.000000
100.906044 38.068848 17.255201 34.000000
21.963171 -11.628901 4.234605 9.000000
6.524859 -8.279716 1.367257 21.000000
32.540817 31.821848 4.880126 13.000000
101.078293 37.711216 17.222284 27.000000
21.307217 -11.386553 4.133891 11.000000
32.524109 31.573135 4.828225 13.000000
101.437370 37.422222 17.201931 22.000000
20.887300 -11.260764 4.064665 16.000000
6.570988 -8.462113 1.400986 35.000000
32.622921 31.437634 4.809763 13.000000
101.790039 37.149174 17.239641 27.000000
20.151476 -10.950469 3.936760 8.000000
6.557337 -8.508729 1.414251 25.000000
102.290649 36.907589 17.281940 18.000000
19.688978 -10.797273 3.862548 18.000000
6.408359 -8.378755 1.392481 21.000000
26.204370 24.884409 3.785428 16.000000
102.430183 36.554344 17.206018 27.000000
19.187290 -10.605065 3.771006 16.000000
6.398142 -8.429240 1.402603 25.000000
27.276628 25.722176 3.907484 9.000000
102.789871 36.258533 17.224497 1.000000
18.662188 -10.408582 3.690993 20.000000
6.338262 -8.411157 1.403386 25.000000
27.027287 25.300539 3.838861 11.000000
103.170258 35.968071 17.226942 1.000000
18.236721 -10.250718 3.613548 10.000000
6.298193 -8.422032 1.405076 31.000000
103.517494 35.684353 17.244432 28.000000
18.139719 -10.279683 3.608911 19.000000
30.941938 28.562399 4.314462 21.000000
103.959007 35.410782 17.276602 26.000000
18.130768 -10.362587 3.622170 21.000000
31.179623 28.550844 4.301766 9.000000
18.122715 -10.442079 3.639104 13.000000
30.696743 27.902519 4.199062 10.000000
18.084322 -10.508431 3.639104 23.000000
6.446817 -8.886322 1.496064 57.000000
33.786880 30.496672 4.583103 12.000000
18.050682 -10.573339 3.647263 15.000000
6.444404 -8.948547 1.506665 20.000000
33.767960 30.276985 4.534910 13.000000
106.674316 34.681168 17.485189 19.000000
78.318130 -8.604897 14.346879 1.000000
18.014954 -10.641285 3.655426 13.000000
6.353723 -8.884611 1.498170 1.000000
33.954197 30.198977 4.519575 13.000000
78.637245 -8.959582 14.426081 1.000000
18.006773 -10.721416 3.665107 21.000000
6.073872 -8.565750 1.447749 3.000000
31.429287 27.747662 4.147756 3.000000
78.268402 -9.194424 14.364216 1.000000
17.987370 -10.799358 3.676738 26.000000
6.237195 -8.861474 1.501752 6.000000
31.436712 27.569256 4.114542 5.000000
78.484146 -9.483727 14.395247 1.000000
17.935825 -10.853765 3.681467 22.000000
78.470093 -9.760058 14.398831 1.000000
17.923700 -10.936380 3.698514 15.000000
5.993483 -8.649236 1.469532 10.000000
32.225945 27.836323 4.145356 11.000000
78.889931 -10.106034 14.496912 1.000000
17.880119 -10.995622 3.704974 11.000000
5.987926 -8.705974 1.483133 1.000000
32.415764 27.803305 4.127169 10.000000
78.854179 -10.381349 14.496912 1.000000
17.864254 -11.076307 3.713858 17.000000
14.211032 -20.824785 3.547747 15.000000
78.691360 -10.653475 14.459741 1.000000
17.836908 -11.145738 3.723809 12.000000
14.163749 -20.919769 3.573050 23.000000
17.807333 -11.218217 3.733772 14.000000
14.103048 -20.987551 3.594204 12.000000
