VERSION .7
FIELDS x y z intensity
SIZE 4 4 4 4
TYPE F F F F
COUNT 1 1 1 1
WIDTH 1207
HEIGHT 1
VIEWPOINT 0 0 0 1 0 0 0
POINTS 1207
DATA ascii
82.874413 29.591770 -2.135284 1.000000
70.639305 -37.812992 -0.531405 6.000000
5.183372 -6.603476 0.052747 26.000000
43.013981 40.562679 -1.785715 13.000000
83.376823 29.427059 -2.207200 24.000000
70.638947 -38.130630 -0.518390 1.000000
5.132606 -6.586005 0.058294 13.000000
43.260181 40.496326 -1.820818 13.000000
83.724075 29.204971 -2.244515 24.000000
65.556084 -5.378173 -1.067746 8.000000
48.491241 -26.383411 -0.327591 8.000000
5.132870 -6.636369 0.065894 10.000000
43.271442 40.210304 -1.876995 1.000000
48.249229 -26.503309 -0.297848 10.000000
5.181541 -6.750276 0.074263 1.000000
43.678917 40.305744 -1.919708 20.000000
48.191830 -26.680189 -0.269195 10.000000
11.894698 -15.608373 0.188384 13.000000
43.928024 40.238518 -1.986612 1.000000
48.359776 -27.016289 -0.241706 4.000000
11.792048 -15.591882 0.208135 20.000000
44.170296 40.163700 -2.032624 9.000000
8.309281 -11.066923 0.157006 9.000000
44.402306 40.106483 -2.078990 21.000000
59.328339 -5.963590 -0.957520 8.000000
8.259616 -11.085162 0.168900 9.000000
44.588558 39.978939 -2.133162 18.000000
59.108425 -6.149971 -0.943936 9.000000
72.071938 -41.275990 -0.246429 1.000000
8.194022 -11.077629 0.180375 6.000000
44.965076 40.020210 -2.186222 21.000000
59.161156 -6.364281 -0.945128 24.000000
71.889969 -41.522427 -0.202856 1.000000
11.353706 -15.456199 0.267795 9.000000
45.140202 39.894558 -2.251124 21.000000
88.511017 27.992359 -2.657892 23.000000
58.709145 -6.543787 -0.927988 1.000000
21.712666 -12.642147 -0.043851 6.000000
7.943558 -10.901329 0.202475 6.000000
45.386333 39.816765 -2.298316 21.000000
88.950851 27.773243 -2.700580 18.000000
21.571342 -12.665955 -0.030562 9.000000
11.081811 -15.325809 0.300405 11.000000
45.594490 39.704590 -2.354311 21.000000
89.757088 27.664337 -2.787589 9.000000
21.576406 -12.775505 -0.026258 11.000000
10.984637 -15.309282 0.312448 28.000000
45.851841 39.634144 -2.402460 10.000000
21.572380 -12.880139 -0.008770 6.000000
8.262732 -11.601045 0.251095 19.000000
46.116196 39.568264 -2.472432 17.000000
27.040846 -16.273483 0.005508 29.000000
8.175012 -11.558812 0.261952 29.000000
46.423126 39.537128 -2.523743 22.000000
21.086395 -12.795539 0.017219 10.000000
8.139020 -11.602163 0.277071 9.000000
46.672848 39.455578 -2.582867 22.000000
53.643066 -7.157513 -0.840713 211.000000
26.899490 -16.458206 0.033023 13.000000
8.154705 -11.706905 0.286398 9.000000
46.957344 39.401890 -2.633474 8.000000
53.670959 -7.361550 -0.841567 236.000000
20.787752 -12.823746 0.038367 24.000000
8.056759 -11.652811 0.299227 23.000000
47.161530 39.293507 -2.701621 22.000000
53.703163 -7.566605 -0.833034 255.000000
20.840498 -12.956933 0.055679 187.000000
8.056260 -11.743873 0.313239 9.000000
47.272968 39.093708 -2.742689 8.000000
68.092323 19.088606 -2.308867 1.000000
53.704617 -7.767659 -0.842965 255.000000
20.581026 -12.900444 0.063591 7.000000
8.036258 -11.811687 0.326695 8.000000
47.947231 39.356281 -2.816814 3.000000
68.040627 18.805408 -2.329430 1.000000
53.710548 -7.969602 -0.834032 255.000000
20.381409 -12.879614 0.075744 13.000000
10.095810 -14.956389 0.428403 8.000000
53.656406 -8.162670 -0.824176 228.000000
20.177990 -12.854798 0.091865 16.000000
9.993208 -14.916409 0.445069 8.000000
48.172295 38.953499 -2.921542 8.000000
53.730003 -8.375467 -0.816279 8.000000
7.661196 -11.526663 0.355173 24.000000
48.445560 38.881676 -2.972918 7.000000
99.873756 -15.943554 -1.535840 8.000000
7.616547 -11.537950 0.364440 24.000000
48.679035 38.776569 -3.043829 7.000000
99.726097 -16.295033 -1.516837 1.000000
7.565815 -11.552974 0.376096 35.000000
49.037678 38.769333 -3.122971 7.000000
99.877480 -16.695839 -1.537737 1.000000
18.869919 -12.409368 0.126138 7.000000
7.560668 -11.633514 0.389974 23.000000
49.575375 38.900013 -3.170165 3.000000
100.412155 -17.163765 -1.529144 1.000000
18.609678 -12.331495 0.140271 6.000000
7.509665 -11.648254 0.401647 8.000000
49.521481 38.565304 -3.234542 5.000000
73.912994 18.428579 -2.739987 1.000000
100.405540 -17.523573 -1.547759 1.000000
18.202593 -12.157989 0.145179 6.000000
9.410702 -14.709446 0.521317 8.000000
73.998520 18.162086 -2.767303 1.000000
18.327890 -12.339061 0.158107 8.000000
9.292210 -14.642179 0.532870 10.000000
53.922901 41.361546 -3.609169 1.000000
18.276337 -12.397284 0.173453 199.000000
9.187478 -14.589468 0.547854 9.000000
53.838013 40.998726 -3.653110 1.000000
17.817986 -12.181967 0.177061 195.000000
9.102021 -14.577600 0.561105 9.000000
53.890282 40.727337 -3.693801 6.000000
65.966637 -12.512230 -0.984435 8.000000
17.641365 -12.156335 0.190705 111.000000
9.024409 -14.560557 0.574259 12.000000
54.243214 40.682564 -3.790838 8.000000
65.929634 -12.755724 -1.019743 9.000000
17.635788 -12.243502 0.191106 74.000000
8.926252 -14.515092 0.580166 8.000000
65.867905 -12.994415 -1.007797 18.000000
17.586584 -12.305113 0.206046 33.000000
8.846652 -14.504524 0.596257 9.000000
69.653748 15.467375 -2.790894 1.000000
65.898247 -13.251514 -1.008998 31.000000
17.913134 -12.631645 0.218065 105.000000
8.731074 -14.428082 0.603646 9.000000
69.805672 15.232862 -2.844684 1.000000
65.771049 -13.476933 -0.996080 35.000000
17.636509 -12.528982 0.226557 93.000000
8.634094 -14.386603 0.618176 12.000000
69.841011 14.972616 -2.856355 4.000000
65.721039 -13.717870 -1.007797 32.000000
17.809895 -12.750632 0.240853 147.000000
8.565707 -14.386228 0.628577 10.000000
65.655655 -13.955539 -1.007572 35.000000
17.556190 -12.666582 0.245606 36.000000
8.466913 -14.339607 0.639733 9.000000
65.593765 -14.193857 -1.042562 32.000000
17.428772 -12.672041 0.244472 114.000000
8.363549 -14.278155 0.647255 9.000000
21.536673 4.369943 -0.924890 1.000000
17.634438 -12.915913 0.255619 31.000000
8.305900 -14.293908 0.658210 8.000000
21.706999 4.400559 -0.974773 1.000000
17.600252 -12.895595 0.217070 16.000000
8.283706 -14.255714 0.636276 11.000000
38.759052 27.758989 -3.024466 2.000000
21.694664 4.484852 -0.978859 1.000000
65.624863 -14.200587 -1.230611 29.000000
17.679924 -12.854648 0.194577 31.000000
8.374208 -14.296352 0.619120 9.000000
21.751066 4.579704 -0.989929 1.000000
65.638733 -13.963917 -1.288532 35.000000
17.627567 -12.722759 0.166950 39.000000
8.452387 -14.315005 0.600864 10.000000
65.723053 -13.730262 -1.324360 32.000000
17.836786 -12.774594 0.149340 115.000000
8.553789 -14.366213 0.580950 10.000000
47.289219 34.661198 -3.647697 8.000000
69.727821 15.215872 -3.190908 1.000000
65.752426 -13.485076 -1.370825 33.000000
17.879530 -12.706321 0.126336 15.000000
8.647960 -14.409707 0.563371 8.000000
47.127266 34.808735 -3.614227 1.000000
69.554550 15.445347 -3.185548 155.000000
65.884483 -13.260712 -1.384290 34.000000
17.923843 -12.643880 0.111023 93.000000
8.721735 -14.418328 0.550173 9.000000
47.120983 35.071751 -3.592706 1.000000
69.663666 15.737719 -3.180676 30.000000
65.887787 -13.010285 -1.418529 18.000000
17.773518 -12.440529 0.090876 9.000000
8.834719 -14.484960 0.533198 10.000000
46.630783 34.973217 -3.524237 1.000000
65.178513 -12.622205 -1.437030 28.000000
18.357046 -12.748978 0.070214 7.000000
8.927390 -14.522623 0.517859 14.000000
46.455482 35.108521 -3.500290 1.000000
55.941502 -10.620826 -1.272281 15.000000
19.706461 -13.584427 0.054307 9.000000
9.012480 -14.541308 0.498780 9.000000
19.145342 -13.094371 0.036435 7.000000
9.097833 -14.565232 0.485688 9.000000
56.871281 -10.376283 -1.311895 10.000000
19.184950 -13.018509 0.020233 10.000000
9.196742 -14.604179 0.467006 9.000000
55.791237 -9.968075 -1.315820 1.000000
19.288342 -12.990568 0.000000 6.000000
9.290814 -14.639981 0.447987 7.000000
49.435238 38.512005 -3.613294 14.000000
55.718842 -9.744537 -1.323139 1.000000
20.208864 -13.503132 -0.016968 6.000000
7.440833 -11.634906 0.342351 17.000000
49.327137 38.719139 -3.571819 4.000000
100.175804 -17.141359 -2.395086 1.000000
20.304047 -13.459350 -0.034013 7.000000
7.459209 -11.569991 0.329223 22.000000
48.967564 38.727791 -3.512311 10.000000
100.048950 -16.742453 -2.461429 1.000000
20.367580 -13.399364 -0.055316 6.000000
7.510657 -11.560979 0.312858 21.000000
48.690075 38.799259 -3.469884 9.000000
99.734306 -16.314247 -2.469849 1.000000
20.391386 -13.308196 -0.076498 9.000000
7.618882 -11.634007 0.301018 7.000000
48.362087 38.828560 -3.424055 1.000000
99.856316 -15.958641 -2.524385 6.000000
9.787933 -14.832911 0.362947 9.000000
48.135902 38.937973 -3.374768 10.000000
59.683510 -9.314174 -1.518486 24.000000
50.390469 -32.374950 -0.271794 8.000000
9.878396 -14.851305 0.348709 10.000000
53.643509 -8.170288 -1.392473 197.000000
20.470749 -13.046329 -0.131340 10.000000
9.997170 -14.916695 0.332250 15.000000
47.590374 39.077267 -3.270287 1.000000
53.682735 -7.975052 -1.402202 195.000000
10.099570 -14.950703 0.311780 7.000000
47.383175 39.198772 -3.222848 1.000000
53.706417 -7.777489 -1.411544 219.000000
21.529129 -13.505198 -0.168557 9.000000
7.969015 -11.708459 0.232382 9.000000
47.216278 39.325161 -3.177333 22.000000
53.707165 -7.595850 -1.410894 250.000000
21.510456 -13.383871 -0.185714 10.000000
8.040290 -11.720592 0.218318 29.000000
46.837509 39.329205 -3.130335 22.000000
53.726086 -7.378664 -1.457960 227.000000
20.899660 -12.897817 -0.210037 153.000000
8.050051 -11.647454 0.197704 30.000000
46.603615 39.424953 -3.070933 22.000000
53.678200 -7.171737 -1.465396 12.000000
21.189766 -12.969849 -0.225483 10.000000
8.036474 -11.541466 0.184105 27.000000
46.395103 39.527237 -3.023609 22.000000
21.414257 -13.004720 -0.244880 8.000000
8.147754 -11.610302 0.170823 13.000000
46.046871 39.522739 -2.967868 6.000000
27.127954 -16.338808 -0.326114 26.000000
45.842430 39.639992 -2.932228 21.000000
98.891579 -12.124839 -2.748172 1.000000
10.824505 -15.192216 0.188840 7.000000
45.633968 39.752983 -2.896432 1.000000
98.730904 -11.737995 -2.777226 1.000000
68.391594 -40.511150 -0.943443 17.000000
10.970874 -15.284468 0.170757 9.000000
45.328426 39.779964 -2.833526 14.000000
11.094317 -15.337468 0.151978 10.000000
45.111641 39.855297 -2.786105 21.000000
58.740303 -6.568019 -1.671638 24.000000
71.996376 -41.953373 -1.076278 1.000000
7.991362 -10.966931 0.097104 22.000000
44.818810 39.918076 -2.725408 21.000000
58.859734 -6.342247 -1.705322 24.000000
8.040447 -10.949747 0.080615 8.000000
44.520241 39.917683 -2.673457 11.000000
59.173729 -6.177645 -1.713816 5.000000
11.405864 -15.419768 0.097078 8.000000
44.364231 40.072094 -2.620618 21.000000
59.175781 -5.958688 -1.723621 10.000000
71.309563 -40.525936 -1.231210 1.000000
11.516145 -15.450093 0.077355 13.000000
44.110535 40.123425 -2.582609 21.000000
76.373978 -7.407794 -2.237153 9.000000
71.535049 -40.307930 -1.304216 1.000000
11.641794 -15.499780 0.060900 18.000000
44.131172 40.467117 -2.540959 4.000000
76.450378 -7.132463 -2.238610 1.000000
48.113682 -26.878807 -0.904263 7.000000
11.771274 -15.558768 0.044267 10.000000
43.733734 40.370464 -2.484145 1.000000
74.648712 -6.688486 -2.198213 14.000000
48.158829 -26.672903 -0.941713 10.000000
8.524094 -11.181374 0.017178 39.000000
43.524849 40.474106 -2.428734 4.000000
61.572170 21.225040 -2.479192 9.000000
74.677719 -6.415268 -2.198360 24.000000
48.277737 -26.508003 -0.970978 10.000000
5.164644 -6.725832 0.002960 11.000000
43.249825 40.514969 -2.380217 7.000000
74.840065 26.106014 -3.017253 50.000000
74.669693 -6.138966 -2.236710 11.000000
48.400257 -26.355810 -1.000452 8.000000
5.146424 -6.651494 -0.007339 31.000000
43.135242 40.705486 -2.330266 3.000000
74.773132 26.390467 -2.990716 1.000000
5.160384 -6.621649 -0.014652 18.000000
42.801815 40.674236 -2.288947 3.000000
62.601631 -4.685066 -1.885102 6.000000
5.173045 -6.592688 -0.021939 15.000000
42.455647 40.642441 -2.216748 6.000000
71.556747 -5.091593 -2.154187 13.000000
5.216913 -6.596284 -0.030824 19.000000
81.554008 29.796118 -3.183789 25.000000
71.523933 -4.825850 -2.190222 8.000000
5.262847 -6.604467 -0.038322 26.000000
75.825630 28.018667 -2.935892 23.000000
65.381531 -4.170743 -2.001647 1.000000
51.838100 -27.008211 -1.234600 11.000000
5.312038 -6.616296 -0.045908 29.000000
80.881454 30.224247 -3.105738 28.000000
65.286278 -3.924461 -2.009703 10.000000
51.709415 -26.712082 -1.259796 14.000000
5.338205 -6.601552 -0.056307 11.000000
41.457901 40.854507 -2.012229 6.000000
80.458458 30.402718 -3.048661 1.000000
65.390045 -3.690217 -2.012467 15.000000
51.539204 -26.385296 -1.293726 12.000000
5.368648 -6.589654 -0.063791 8.000000
41.312172 41.010441 -1.981923 9.000000
79.395233 30.333973 -2.982862 25.000000
65.338249 -3.447103 -2.010471 5.000000
51.402943 -26.078201 -1.328158 21.000000
5.404265 -6.586289 -0.071376 1.000000
41.233459 41.233459 -1.934439 1.000000
59.345196 -2.912847 -1.836102 20.000000
51.309975 -25.795012 -1.353391 10.000000
13.322341 -16.115393 -0.193420 10.000000
18.722797 7.307244 -0.687798 18.000000
59.330509 -2.694182 -1.835330 36.000000
51.152981 -25.481646 -1.376717 10.000000
13.454797 -16.154682 -0.212831 19.000000
18.705410 7.379573 -0.681121 8.000000
59.434856 -2.480667 -1.838264 7.000000
51.012302 -25.178625 -1.400242 13.000000
13.616985 -16.233845 -0.236690 24.000000
18.460402 7.361219 -0.662759 6.000000
59.578388 -2.267944 -1.842434 9.000000
25.673082 -12.560449 -0.718469 6.000000
13.792429 -16.321136 -0.257348 25.000000
76.936844 31.006430 -2.737236 24.000000
59.825718 -2.057798 -1.860295 24.000000
25.678123 -12.446481 -0.732280 6.000000
13.897772 -16.329826 -0.276964 23.000000
76.281631 31.067850 -2.703567 15.000000
25.718712 -12.349951 -0.747090 6.000000
14.058215 -16.396208 -0.301583 22.000000
76.053009 31.300213 -2.656405 29.000000
25.808584 -12.276904 -0.763363 5.000000
14.222579 -16.465393 -0.326602 26.000000
41.571861 43.731110 -1.643227 1.000000
75.878647 31.554159 -2.625621 28.000000
17.199192 -8.104327 -0.517796 6.000000
14.384773 -16.536129 -0.348130 26.000000
41.487736 43.964180 -1.593470 11.000000
75.441223 31.697077 -2.571599 29.000000
17.160595 -8.009410 -0.525670 6.000000
14.507682 -16.554495 -0.368848 26.000000
74.984947 31.829220 -2.531542 25.000000
17.198742 -7.950577 -0.532562 1.000000
14.710314 -16.662113 -0.391846 30.000000
41.326935 44.426407 -1.504091 8.000000
74.555847 31.970081 -2.506822 26.000000
50.023354 -22.902479 -1.594421 15.000000
14.831218 -16.681332 -0.416896 26.000000
41.236080 44.655830 -1.443042 13.000000
74.128304 32.108906 -2.425825 28.000000
49.838142 -22.597097 -1.595426 16.000000
15.005459 -16.753246 -0.435772 30.000000
74.030586 32.358555 -2.426125 17.000000
49.962563 -22.464548 -1.635420 7.000000
15.154351 -16.807001 -0.462183 30.000000
73.764099 32.595375 -2.379397 1.000000
24.910027 -11.090659 -0.828332 9.000000
15.357146 -16.912830 -0.486509 29.000000
73.510658 32.775185 -2.332536 3.000000
50.357513 -22.199814 -1.700661 9.000000
15.516583 -16.963076 -0.509658 25.000000
40.089279 44.664551 -1.236223 13.000000
72.461441 32.626289 -2.261380 7.000000
79.813622 0.417907 -2.536167 23.000000
50.602886 -22.086824 -1.725494 10.000000
15.676578 -17.012360 -0.533060 22.000000
40.088028 44.962208 -1.188187 19.000000
71.815468 32.637413 -2.217204 1.000000
79.801552 0.710347 -2.535849 34.000000
50.922703 -22.025669 -1.762978 10.000000
39.921570 45.091400 -1.135336 9.000000
79.653496 1.001008 -2.531244 34.000000
51.066833 -21.866177 -1.784593 10.000000
39.862278 45.358311 -1.085656 11.000000
79.744240 1.294487 -2.534261 19.000000
51.458645 -21.811108 -1.824774 10.000000
16.280220 -17.288237 -0.609399 7.000000
39.688545 45.511868 -1.022420 1.000000
79.813904 1.588247 -2.536643 7.000000
76.478546 -32.054420 -2.750885 11.000000
11.485923 -12.107868 -0.442850 10.000000
39.839005 45.991405 -0.987728 4.000000
70.131088 33.120869 -2.017402 27.000000
79.942444 1.883948 -2.540931 34.000000
11.489923 -12.027720 -0.453004 10.000000
39.566742 46.049332 -0.921959 15.000000
70.181618 33.459881 -1.981633 27.000000
77.263931 -31.719761 -2.843666 15.000000
11.582170 -12.035656 -0.469486 6.000000
39.464588 46.223431 -0.869907 18.000000
69.991875 33.684814 -1.939051 9.000000
77.691795 -31.594763 -2.884852 18.000000
16.934458 -17.468903 -0.705091 9.000000
14.571748 7.078804 -0.395923 6.000000
78.181152 -31.460327 -2.942900 8.000000
17.145016 -17.563017 -0.732738 9.000000
14.527875 7.123422 -0.389787 8.000000
78.770157 -31.330530 -2.989941 7.000000
17.327957 -17.620749 -0.759378 16.000000
14.476218 7.160882 -0.380608 7.000000
61.098614 -24.067381 -2.350553 16.000000
17.515049 -17.680908 -0.786472 16.000000
14.400973 7.189477 -0.365266 8.000000
61.087868 -23.804884 -2.369682 28.000000
17.752211 -17.789431 -0.816142 9.000000
14.218335 7.163519 -0.358517 101.000000
17.927143 -17.839748 -0.838992 9.000000
66.058144 80.851135 -0.929360 10.000000
14.161012 7.199836 -0.346639 6.000000
18.141191 -17.920898 -0.868208 9.000000
65.642189 80.945732 -0.836723 6.000000
14.343730 7.359022 -0.343324 6.000000
19.869297 -7.492134 -0.800916 9.000000
18.370323 -18.014690 -0.898487 8.000000
39.086029 48.543777 -0.435107 3.000000
14.337112 7.415787 -0.338115 6.000000
19.816774 -7.389484 -0.805095 8.000000
18.569096 -18.089212 -0.923391 11.000000
38.748878 48.487785 -0.379162 5.000000
14.305611 7.466080 -0.326745 6.000000
19.785801 -7.299367 -0.813855 8.000000
18.770325 -18.138960 -0.952578 10.000000
38.548500 48.583824 -0.324734 12.000000
14.279610 7.516048 -0.318296 9.000000
19.751133 -7.204445 -0.818688 8.000000
18.944677 -18.179993 -0.981144 10.000000
38.546658 48.948891 -0.271856 13.000000
19.603508 -7.069294 -0.811489 10.000000
14.028149 -13.372839 -0.737766 7.000000
38.551884 49.326416 -0.207606 6.000000
19.713593 -7.027449 -0.825950 9.000000
19.192455 -18.149403 -1.028613 18.000000
11.713882 6.336315 -0.241764 19.000000
19.748093 -6.958276 -0.840962 9.000000
19.276396 -18.095411 -1.052658 9.000000
11.670970 6.363219 -0.234350 20.000000
19.669666 -6.849703 -0.836547 9.000000
14.147401 -13.192665 -0.783704 10.000000
38.249489 50.028255 -0.032974 8.000000
19.628225 -6.754709 -0.840984 8.000000
14.229513 -13.176675 -0.802652 30.000000
19.610003 -6.668152 -0.846392 9.000000
14.251448 -13.100288 -0.818098 20.000000
12.465686 6.972548 -0.226872 5.000000
63.623081 -21.374454 -2.777854 55.000000
14.207417 -12.954977 -0.829388 36.000000
14.405745 19.270576 0.054590 7.000000
12.610032 7.114089 -0.217334 11.000000
63.695335 -21.139240 -2.801074 35.000000
14.284108 -12.929342 -0.841200 44.000000
14.287702 19.252443 0.075320 10.000000
12.562275 7.147970 -0.206869 4.000000
63.742966 -20.896000 -2.823239 31.000000
14.218746 -12.784654 -0.848224 26.000000
14.297040 19.413307 0.100991 8.000000
12.810550 7.348553 -0.203644 1.000000
63.789673 -20.652693 -2.845383 20.000000
14.235733 -12.696953 -0.866206 14.000000
14.246386 19.493757 0.122208 5.000000
12.971383 7.510177 -0.201445 1.000000
76.781776 8.314053 -2.305642 2.000000
14.200875 -12.577135 -0.877998 17.000000
13.966774 19.251865 0.145293 6.000000
72.346100 42.207920 -1.052594 23.000000
74.276054 8.292017 -2.205101 17.000000
64.007660 -20.193817 -2.895208 33.000000
14.268291 -12.552659 -0.892883 23.000000
13.820088 19.197313 0.165142 6.000000
72.452278 42.660625 -1.012592 17.000000
74.320023 8.572831 -2.194256 1.000000
64.037354 -19.945414 -2.916682 84.000000
14.325498 -12.501332 -0.909945 8.000000
75.127274 44.571850 -1.006293 26.000000
64.080399 -19.701460 -2.938780 80.000000
14.310462 -12.396111 -0.916034 11.000000
74.680023 44.659676 -0.941629 30.000000
64.155975 -19.467615 -2.962402 89.000000
14.332592 -12.323623 -0.927781 17.000000
73.781548 44.525436 -0.872377 31.000000
64.178040 -19.217712 -2.983580 34.000000
14.472003 -12.351523 -0.950513 14.000000
37.147812 53.151234 0.713049 1.000000
73.398903 44.627232 -0.824616 30.000000
64.232674 -18.977818 -3.006293 36.000000
14.512372 -12.303032 -0.963795 10.000000
36.997128 53.370907 0.782099 2.000000
73.115372 44.805157 -0.748344 26.000000
64.311394 -18.745062 -3.006741 22.000000
14.350924 -12.067488 -0.962973 18.000000
36.688255 53.321911 0.847289 7.000000
73.210548 45.233410 -0.690926 25.000000
56.856369 -16.346268 -2.676071 2.000000
14.359684 -11.993790 -0.973983 25.000000
38.045013 55.688351 0.941749 1.000000
75.000969 46.720318 -0.663166 22.000000
76.051224 10.728913 -2.172169 6.000000
56.736835 -16.108395 -2.678231 1.000000
14.516103 -12.038667 -0.998239 34.000000
37.764435 55.714977 0.998601 1.000000
75.189491 47.221161 -0.604370 32.000000
76.339317 11.082277 -2.168176 2.000000
13.757484 -3.846336 -0.653677 5.000000
14.366847 -11.826279 -0.998016 39.000000
74.403412 47.090431 -0.553262 29.000000
76.269638 11.357750 -2.126959 1.000000
13.631631 -3.757337 -0.651985 28.000000
14.475417 -11.826911 -1.012355 13.000000
74.112610 47.287712 -0.491007 31.000000
76.049988 11.610116 -2.108568 1.000000
13.567972 -3.686337 -0.653208 27.000000
14.584143 -11.818439 -1.033063 26.000000
73.880249 47.521378 -0.413958 24.000000
76.367767 11.945218 -2.105078 1.000000
13.552444 -3.628831 -0.651816 34.000000
14.579910 -11.735124 -1.043108 29.000000
36.253693 55.149010 1.255704 7.000000
73.940735 47.944317 -0.353755 26.000000
53.996708 8.648870 -1.479732 102.000000
13.551055 -3.575283 -0.653565 31.000000
14.665155 -11.715424 -1.059272 29.000000
36.146152 55.426941 1.328329 14.000000
76.276176 49.837708 -0.302148 31.000000
53.908791 8.818243 -1.468575 128.000000
13.539678 -3.519252 -0.657284 29.000000
14.879521 -11.797592 -1.084925 25.000000
36.021866 55.702644 1.401107 10.000000
75.800789 49.924480 -0.269305 19.000000
53.756477 9.005394 -1.455837 144.000000
13.532908 -3.464592 -0.661222 25.000000
14.961323 -11.764945 -1.104102 13.000000
17.512989 27.279284 0.718663 8.000000
75.042610 49.820438 -0.188653 29.000000
53.679516 9.194894 -1.426120 165.000000
13.530874 -3.411277 -0.662948 23.000000
15.003884 -11.718102 -1.111037 9.000000
74.697945 49.968170 -0.125482 26.000000
53.754013 9.410583 -1.419475 15.000000
13.533367 -3.359198 -0.667341 20.000000
22.042337 -17.073156 -1.651561 11.000000
74.605576 50.303146 -0.047113 9.000000
81.716225 14.585307 -2.130141 8.000000
13.550441 -3.310759 -0.667580 17.000000
22.145615 -17.035955 -1.669738 10.000000
74.809433 50.840439 -0.015787 22.000000
13.542947 -3.256374 -0.669055 20.000000
22.294010 -17.020409 -1.700778 10.000000
13.549703 -3.205511 -0.673675 15.000000
22.399527 -16.971378 -1.713917 10.000000
13.551195 -3.155955 -0.670764 12.000000
22.480562 -16.903440 -1.735075 10.000000
40.054028 27.859013 0.119216 3.000000
13.558658 -3.100367 -0.675378 19.000000
22.573383 -16.844076 -1.757201 19.000000
75.334999 52.789330 0.288995 24.000000
83.341461 16.456711 -2.031645 1.000000
13.550325 -3.046243 -0.676832 22.000000
22.710423 -16.817099 -1.777913 10.000000
39.714611 28.046730 0.186687 9.000000
83.374039 16.780872 -2.019073 1.000000
13.560122 -3.001241 -0.681680 16.000000
22.895554 -16.824610 -1.807482 9.000000
53.783260 38.278313 0.334130 22.000000
13.571377 -2.951596 -0.674408 14.000000
17.791735 -12.973956 -1.412376 30.000000
13.655913 -2.912620 -0.687794 1.000000
17.979841 -13.010454 -1.439072 6.000000
76.227036 55.077858 0.574485 15.000000
13.714253 -2.877549 -0.692699 1.000000
17.990112 -12.917688 -1.451622 67.000000
76.579514 55.740444 0.677796 4.000000
13.936031 -2.865726 -0.703315 1.000000
17.882107 -12.741061 -1.454525 38.000000
74.737480 54.819847 0.727978 2.000000
80.306007 17.685810 -1.794274 1.000000
13.725071 -2.774939 -0.694650 2.000000
17.769396 -12.562819 -1.449232 38.000000
80.075706 17.943068 -1.747599 1.000000
13.833237 -2.744073 -0.697143 5.000000
17.688091 -12.408352 -1.450246 85.000000
13.897002 -2.703821 -0.702330 5.000000
17.691881 -12.314504 -1.458184 97.000000
68.479187 51.378258 0.896542 24.000000
91.816177 21.281847 -1.924893 8.000000
14.127563 -2.694977 -0.713478 4.000000
17.781420 -12.280326 -1.473211 39.000000
10.339659 18.470350 0.861275 1.000000
68.386391 51.682705 0.987459 10.000000
91.344719 21.525654 -1.851106 1.000000
14.231201 -2.658156 -0.715658 5.000000
18.043974 -12.364221 -1.498871 40.000000
10.203497 18.384888 0.881273 5.000000
68.350769 52.050484 1.079674 25.000000
14.516064 -2.656340 -0.726907 1.000000
10.292965 18.546093 0.900126 3.000000
68.234489 51.961929 1.167668 15.000000
10.324495 18.443264 0.885879 1.000000
68.317101 51.630341 1.135939 31.000000
14.178058 -2.650790 -0.685252 5.000000
17.961620 -12.303182 -1.457496 52.000000
68.618179 51.463829 1.107855 7.000000
14.124443 -2.694381 -0.675588 5.000000
17.816555 -12.304591 -1.434364 37.000000
68.585327 51.066090 1.059661 1.000000
14.041278 -2.731891 -0.664578 4.000000
17.674278 -12.302251 -1.403883 96.000000
74.594986 55.116837 1.100813 1.000000
13.972607 -2.771719 -0.656821 5.000000
17.609446 -12.353182 -1.387240 35.000000
75.050964 55.029648 1.055823 1.000000
106.690659 23.496508 -1.964139 1.000000
13.820713 -2.794276 -0.642760 5.000000
17.727812 -12.533420 -1.384955 64.000000
107.015480 23.157116 -1.968543 1.000000
13.756674 -2.833850 -0.637804 5.000000
17.703247 -12.613623 -1.363784 109.000000
70.117958 50.645123 0.890713 1.000000
13.751409 -2.885345 -0.630673 5.000000
17.997976 -12.923335 -1.378481 37.000000
70.421455 50.472599 0.831719 2.000000
13.560219 -2.897158 -0.617538 9.000000
17.728895 -12.828866 -1.346128 8.000000
39.684322 28.233465 0.450527 6.000000
13.563951 -2.952460 -0.610937 9.000000
17.541746 -12.791662 -1.312649 45.000000
17.113983 28.403790 1.117452 1.000000
39.828629 28.116831 0.416953 5.000000
13.577632 -3.007602 -0.607182 8.000000
17.471348 -12.838676 -1.295703 11.000000
17.192528 28.298986 1.086873 1.000000
75.301201 52.746056 0.738134 28.000000
13.542459 -3.051925 -0.598823 8.000000
22.711966 -16.818241 -1.664166 13.000000
17.325712 28.295160 1.054262 2.000000
40.082512 27.868448 0.366387 1.000000
13.570236 -3.110492 -0.598117 6.000000
22.570478 -16.835775 -1.628508 15.000000
13.583273 -3.165925 -0.594321 5.000000
74.766693 51.174660 0.600911 21.000000
13.693404 -3.244555 -0.592275 7.000000
74.659828 50.719719 0.535610 14.000000
13.667048 -3.291261 -0.586737 5.000000
22.299355 -17.018330 -1.563409 10.000000
74.530411 50.233551 0.470608 24.000000
13.742339 -3.362729 -0.588021 5.000000
15.268375 -11.741260 -1.059989 29.000000
74.714287 49.960224 0.407861 22.000000
53.703362 9.372738 -1.037226 104.000000
13.909504 -3.457716 -0.590700 5.000000
15.139282 -11.730539 -1.033889 38.000000
17.502466 27.252426 0.853786 8.000000
75.067535 49.818111 0.361664 24.000000
53.702679 9.169921 -1.046069 249.000000
13.921254 -3.514864 -0.584212 5.000000
15.041654 -11.743375 -1.016793 29.000000
17.668571 27.301006 0.823158 1.000000
75.905464 49.974438 0.301369 15.000000
53.789989 8.982057 -1.056643 225.000000
13.952029 -3.577081 -0.581014 5.000000
14.951972 -11.761818 -1.000320 38.000000
36.346230 55.712486 1.625717 1.000000
76.285667 49.786938 0.238486 20.000000
53.886509 8.795285 -1.067431 229.000000
14.098573 -3.669775 -0.582579 5.000000
14.744917 -11.695060 -0.973133 21.000000
36.376644 55.336048 1.549041 1.000000
74.176102 48.078545 0.185134 7.000000
53.975933 8.616559 -1.078144 237.000000
14.196221 -3.750803 -0.584611 3.000000
14.562079 -11.628917 -0.953822 51.000000
36.339729 54.840927 1.481458 9.000000
73.805130 47.454849 0.153144 24.000000
54.071552 8.428708 -1.069875 23.000000
14.187401 -3.804157 -0.579683 1.000000
14.586270 -11.736048 -0.938562 35.000000
36.492920 54.656803 1.411061 11.000000
74.155708 47.296997 0.092106 25.000000
14.284438 -3.886351 -0.579050 1.000000
14.539785 -11.786696 -0.925245 19.000000
36.598907 54.382866 1.338767 9.000000
74.476471 47.118465 0.046145 26.000000
57.080784 -15.754827 -2.305867 3.000000
14.473774 -11.821358 -0.910717 26.000000
36.772198 54.230717 1.292412 5.000000
75.182541 47.198494 -0.015493 30.000000
56.783623 -15.897014 -2.254973 1.000000
14.272842 -11.744719 -0.884609 29.000000
36.791759 53.874081 1.229861 1.000000
75.113083 46.771965 -0.061774 26.000000
57.016945 -16.177170 -2.245749 1.000000
14.276313 -11.835596 -0.874531 34.000000
36.786419 53.424633 1.154867 1.000000
73.237785 45.232574 -0.090143 23.000000
57.031982 -16.418312 -2.228062 1.000000
14.233533 -11.888423 -0.855111 36.000000
36.899883 53.171143 1.095807 1.000000
73.061882 44.754841 -0.164494 28.000000
64.319901 -18.771902 -2.503738 36.000000
14.199932 -11.944751 -0.845856 20.000000
37.008553 52.932304 1.025887 10.000000
73.367096 44.590355 -0.224768 23.000000
64.238602 -19.016146 -2.479980 43.000000
14.286064 -12.106894 -0.840524 35.000000
37.130821 52.694847 0.967648 8.000000
73.812622 44.491486 -0.240674 29.000000
94.522728 11.907476 -1.962348 37.000000
64.241081 -19.273249 -2.459342 80.000000
14.196670 -12.120815 -0.818286 30.000000
74.777580 44.700294 -0.304106 31.000000
64.127808 -19.495743 -2.434297 39.000000
14.266194 -12.270863 -0.811718 28.000000
75.293449 44.634911 -0.351367 28.000000
64.043205 -19.726734 -2.386970 37.000000
14.365008 -12.447749 -0.806637 27.000000
13.860697 19.246637 0.293927 3.000000
72.595482 42.693771 -0.382177 29.000000
64.021149 -19.952625 -2.365164 74.000000
14.146697 -12.349649 -0.780498 32.000000
13.975341 19.256601 0.274093 1.000000
72.366959 42.203163 -0.409400 25.000000
74.293808 8.280869 -1.552818 23.000000
63.955620 -20.214230 -2.342280 26.000000
14.161767 -12.454560 -0.770654 17.000000
14.152665 19.344248 0.251009 5.000000
12.984926 7.508942 -0.086393 4.000000
76.623993 8.256380 -1.641248 16.000000
14.198790 -12.579710 -0.758591 35.000000
14.265156 19.348785 0.226568 8.000000
12.804123 7.341896 -0.092739 10.000000
63.783497 -20.675295 -2.294597 50.000000
14.244654 -12.709374 -0.750059 29.000000
14.288007 19.238817 0.204949 10.000000
12.568879 7.148825 -0.095902 17.000000
78.960785 7.923092 -1.676155 7.000000
63.722294 -20.913858 -2.271700 33.000000
14.150247 -12.718597 -0.727583 10.000000
14.375781 19.223499 0.184343 4.000000
12.599305 7.105139 -0.103508 6.000000
63.664932 -21.153826 -2.248959 49.000000
14.455859 -13.089396 -0.728717 24.000000
12.559735 7.022276 -0.113018 4.000000
81.141800 7.541581 -1.735463 20.000000
63.661491 -21.387358 -2.227862 37.000000
14.312180 -13.055080 -0.710338 27.000000
12.467266 6.910718 -0.119421 2.000000
83.279716 7.432517 -1.795193 1.000000
19.624104 -6.676768 -0.680403 10.000000
14.187419 -13.036863 -0.689677 77.000000
83.261261 7.123369 -1.808812 9.000000
19.629251 -6.755062 -0.674141 13.000000
14.057821 -13.008573 -0.672192 4.000000
19.718069 -6.866559 -0.663459 11.000000
19.358065 -18.045372 -0.905663 9.000000
11.751523 6.354025 -0.132908 24.000000
19.684551 -6.932025 -0.663141 9.000000
19.274038 -18.099527 -0.886350 11.000000
11.816539 6.328009 -0.140374 6.000000
19.718084 -7.032929 -0.654245 9.000000
19.131887 -18.098454 -0.859850 10.000000
14.281639 7.580897 -0.183439 9.000000
19.582029 -7.057686 -0.643230 12.000000
14.033404 -13.373174 -0.622745 7.000000
38.645363 48.705906 0.032555 5.000000
14.300423 7.523817 -0.188966 8.000000
19.763048 -7.204883 -0.635340 9.000000
18.970814 -18.211435 -0.817238 19.000000
38.617561 48.306175 -0.032382 17.000000
14.308778 7.464556 -0.197182 8.000000
19.792778 -7.298017 -0.637152 8.000000
18.789057 -18.163404 -0.789307 12.000000
39.126774 48.577019 -0.097978 5.000000
14.322624 7.405125 -0.205442 16.000000
19.794302 -7.381104 -0.626996 8.000000
18.597429 -18.110489 -0.765902 30.000000
65.566879 80.824036 -0.254303 4.000000
14.300627 7.327452 -0.213154 6.000000
19.842144 -7.481895 -0.621967 9.000000
18.349438 -18.000494 -0.735950 9.000000
65.808716 80.517166 -0.344843 18.000000
14.186578 7.209720 -0.219431 38.000000
80.427467 -30.664019 -2.464424 1.000000
18.127363 -17.913492 -0.707414 9.000000
14.242098 7.166143 -0.228192 16.000000
80.147438 -30.894186 -2.429290 1.000000
17.972956 -17.885338 -0.686106 8.000000
14.326322 7.142841 -0.237504 9.000000
61.015743 -23.776777 -1.817717 10.000000
17.738258 -17.781654 -0.657696 9.000000
14.395873 7.114884 -0.246654 10.000000
60.938072 -24.004143 -1.795133 16.000000
17.532681 -17.704885 -0.630716 9.000000
14.372347 7.037830 -0.254189 23.000000
78.580048 -31.286690 -2.273880 14.000000
17.278826 -17.576923 -0.602375 8.000000
39.435135 46.516773 -0.478970 4.000000
14.388927 6.980682 -0.262404 9.000000
78.289383 -31.503880 -2.239316 6.000000
17.137348 -17.555161 -0.582438 9.000000
39.605076 46.371590 -0.532188 3.000000
14.400773 6.921340 -0.270524 9.000000
77.608879 -31.561045 -2.208513 12.000000
16.982723 -17.524811 -0.562316 8.000000
39.430637 45.842346 -0.569908 6.000000
14.425959 6.868471 -0.276101 9.000000
77.503342 -31.849665 -2.150279 6.000000
11.554118 -12.010700 -0.366563 15.000000
39.797703 45.927528 -0.636423 1.000000
14.419251 6.800561 -0.283844 6.000000
80.037827 1.858242 -1.816802 31.000000
76.850945 -31.911304 -2.120876 4.000000
11.544716 -12.089300 -0.355992 23.000000
39.866753 45.667927 -0.687754 1.000000
14.441587 6.752644 -0.292191 5.000000
79.933594 1.590629 -1.814306 1.000000
76.480637 -32.086689 -2.084918 26.000000
11.416701 -12.039106 -0.335956 7.000000
39.916576 45.404110 -0.738640 1.000000
14.428643 6.685314 -0.299784 1.000000
79.788940 1.295213 -1.810903 37.000000
51.423656 -21.785690 -1.374651 14.000000
16.217827 -17.228004 -0.458437 9.000000
39.990269 45.184879 -0.789892 1.000000
79.738174 1.002072 -1.809655 34.000000
51.132511 -21.883738 -1.349577 34.000000
16.042154 -17.167025 -0.438838 6.000000
40.083130 44.940922 -0.840872 1.000000
79.726318 0.709677 -1.809315 80.000000
50.914959 -22.011774 -1.316895 28.000000
15.897372 -17.131580 -0.416108 8.000000
40.043247 44.566296 -0.888898 8.000000
72.374458 32.541553 -1.606801 28.000000
79.778366 0.417722 -1.810449 97.000000
50.683395 -22.132496 -1.284021 33.000000
15.668746 -17.009817 -0.391565 30.000000
72.727760 32.410908 -1.653958 13.000000
50.552029 -22.296101 -1.263459 10.000000
15.508685 -16.960384 -0.369055 21.000000
73.403488 32.390102 -1.694632 23.000000
24.917933 -11.099390 -0.609502 9.000000
15.329023 -16.887779 -0.346342 24.000000
73.836960 32.258572 -1.744108 28.000000
50.022251 -22.480892 -1.206227 8.000000
15.168938 -16.817276 -0.324149 22.000000
41.288040 44.665150 -1.104181 19.000000
74.141373 32.068474 -1.819038 25.000000
49.880909 -22.637482 -1.176117 30.000000
15.000590 -16.753693 -0.310085 15.000000
41.389473 44.446945 -1.155549 4.000000
74.607063 31.945807 -1.855923 28.000000
14.826333 -16.681700 -0.288265 22.000000
75.002533 31.805794 -1.905666 28.000000
14.682158 -16.636070 -0.267223 26.000000
41.487144 43.948185 -1.255421 8.000000
75.480247 31.713472 -1.943716 19.000000
17.166878 -8.015992 -0.380325 1.000000
14.535575 -16.592163 -0.246407 22.000000
41.640438 43.787941 -1.297399 1.000000
75.968872 31.591681 -1.996408 29.000000
25.783213 -12.154653 -0.557269 39.000000
14.369816 -16.524755 -0.225510 11.000000
75.983154 31.240450 -2.036514 21.000000
25.688925 -12.225482 -0.551229 122.000000
14.217408 -16.465216 -0.205033 29.000000
40.906132 42.403946 -1.388495 2.000000
50.083405 20.397882 -1.359412 2.000000
87.789299 -2.728216 -2.023855 185.000000
25.594631 -12.295865 -0.535296 159.000000
14.078986 -16.426235 -0.185023 25.000000
87.588882 -3.043365 -2.019478 192.000000
25.477833 -12.354890 -0.509078 165.000000
13.898909 -16.336939 -0.164723 21.000000
18.420385 7.337810 -0.522680 7.000000
87.482468 -3.345447 -2.032569 178.000000
25.383066 -12.424050 -0.503157 176.000000
13.770885 -16.301414 -0.148980 23.000000
18.681742 7.370235 -0.529400 8.000000
25.265953 -12.481726 -0.482059 171.000000
13.630840 -16.256124 -0.122189 18.000000
18.726992 7.308881 -0.540453 20.000000
57.505234 -2.621355 -1.316384 6.000000
25.128487 -12.523127 -0.465563 170.000000
13.481299 -16.192247 -0.102967 28.000000
41.240589 41.226192 -1.608454 1.000000
79.274879 30.605526 -2.343956 2.000000
57.609604 -2.837738 -1.339147 9.000000
25.060162 -12.603948 -0.460252 106.000000
13.355018 -16.160664 -0.087818 22.000000
41.343868 41.027584 -1.677824 18.000000
79.600540 30.396490 -2.380040 21.000000
65.440987 -3.463977 -1.510030 8.000000
13.200610 -16.093578 -0.069025 26.000000
41.446831 40.829346 -1.716569 9.000000
80.327423 30.337183 -2.443428 1.000000
65.392914 -3.701829 -1.509224 17.000000
51.590324 -26.422831 -0.890320 1.000000
13.068608 -16.046556 -0.050567 12.000000
41.798771 40.860985 -1.775690 1.000000
80.775543 30.136478 -2.483478 26.000000
65.329018 -3.938473 -1.508072 10.000000
70.285095 -36.323460 -1.173800 1.000000
12.931149 -15.997163 -0.032311 26.000000
75.960808 28.053547 -2.360864 22.000000
70.240166 -36.595882 -1.133591 1.000000
5.334026 -6.643683 -0.005948 18.000000
81.620865 29.788254 -2.578738 27.000000
71.452980 -4.833590 -1.637707 10.000000
5.271095 -6.617187 0.001477 18.000000
42.491722 40.662766 -1.930487 15.000000
81.914902 29.588114 -2.645772 12.000000
71.545959 -5.078275 -1.652740 28.000000
70.154282 -37.223202 -1.067363 1.000000
5.218896 -6.601159 0.007343 15.000000
42.863865 40.718964 -1.992251 18.000000
83.047966 29.653738 -2.709651 1.000000
70.427803 -37.699776 -1.031785 2.000000
5.183465 -6.603594 0.016117 23.000000
43.022373 40.584785 -2.055030 9.000000
83.306000 29.402060 -2.745403 1.000000
76.859291 -6.021963 -1.762989 9.000000
5.153071 -6.614646 0.023415 18.000000
43.100479 40.360943 -2.092954 8.000000
76.695007 -6.318954 -1.759789 12.000000
48.514374 -26.428930 -0.655705 7.000000
5.137952 -6.645336 0.030788 10.000000
43.422428 40.364735 -2.153193 5.000000
76.208466 -6.560168 -1.735808 6.000000
48.229061 -26.503189 -0.624339 10.000000
5.166462 -6.730632 0.038504 9.000000
43.605408 40.237907 -2.206788 9.000000
76.265961 -6.819973 -1.737623 17.000000
48.202133 -26.707882 -0.596336 10.000000
8.544302 -11.216000 0.078749 6.000000
43.810390 40.130764 -2.251239 1.000000
76.558678 -7.129089 -1.758303 1.000000
48.056091 -26.857641 -0.576524 8.000000
11.762311 -15.552563 0.125925 21.000000
44.115059 40.127541 -2.311801 11.000000
76.263367 -7.383631 -1.752130 4.000000
8.298656 -11.056791 0.101342 9.000000
44.430588 40.117954 -2.383400 21.000000
59.285900 -5.959324 -1.352165 8.000000
8.245029 -11.065585 0.110792 11.000000
44.661640 40.030411 -2.429847 21.000000
59.087730 -6.179092 -1.337826 7.000000
71.942314 -41.235107 -0.723648 1.000000
8.204343 -11.095632 0.125243 10.000000
44.858715 39.911510 -2.485079 21.000000
58.947170 -6.362077 -1.355820 24.000000
72.067841 -41.658714 -0.711912 1.000000
8.053072 -10.970953 0.135395 8.000000
45.063293 39.798584 -2.530361 21.000000
58.854603 -6.570399 -1.323213 24.000000
8.006846 -10.992212 0.147163 7.000000
45.349922 39.756813 -2.590981 21.000000
21.689253 -12.740278 -0.188784 6.000000
11.070711 -15.310458 0.224245 7.000000
98.598778 -11.739739 -2.218646 1.000000
21.668329 -12.835041 -0.171428 8.000000
10.959048 -15.273619 0.236242 7.000000
45.871647 39.637276 -2.710530 20.000000
98.470741 -12.090687 -2.216747 1.000000
21.657814 -12.931149 -0.158492 9.000000
46.058243 39.532497 -2.756255 12.000000
98.470779 -12.457213 -2.200428 1.000000
21.704556 -13.067204 -0.150340 9.000000
10.750648 -15.200556 0.266475 52.000000
46.389282 39.494335 -2.830490 22.000000
21.173399 -12.863507 -0.134045 28.000000
8.129001 -11.592183 0.215002 20.000000
46.589424 39.371117 -2.876555 22.000000
53.573154 -7.176737 -1.198289 148.000000
26.921919 -16.478390 -0.148746 26.000000
8.059793 -11.579265 0.229017 20.000000
46.896008 39.336475 -2.940100 22.000000
53.625931 -7.383983 -1.190615 220.000000
20.827875 -12.853517 -0.111064 9.000000
8.054115 -11.662036 0.242441 28.000000
47.130394 39.239697 -2.988672 22.000000
53.717495 -7.597311 -1.183785 255.000000
21.504293 -13.385244 -0.097260 7.000000
8.018888 -11.698147 0.254988 28.000000
53.698772 -7.795521 -1.202944 255.000000
20.489773 -12.848228 -0.080200 8.000000
7.970207 -11.719003 0.267177 7.000000
47.560287 39.024773 -3.105788 5.000000
53.670044 -7.992315 -1.193473 249.000000
20.328455 -12.851117 -0.071358 7.000000
10.091096 -14.949407 0.355766 9.000000
47.978054 39.102066 -3.167906 1.000000
53.655418 -8.191266 -1.184330 216.000000
20.321470 -12.946205 -0.050464 10.000000
10.010989 -14.948592 0.373719 10.000000
48.256721 39.007847 -3.230235 7.000000
59.788837 -9.351991 -1.309893 7.000000
9.886621 -14.874928 0.386606 9.000000
48.301834 38.780186 -3.278833 6.000000
100.041351 -15.988214 -2.210611 1.000000
20.196680 -13.075821 -0.025196 25.000000
7.642810 -11.582130 0.310056 14.000000
48.693115 38.773895 -3.349275 7.000000
99.999336 -16.375519 -2.193362 1.000000
20.253304 -13.218079 -0.016884 12.000000
7.578939 -11.581834 0.323769 29.000000
49.004936 38.729549 -3.415606 7.000000
55.591919 -9.312871 -1.229923 1.000000
20.177345 -13.279259 -0.004216 7.000000
7.543753 -11.616361 0.336090 24.000000
49.268654 38.673237 -3.468889 6.000000
55.753113 -9.530054 -1.224305 1.000000
20.087353 -13.315706 0.012619 8.000000
7.486070 -11.611655 0.347298 12.000000
49.432911 38.482468 -3.524388 6.000000
55.668983 -9.725805 -1.203497 1.000000
19.992678 -13.358682 0.020983 9.000000
7.454690 -11.661057 0.362420 7.000000
56.026440 -10.000008 -1.221946 3.000000
19.238558 -12.957039 0.032386 8.000000
9.298593 -14.652237 0.466547 11.000000
56.751461 -10.344188 -1.248651 6.000000
19.147690 -12.993225 0.040387 10.000000
9.196792 -14.615569 0.479332 9.000000
19.178324 -13.116929 0.056774 8.000000
9.111181 -14.597940 0.492685 9.000000
46.389248 35.058464 -3.464745 1.000000
56.006626 -10.633190 -1.214036 9.000000
17.705738 -12.205252 0.060053 6.000000
9.020422 -14.565474 0.508479 8.000000
46.666718 35.000168 -3.526953 1.000000
65.782158 -12.739102 -1.450339 16.000000
17.909412 -12.438096 0.068502 7.000000
8.917042 -14.517144 0.520529 10.000000
47.139996 35.085903 -3.614745 4.000000
69.560883 15.688979 -3.200674 36.000000
65.852974 -13.003410 -1.441221 20.000000
23.565613 -16.494692 0.110449 11.000000
8.827109 -14.483853 0.530080 7.000000
47.253674 34.902103 -3.665091 8.000000
69.562622 15.421663 -3.235515 154.000000
65.794815 -13.242663 -1.452720 33.000000
17.936172 -12.652577 0.091944 90.000000
8.742625 -14.452863 0.539686 8.000000
44.054775 32.290474 -3.446059 5.000000
65.819046 -13.498739 -1.466069 33.000000
17.893726 -12.721109 0.099628 24.000000
8.648110 -14.409957 0.554571 10.000000
65.774017 -13.740908 -1.466178 29.000000
17.715040 -12.687401 0.106486 107.000000
8.571992 -14.396784 0.564620 11.000000
38.758335 27.973967 -3.107782 9.000000
21.394388 4.492908 -1.023294 1.000000
65.684349 -13.973621 -1.453585 26.000000
17.664301 -12.749271 0.121670 81.000000
8.468099 -14.341616 0.575786 9.000000
38.756535 27.757189 -3.149595 8.000000
21.471870 4.434887 -1.045467 1.000000
65.573311 -14.201414 -1.487417 15.000000
17.706394 -12.878618 0.126105 21.000000
8.379846 -14.305975 0.587664 9.000000
38.845963 27.616594 -3.207498 13.000000
21.527575 4.356363 -1.070373 1.000000
17.629063 -12.916704 0.125875 20.000000
8.302155 -14.293205 0.591662 8.000000
38.890591 27.648321 -3.286485 7.000000
17.667288 -12.949450 0.087932 10.000000
8.302461 -14.293734 0.574353 8.000000
38.774166 27.780054 -3.260136 8.000000
57.476704 -12.458408 -1.478403 25.000000
17.751085 -12.911125 0.065127 23.000000
8.377874 -14.302609 0.555665 9.000000
38.992054 28.153006 -3.278677 3.000000
57.648064 -12.274508 -1.522819 6.000000
17.698801 -12.778872 0.041911 81.000000
8.453545 -14.316966 0.534126 9.000000
38.736706 28.185205 -3.240671 10.000000
67.095184 -14.029136 -1.806917 34.000000
17.676447 -12.664428 0.022771 29.000000
8.560027 -14.382400 0.517210 11.000000
38.835209 28.475155 -3.240735 10.000000
67.081566 -13.769868 -1.841061 28.000000
17.918362 -12.738624 0.000000 16.000000
8.664439 -14.437166 0.499728 9.000000
38.856327 28.710213 -3.225847 11.000000
67.096008 -13.516743 -1.887903 30.000000
18.117950 -12.785544 -0.019351 15.000000
8.735786 -14.441558 0.480294 9.000000
39.152805 29.151726 -3.225080 6.000000
65.933037 -13.031178 -1.889042 26.000000
23.599726 -16.524706 -0.055311 13.000000
8.840997 -14.500945 0.468460 10.000000
38.991169 29.254120 -3.194943 1.000000
65.106644 -12.620075 -1.875611 28.000000
19.734541 -13.710755 -0.062910 6.000000
8.933642 -14.532793 0.449687 12.000000
41.579033 31.434568 -3.398138 11.000000
55.913818 -10.635793 -1.639528 31.000000
19.679323 -13.570787 -0.083444 9.000000
9.010923 -14.544465 0.430102 8.000000
41.186615 31.353079 -3.338257 9.000000
63.606667 -11.857709 -1.886418 6.000000
19.171797 -13.117377 -0.097305 6.000000
9.112071 -14.588027 0.414352 9.000000
41.110218 31.556381 -3.296894 7.000000
56.952484 -10.401370 -1.718269 16.000000
19.184282 -13.027838 -0.121422 9.000000
9.213795 -14.636923 0.395509 10.000000
42.570221 32.902004 -3.394427 5.000000
56.999771 -10.194267 -1.728672 4.000000
19.273315 -12.985337 -0.133852 6.000000
9.297180 -14.655666 0.378706 11.000000
42.009777 32.715496 -3.331288 1.000000
56.878918 -9.957652 -1.733975 1.000000
7.414553 -11.593813 0.288272 32.000000
42.157921 33.079803 -3.324461 1.000000
56.869793 -9.741364 -1.762836 1.000000
7.465996 -11.584957 0.271853 20.000000
7.514004 -11.566132 0.257607 30.000000
69.173767 -45.162655 -0.749780 39.000000
7.629809 -11.664014 0.245719 12.000000
99.785995 -15.965265 -3.175785 2.000000
69.325897 -44.900444 -0.792891 166.000000
7.706996 -11.679400 0.232035 6.000000
39.304630 10.546350 -2.018795 1.000000
59.749283 -9.335121 -1.932172 10.000000
50.306774 -32.333588 -0.636702 9.000000
7.698043 -11.577717 0.213557 9.000000
48.120373 39.204082 -3.633210 3.000000
39.213387 10.676091 -2.001884 7.000000
53.540291 -8.183253 -1.739962 1.000000
20.509653 -13.076157 -0.271707 10.000000
10.008992 -14.934332 0.257316 8.000000
47.589924 39.090805 -3.572623 8.000000
39.073574 10.792008 -1.982568 1.000000
53.725639 -7.991009 -1.754419 9.000000
21.414972 -13.543217 -0.309579 9.000000
10.111545 -14.974063 0.242836 9.000000
47.077263 38.931866 -3.501019 6.000000
53.758598 -7.794626 -1.783023 10.000000
21.491619 -13.486896 -0.323292 7.000000
10.214534 -15.013315 0.221861 10.000000
47.097672 39.240299 -3.459538 18.000000
53.917439 -7.635188 -1.796956 21.000000
20.831882 -12.966705 -0.329784 115.000000
8.045886 -11.741926 0.161487 28.000000
46.813435 39.295063 -3.417113 19.000000
54.043755 -7.451127 -1.809775 21.000000
21.555414 -13.307699 -0.362575 7.000000
8.055671 -11.668643 0.146015 13.000000
46.537483 39.355076 -3.364796 19.000000
55.952477 -7.505415 -1.882623 9.000000
26.980263 -16.520575 -0.474893 9.000000
8.082531 -11.607609 0.130843 9.000000
46.348660 39.487667 -3.329608 15.000000
56.199207 -7.308977 -1.919630 3.000000
27.007643 -16.407995 -0.490914 32.000000
8.229325 -11.730893 0.115047 14.000000
46.087685 39.543800 -3.267605 15.000000
27.165787 -16.368055 -0.514843 23.000000
46.151909 39.893520 -3.239793 2.000000
59.174782 -7.276234 -2.029902 1.000000
68.059113 -40.668030 -1.328538 1.000000
10.833808 -15.210890 0.114078 10.000000
45.637642 39.742168 -3.182121 1.000000
59.075943 -7.044380 -2.056800 1.000000
68.111649 -40.361385 -1.423423 13.000000
10.974111 -15.288977 0.091972 12.000000
45.493736 39.910988 -3.129309 5.000000
58.783314 -6.791065 -2.056071 1.000000
45.064415 39.827579 -3.067700 29.000000
58.723030 -6.566088 -2.063433 29.000000
71.791756 -41.850925 -1.595595 1.000000
8.100480 -11.116680 0.040812 19.000000
44.819416 39.904587 -3.008456 9.000000
58.895744 -6.366925 -2.068667 24.000000
71.645302 -41.414467 -1.632302 1.000000
8.139254 -11.088361 0.028808 13.000000
44.555832 39.963627 -2.948215 21.000000
71.327461 -40.882690 -1.664700 1.000000
8.236349 -11.134851 0.012086 25.000000
44.332336 40.043285 -2.900852 21.000000
59.058704 -5.946898 -2.114295 4.000000
71.275871 -40.506790 -1.717278 1.000000
8.275169 -11.106037 0.000000 9.000000
44.076313 40.106354 -2.841574 21.000000
8.417887 -11.211573 -0.014682 8.000000
43.831062 40.177845 -2.793634 21.000000
48.199825 -26.937973 -1.214473 10.000000
8.420768 -11.134252 -0.026801 8.000000
43.648235 40.305649 -2.749811 21.000000
48.153000 -26.680658 -1.258886 10.000000
43.230984 40.214912 -2.691484 8.000000
61.546303 21.216125 -2.899269 9.000000
48.188351 -26.469870 -1.295669 10.000000
5.190833 -6.762382 -0.032734 17.000000
43.292744 40.569363 -2.652688 3.000000
48.376629 -26.342945 -1.326985 6.000000
5.142139 -6.648354 -0.042541 28.000000
43.028530 40.618988 -2.614559 3.000000
70.017700 -5.498217 -2.563062 16.000000
70.317093 -37.972744 -1.994952 15.000000
5.160301 -6.621543 -0.049817 19.000000
