VERSION .7
FIELDS x y z intensity
SIZE 4 4 4 4
TYPE F F F F
COUNT 1 1 1 1
WIDTH 1241
HEIGHT 1
VIEWPOINT 0 0 0 1 0 0 0
POINTS 1241
DATA ascii
12.872341 -0.047180 -2.114862 6.000000
5.920625 -2.710674 -0.980145 1.000000
5.859247 -6.564732 -0.946580 10.000000
13.138713 14.444321 -2.159139 6.000000
12.970617 5.704506 -2.137895 6.000000
13.084589 -0.098201 -2.147434 5.000000
5.789614 -2.677630 -0.955597 1.000000
5.813892 -6.552950 -0.934657 16.000000
13.065563 14.258560 -2.162435 6.000000
12.904589 5.616432 -2.136005 8.000000
13.073524 -0.146039 -2.150379 6.000000
5.802315 -2.709363 -0.958184 2.000000
5.790372 -6.574825 -0.927012 10.000000
13.015091 14.099380 -2.165861 6.000000
12.933137 5.572565 -2.144880 7.000000
13.063750 -0.196099 -2.144195 6.000000
5.770583 -2.720352 -0.950030 1.000000
5.761476 -6.588238 -0.916795 9.000000
12.944551 13.925121 -2.162825 2.000000
13.136941 -0.245361 -2.156342 6.000000
5.721124 -2.722710 -0.937874 2.000000
5.731500 -6.602641 -0.905072 9.000000
12.857876 13.730616 -2.163203 1.000000
13.046364 -0.293785 -2.146321 6.000000
5.711733 -2.742735 -0.936768 1.000000
5.721920 -6.638272 -0.899484 10.000000
12.720160 13.488870 -2.151774 3.000000
13.084656 -0.342634 -2.152813 6.000000
5.706681 -2.766093 -0.933072 1.000000
5.711096 -6.675031 -0.892327 9.000000
12.651665 13.318100 -2.151413 4.000000
13.063519 -0.392280 -2.149567 6.000000
5.514746 -2.698067 -0.900016 1.000000
5.717453 -6.729874 -0.886087 7.000000
12.496021 13.058076 -2.139180 1.000000
13.057360 -0.442283 -2.146476 6.000000
5.624191 -2.779649 -0.915218 1.000000
5.751904 -6.825768 -0.886225 1.000000
12.411559 12.875011 -2.132456 4.000000
10.102393 4.087786 -1.700750 1.000000
13.080301 -0.491063 -2.150529 6.000000
5.521070 -2.755111 -0.895753 2.000000
11.375796 -13.586014 -1.740556 8.000000
12.240481 12.609160 -2.114154 4.000000
10.043653 4.021242 -1.690302 1.000000
13.068461 -0.540876 -2.148907 6.000000
5.499060 -2.766942 -0.890375 2.000000
11.257104 -13.544810 -1.711361 7.000000
12.156400 12.431056 -2.113301 6.000000
10.130425 4.012964 -1.712161 1.000000
13.075497 -0.589181 -2.155097 6.000000
5.502673 -2.794081 -0.888214 1.000000
11.207722 -13.581558 -1.692438 8.000000
12.107622 12.295024 -2.115687 6.000000
10.135725 3.970107 -1.716309 1.000000
13.073514 -0.639401 -2.152813 6.000000
5.466106 -2.800760 -0.882869 2.000000
11.177722 -13.646786 -1.679915 9.000000
12.028980 12.125946 -2.109296 6.000000
10.153975 3.934390 -1.722789 1.000000
13.105811 -0.684553 -2.158493 6.000000
5.412383 -2.798326 -0.871501 3.000000
11.106934 -13.662207 -1.655087 7.000000
12.019168 12.027562 -2.117911 4.000000
10.152291 3.895066 -1.726139 1.000000
13.103461 -0.734891 -2.156203 6.000000
5.353864 -2.794175 -0.859498 4.000000
10.985390 -13.609481 -1.622489 7.000000
11.938406 11.859489 -2.113904 4.000000
10.093790 3.824195 -1.719249 1.000000
13.129956 -0.789262 -2.161067 6.000000
5.378170 -2.834388 -0.860890 1.000000
10.868746 -13.571265 -1.594584 15.000000
11.889603 11.728834 -2.118730 5.000000
10.101991 3.785020 -1.725994 1.000000
13.126745 -0.835066 -2.163362 6.000000
5.242343 -2.785056 -0.837451 1.000000
10.762717 -13.530590 -1.567346 6.000000
11.803353 11.558698 -2.113378 4.000000
10.156608 3.763090 -1.738775 1.000000
13.119117 -0.887471 -2.157961 6.000000
5.462892 -2.930404 -0.870142 1.000000
10.631648 -13.471668 -1.534644 6.000000
11.744750 11.417283 -2.109908 4.000000
10.133043 3.710172 -1.738085 1.000000
13.135674 -0.939272 -2.158901 6.000000
10.540190 -13.456907 -1.510510 6.000000
11.727835 11.317529 -2.116755 4.000000
10.145717 3.672698 -1.743735 1.000000
13.067603 -0.980264 -2.152961 6.000000
10.541655 -13.546228 -1.498698 6.000000
11.565211 11.082892 -2.097468 3.000000
10.400540 3.719837 -1.790998 1.000000
13.039344 -1.030798 -2.146625 6.000000
5.237567 -2.881758 -0.827391 1.000000
8.908666 -11.543113 -1.255166 4.000000
11.421253 10.864915 -2.078118 6.000000
10.246005 3.622264 -1.765982 1.000000
13.099590 -1.081586 -2.157151 6.000000
5.044963 -2.801075 -0.795579 1.000000
8.857863 -11.552140 -1.240319 6.000000
11.279231 10.651333 -2.061690 6.000000
10.230385 3.574614 -1.766845 1.000000
13.075853 -1.132492 -2.151621 6.000000
5.099224 -2.858041 -0.799702 1.000000
10.120666 -13.304531 -1.400778 3.000000
11.204269 10.503125 -2.060035 6.000000
10.149290 3.502609 -1.760123 1.000000
13.042709 -1.175504 -2.144483 7.000000
5.068272 -2.862821 -0.795297 5.000000
10.001988 -13.239402 -1.378757 3.000000
11.213891 10.438843 -2.071426 6.000000
10.217515 3.484297 -1.773598 1.000000
13.062130 -1.225535 -2.153103 8.000000
4.976434 -2.835055 -0.778439 2.000000
11.258021 10.403164 -2.086144 5.000000
10.238084 3.451465 -1.780877 1.000000
13.067523 -1.276677 -2.152430 17.000000
5.018034 -2.883167 -0.782479 1.000000
9.768981 -13.125207 -1.322177 4.000000
11.188597 10.263243 -2.082491 5.000000
10.232542 3.403913 -1.781388 1.000000
13.053311 -1.323605 -2.148523 72.000000
4.981289 -2.888714 -0.773435 1.000000
9.710583 -13.151880 -1.300996 6.000000
11.206307 10.211266 -2.095651 5.000000
10.200125 3.355603 -1.783426 1.000000
12.974895 -1.366006 -2.134125 162.000000
4.984750 -2.912853 -0.773416 1.000000
9.585056 -13.072366 -1.275745 8.000000
11.124337 10.055138 -2.088762 5.000000
10.190041 3.305047 -1.783069 1.000000
12.846801 -1.400147 -2.116202 141.000000
4.970234 -2.928861 -0.768725 3.000000
9.513744 -13.070545 -1.255286 7.000000
11.093144 9.953309 -2.091954 5.000000
10.162485 3.258904 -1.782090 1.000000
12.831525 -1.448358 -2.114586 117.000000
4.878966 -2.899222 -0.752215 1.000000
9.410557 -13.024087 -1.227914 9.000000
11.044857 9.840609 -2.092156 3.000000
10.137242 3.204043 -1.782924 1.000000
12.826235 -1.497659 -2.112332 9.000000
4.873009 -2.919902 -0.748907 4.000000
9.318412 -13.006226 -1.203034 7.000000
10.994196 9.723422 -2.088861 5.000000
10.148621 3.166774 -1.784780 1.000000
12.845520 -1.547655 -2.114110 6.000000
4.841504 -2.925194 -0.741690 2.000000
9.231970 -12.971457 -1.180363 7.000000
10.950002 9.613041 -2.089326 4.000000
10.163132 3.132414 -1.793033 1.000000
13.030831 -1.620766 -2.143264 7.000000
4.860092 -2.961958 -0.744254 1.000000
10.170307 3.089976 -1.795912 1.000000
13.024431 -1.668468 -2.145555 7.000000
4.835854 -2.964576 -0.737701 2.000000
9.011495 -12.855417 -1.130850 7.000000
10.199018 3.059852 -1.804820 1.000000
12.989545 -1.710106 -2.138431 6.000000
4.809449 -2.970376 -0.732162 1.000000
10.185320 3.015095 -1.808058 1.000000
13.031102 -1.768823 -2.148781 6.000000
4.755725 -2.963634 -0.722805 1.000000
8.846922 -12.814771 -1.088899 7.000000
9.190667 7.838480 -1.781566 13.000000
10.233545 2.988621 -1.818491 1.000000
13.030214 -1.819683 -2.142698 6.000000
4.799849 -3.015611 -0.727164 1.000000
8.732495 -12.743942 -1.058609 10.000000
9.187945 7.778170 -1.786235 8.000000
13.042626 -1.870178 -2.148213 6.000000
8.657716 -12.729881 -1.038728 7.000000
9.216065 7.741424 -1.800941 1.000000
11.017842 3.123967 -1.967841 46.000000
13.099563 -1.929703 -2.154051 6.000000
4.732584 -3.021960 -0.711346 1.000000
8.564839 -12.697896 -1.014631 16.000000
9.021598 7.524518 -1.768279 7.000000
11.512035 3.220716 -2.058382 60.000000
13.048800 -1.966457 -2.149128 6.000000
7.690290 -11.483282 -0.903421 7.000000
9.030909 7.478985 -1.779629 7.000000
11.493876 3.170258 -2.061616 70.000000
13.139068 -2.031687 -2.162882 6.000000
8.385458 -12.616351 -0.971669 17.000000
9.007418 7.404044 -1.780051 11.000000
11.505270 3.125913 -2.065778 71.000000
13.161153 -2.084522 -2.165374 6.000000
4.895354 -3.202209 -0.729652 1.000000
8.295214 -12.575575 -0.950452 23.000000
8.966673 7.310434 -1.778585 7.000000
11.450401 3.061701 -2.057965 58.000000
13.157550 -2.140486 -2.163849 6.000000
4.888257 -3.223211 -0.725161 1.000000
8.219637 -12.560923 -0.928650 16.000000
8.851651 7.167926 -1.759186 1.000000
11.460322 3.021529 -2.062102 51.000000
13.194197 -2.191384 -2.171059 6.000000
4.781671 -3.178137 -0.708021 1.000000
8.138212 -12.531748 -0.908681 15.000000
8.864629 7.124797 -1.770792 8.000000
11.422251 2.966760 -2.061770 16.000000
13.175545 -2.245038 -2.167124 6.000000
4.733292 -3.171056 -0.698536 1.000000
8.059782 -12.506332 -0.889155 9.000000
8.884221 7.082031 -1.779169 1.000000
10.856460 2.771313 -1.961560 1.000000
13.230812 -2.304387 -2.175184 6.000000
4.763274 -3.216499 -0.699605 1.000000
7.979007 -12.476425 -0.866887 21.000000
8.792211 6.956136 -1.769661 9.000000
10.874766 2.733570 -1.971113 1.000000
13.158697 -2.343921 -2.164791 6.000000
4.854239 -3.303894 -0.712659 1.000000
7.898945 -12.451549 -0.847647 18.000000
8.658698 6.803941 -1.748088 1.000000
10.854894 2.688325 -1.969823 1.000000
13.175506 -2.392020 -2.166451 6.000000
4.740270 -3.251810 -0.692582 1.000000
7.821483 -12.425114 -0.823418 15.000000
8.631516 6.731558 -1.749361 1.000000
10.849447 2.642804 -1.975018 1.000000
13.185636 -2.446193 -2.169646 6.000000
4.844020 -3.346659 -0.707274 1.000000
7.730908 -12.376845 -0.803097 9.000000
8.690056 6.726135 -1.766053 1.000000
10.848814 2.600565 -1.977170 1.000000
13.171669 -2.495956 -2.166507 6.000000
4.750739 -3.308002 -0.690295 1.000000
7.653831 -12.349178 -0.786847 17.000000
8.678195 6.666235 -1.768463 7.000000
10.872421 2.562118 -1.983687 1.000000
13.220960 -2.555529 -2.173729 6.000000
4.755233 -3.337076 -0.688608 1.000000
7.572409 -12.318408 -0.765396 13.000000
8.610579 6.564254 -1.763346 5.000000
10.913954 2.529719 -1.997629 1.000000
13.196522 -2.603409 -2.171339 6.000000
4.739209 -3.351823 -0.684980 1.000000
7.496044 -12.290135 -0.744373 13.000000
8.574080 6.486878 -1.762550 8.000000
11.239302 2.559696 -2.061592 1.000000
13.148177 -2.643974 -2.164964 6.000000
4.790790 -3.417238 -0.690247 1.000000
7.412066 -12.248424 -0.727749 10.000000
8.513226 6.391911 -1.758571 9.000000
11.232793 2.514944 -2.066988 1.000000
13.195581 -2.706264 -2.176877 6.000000
4.729471 -3.383472 -0.682092 1.000000
7.336302 -12.219315 -0.707036 9.000000
8.531159 6.356614 -1.768898 21.000000
11.221731 2.467258 -2.071475 1.000000
13.156585 -2.748554 -2.172091 6.000000
4.967092 -3.581062 -0.715000 1.000000
7.256010 -12.186573 -0.691191 22.000000
8.497643 6.283335 -1.766641 22.000000
11.158201 2.410450 -2.060160 1.000000
12.972500 -2.762123 -2.141059 9.000000
4.857901 -3.529471 -0.696891 1.000000
7.185850 -12.165142 -0.673719 18.000000
8.431661 6.186876 -1.759457 13.000000
11.108211 2.355045 -2.057432 1.000000
12.914048 -2.799195 -2.133091 40.000000
4.765169 -3.488854 -0.681240 1.000000
7.126077 -12.160686 -0.654832 10.000000
8.373327 6.096985 -1.751906 8.000000
11.116467 2.312228 -2.061396 1.000000
12.903932 -2.848921 -2.128479 165.000000
4.833299 -3.564718 -0.688506 1.000000
7.043761 -12.116982 -0.636443 10.000000
8.357672 6.038837 -1.758800 14.000000
11.002616 2.246508 -2.048867 1.000000
12.334011 -2.770543 -2.040660 6.000000
4.807808 -3.574501 -0.684707 1.000000
6.957171 -12.069626 -0.620430 9.000000
8.329689 5.972272 -1.763024 6.000000
10.989761 2.199961 -2.057016 4.000000
12.072041 -2.760432 -2.005710 1.000000
4.810673 -3.604084 -0.685929 1.000000
6.880604 -12.033684 -0.602800 17.000000
8.270594 5.932087 -1.765370 7.000000
10.855337 2.175022 -2.053904 1.000000
4.755571 -3.551153 -0.688821 1.000000
6.900440 -12.073266 -0.621745 10.000000
8.233819 5.951535 -1.754860 9.000000
10.775739 2.200184 -2.036385 1.000000
12.327919 -2.771435 -2.075953 31.000000
4.783314 -3.545930 -0.697363 1.000000
6.954625 -12.070077 -0.639881 12.000000
8.251720 6.012847 -1.756243 16.000000
10.834247 2.255499 -2.051061 1.000000
12.490723 -2.759979 -2.110824 145.000000
4.727594 -3.477847 -0.694646 1.000000
7.026362 -12.096768 -0.662167 10.000000
8.226394 6.040677 -1.750051 6.000000
10.777414 2.286878 -2.041949 3.000000
12.437118 -2.698090 -2.109126 143.000000
4.751749 -3.468847 -0.702570 1.000000
7.123465 -12.165963 -0.691975 13.000000
8.228951 6.089103 -1.747976 7.000000
10.778570 2.328440 -2.043772 1.000000
12.383130 -2.638893 -2.105129 182.000000
4.759110 -3.448820 -0.709159 1.000000
7.180619 -12.165981 -0.713171 21.000000
8.261556 6.162461 -1.754361 15.000000
10.759948 2.367697 -2.041949 1.000000
12.347833 -2.584095 -2.106555 38.000000
4.759024 -3.422225 -0.713500 1.000000
7.253163 -12.191470 -0.736005 16.000000
8.263780 6.211390 -1.750375 15.000000
10.765864 2.412375 -2.040831 1.000000
12.299334 -2.524691 -2.098865 13.000000
7.328588 -12.220963 -0.756783 9.000000
8.269442 6.263210 -1.748976 18.000000
10.780919 2.457281 -2.045379 1.000000
12.282895 -2.474435 -2.103491 3.000000
4.664478 -3.286771 -0.708717 1.000000
7.393962 -12.232963 -0.776633 10.000000
8.275081 6.315342 -1.745711 17.000000
10.819996 2.509930 -2.050596 1.000000
12.324722 -2.433655 -2.118056 4.000000
4.671714 -3.266311 -0.715065 1.000000
7.485395 -12.287146 -0.801877 17.000000
8.323455 6.400671 -1.751434 9.000000
10.786351 2.545810 -2.046058 1.000000
12.371918 -2.395895 -2.126906 3.000000
4.671015 -3.240399 -0.717167 1.000000
7.566901 -12.323908 -0.823719 18.000000
8.350461 6.472614 -1.754753 9.000000
10.791987 2.588935 -2.044907 1.000000
12.370607 -2.346396 -2.129637 1.000000
4.665233 -3.212323 -0.721585 1.000000
7.631872 -12.323352 -0.848479 12.000000
8.319630 6.497669 -1.747588 9.000000
10.758081 2.624527 -2.040377 1.000000
12.305329 -2.287323 -2.123683 1.000000
4.646783 -3.176956 -0.721092 1.000000
7.712253 -12.366185 -0.870960 12.000000
8.339602 6.562619 -1.747311 8.000000
10.791572 2.676641 -2.044650 1.000000
12.308442 -2.239042 -2.127213 2.000000
5.048935 -3.422243 -0.786770 1.000000
8.394012 6.655398 -1.754209 9.000000
10.810993 2.723559 -2.046185 1.000000
12.306495 -2.192121 -2.127719 1.000000
8.409074 6.717682 -1.754776 7.000000
10.833806 2.773588 -2.052503 1.000000
12.236032 -2.131129 -2.120798 1.000000
4.639591 -3.095393 -0.730316 1.000000
7.938291 -12.431872 -0.938342 6.000000
8.412498 6.771078 -1.750985 8.000000
10.800459 2.807271 -2.044094 3.000000
12.204164 -2.079520 -2.118387 1.000000
4.824097 -3.193000 -0.761620 1.000000
8.438889 6.843438 -1.750012 4.000000
10.775335 2.844954 -2.041392 46.000000
12.186659 -2.028416 -2.120640 1.000000
4.706659 -3.090521 -0.747286 1.000000
8.117370 -12.509210 -0.990463 8.000000
8.440016 6.898238 -1.749870 1.000000
10.736516 2.878849 -2.032107 57.000000
12.154735 -1.977347 -2.116022 7.000000
4.874212 -3.177459 -0.776345 1.000000
8.205172 -12.557943 -1.012138 23.000000
8.480883 6.983645 -1.751839 6.000000
10.731322 2.919658 -2.029124 64.000000
12.131577 -1.925794 -2.119518 4.000000
8.528614 7.075564 -1.757129 9.000000
10.740022 2.966363 -2.026880 62.000000
12.123582 -1.878996 -2.119108 1.000000
4.738163 -3.038344 -0.762024 1.000000
8.375412 -12.615560 -1.064189 7.000000
8.503798 7.107757 -1.747458 5.000000
10.766973 3.016324 -2.034039 64.000000
12.023167 -1.816187 -2.102508 1.000000
4.694361 -2.986032 -0.758159 1.000000
7.623711 -11.401073 -0.978302 6.000000
8.564260 7.206669 -1.756776 1.000000
10.755994 3.057838 -2.030135 64.000000
11.985512 -1.765592 -2.096955 1.000000
4.703676 -2.970095 -0.763014 1.000000
8.580406 7.274139 -1.755488 1.000000
10.749580 3.100675 -2.027123 64.000000
11.975884 -1.721484 -2.100732 1.000000
4.676186 -2.928818 -0.761714 1.000000
8.630224 7.370908 -1.759023 13.000000
10.753328 3.144493 -2.023932 3.000000
11.943305 -1.667895 -2.095994 1.000000
4.732712 -2.940126 -0.773126 3.000000
8.597980 7.403266 -1.748357 1.000000
10.901562 3.233329 -2.054153 1.000000
11.914728 -1.617288 -2.094198 7.000000
4.726802 -2.910223 -0.777159 3.000000
8.836035 -12.813345 -1.189435 22.000000
8.626587 7.477857 -1.751048 1.000000
10.914229 3.280656 -2.052630 3.000000
11.763947 -1.552931 -2.068815 24.000000
4.774102 -2.917557 -0.786328 3.000000
8.894823 -12.807510 -1.208050 8.000000
8.672315 7.578680 -1.754148 8.000000
10.925774 3.329921 -2.053075 1.000000
11.735264 -1.503322 -2.064868 66.000000
4.749965 -2.869887 -0.785877 1.000000
9.000262 -12.853706 -1.234946 7.000000
8.745811 7.699625 -1.764308 5.000000
10.946753 3.380213 -2.057267 1.000000
11.705663 -1.453868 -2.065027 59.000000
4.802203 -2.877476 -0.798751 1.000000
9.098659 -12.898170 -1.264440 7.000000
8.718909 7.732850 -1.752105 1.000000
10.976649 3.435666 -2.061206 17.000000
11.730113 -1.413268 -2.070539 45.000000
4.846275 -2.879797 -0.808336 4.000000
9.200461 -12.946307 -1.291830 5.000000
10.994036 3.481179 -2.062473 35.000000
11.857265 -1.386615 -2.092116 27.000000
4.863837 -2.868451 -0.813698 2.000000
10.938207 3.513980 -2.048535 46.000000
11.875857 -1.344685 -2.100963 9.000000
4.853213 -2.835989 -0.816019 3.000000
9.414707 -13.058618 -1.349006 7.000000
10.903764 3.542848 -2.040144 64.000000
11.944939 -1.306074 -2.110119 1.000000
4.883746 -2.832147 -0.821581 1.000000
9.488674 -13.064835 -1.370091 9.000000
10.842411 3.573193 -2.029392 69.000000
11.865297 -1.253375 -2.101665 1.000000
4.940519 -2.840925 -0.835471 1.000000
9.559037 -13.060767 -1.393248 7.000000
10.322638 9.488828 -2.047975 3.000000
10.829617 3.615134 -2.023415 71.000000
11.923543 -1.213252 -2.113298 3.000000
5.020016 -2.859884 -0.852117 4.000000
9.656611 -13.097908 -1.423689 5.000000
10.412801 9.642360 -2.057684 5.000000
10.854613 3.667750 -2.024396 40.000000
11.849339 -1.159750 -2.101485 1.000000
4.955885 -2.801622 -0.842695 1.000000
10.375341 9.678549 -2.042109 4.000000
10.865710 3.713809 -2.024738 34.000000
11.798859 -1.111165 -2.096061 4.000000
5.021430 -2.814439 -0.858241 1.000000
10.410144 9.782617 -2.038191 2.000000
10.865675 3.762578 -2.021322 17.000000
11.823016 -1.067657 -2.097473 3.000000
5.002515 -2.776364 -0.856076 4.000000
10.095192 -13.391909 -1.526253 6.000000
10.475910 9.916971 -2.047896 5.000000
10.899287 3.819012 -2.023932 1.000000
11.801230 -1.022097 -2.099325 1.000000
5.089975 -2.800552 -0.874465 4.000000
10.598693 10.107118 -2.063483 3.000000
11.086181 3.928000 -2.056939 4.000000
11.799796 -0.976340 -2.100519 1.000000
5.116054 -2.792839 -0.881511 1.000000
10.597045 10.176413 -2.054377 5.000000
11.098476 3.982574 -2.060049 1.000000
11.793641 -0.930251 -2.098773 2.000000
5.104940 -2.760231 -0.881824 1.000000
8.922074 -11.568832 -1.383589 1.000000
10.664185 10.316284 -2.061509 8.000000
11.139675 4.045705 -2.064170 1.000000
11.840790 -0.890313 -2.108706 1.000000
5.144974 -2.757555 -0.891158 2.000000
8.933879 -11.500899 -1.397140 6.000000
10.673702 10.401492 -2.057449 9.000000
11.108712 4.076207 -2.054543 1.000000
11.765553 -0.839237 -2.094718 1.000000
5.157764 -2.742432 -0.897010 1.000000
10.550042 -13.488875 -1.660982 7.000000
10.615828 10.421225 -2.037769 9.000000
11.221852 4.171140 -2.072224 1.000000
11.728164 -0.793377 -2.093879 1.000000
10.586743 -13.438868 -1.677450 6.000000
10.592913 10.475244 -2.027484 7.000000
11.059915 4.157149 -2.038750 1.000000
11.736036 -0.748652 -2.094755 1.000000
5.216506 -2.723646 -0.912058 1.000000
10.610447 10.566094 -2.021918 5.000000
10.902085 4.145669 -2.006287 1.000000
11.708979 -0.701794 -2.091542 1.000000
5.279493 -2.729619 -0.925397 1.000000
5.392928 -6.745939 -0.866618 9.000000
10.702591 10.736266 -2.030799 5.000000
10.783123 4.141413 -1.982760 1.000000
11.721301 -0.659427 -2.093297 1.000000
5.371603 -2.754706 -0.943173 1.000000
5.396961 -6.702878 -0.875639 10.000000
10.922647 11.037631 -2.063666 6.000000
10.814048 4.201008 -1.985145 1.000000
11.728295 -0.614654 -2.096225 1.000000
5.381075 -2.734700 -0.947387 1.000000
5.392807 -6.647691 -0.878554 9.000000
10.946156 11.142779 -2.059166 3.000000
10.785460 4.235464 -1.978570 1.000000
11.755053 -0.572861 -2.100617 1.000000
5.394584 -2.716733 -0.954488 1.000000
5.399562 -6.608735 -0.886429 10.000000
11.061020 11.338606 -2.071334 5.000000
10.792235 4.288208 -1.976698 1.000000
11.702711 -0.525277 -2.092998 1.000000
5.382751 -2.683741 -0.954785 1.000000
5.433689 -6.598629 -0.898422 9.000000
11.082981 11.444741 -2.066321 5.000000
10.842527 4.352075 -1.980288 1.000000
11.675134 -0.479127 -2.087722 2.000000
5.449486 -2.693304 -0.966037 1.000000
5.439071 -6.560706 -0.904734 9.000000
11.224605 11.676320 -2.083446 5.000000
10.826247 4.396083 -1.972131 1.000000
11.701405 -0.437251 -2.092119 1.000000
5.409786 -2.649056 -0.962662 1.000000
5.455993 -6.532243 -0.914077 10.000000
11.233225 11.767226 -2.075342 6.000000
11.373724 4.662385 -2.068046 1.000000
11.535741 -0.386711 -2.062219 1.000000
5.525453 -2.680633 -0.985887 1.000000
5.510141 -6.550461 -0.928380 9.000000
11.300693 11.925109 -2.078386 4.000000
11.451729 4.745803 -2.083303 1.000000
11.497363 -0.343242 -2.057191 24.000000
5.552415 -2.668617 -0.993358 4.000000
5.546336 -6.544644 -0.939521 11.000000
11.231722 11.931324 -2.058439 6.000000
11.448909 4.793879 -2.079290 1.000000
11.503411 -0.303237 -2.058071 32.000000
5.553237 -2.642812 -0.994986 4.000000
5.571731 -6.528272 -0.949054 10.000000
11.323795 12.126300 -2.069512 4.000000
11.476834 4.857450 -2.081026 1.000000
11.484091 -0.258605 -2.058560 46.000000
5.593505 -2.636875 -1.004894 1.000000
5.632483 -6.552991 -0.967714 10.000000
11.395122 12.279793 -2.071774 4.000000
11.528315 4.929138 -2.084627 5.000000
11.465279 -0.216141 -2.055032 94.000000
5.656312 -2.641188 -1.017786 1.000000
5.672059 -6.550313 -0.979571 11.000000
11.424750 12.411273 -2.065281 6.000000
11.502114 4.967879 -2.076427 1.000000
11.461102 -0.172042 -2.054150 56.000000
5.665145 -2.620065 -1.023234 1.000000
5.718210 -6.554908 -0.992612 10.000000
11.476822 12.555515 -2.061514 3.000000
11.581651 5.059899 -2.087794 9.000000
11.451880 -0.123926 -2.052386 52.000000
5.818392 -2.663868 -1.051352 1.000000
5.752371 -6.543179 -1.004958 13.000000
11.596266 12.770971 -2.078346 5.000000
11.619979 5.122599 -2.090924 51.000000
11.462071 -0.086023 -2.054150 34.000000
5.656549 -2.564734 -1.025969 1.000000
5.793087 -6.545590 -1.017550 10.000000
11.683789 12.962508 -2.083995 2.000000
11.570903 5.151698 -2.076396 76.000000
11.560387 -0.042371 -2.073807 24.000000
5.871497 -2.638756 -1.066825 1.000000
5.819514 -6.533976 -1.027869 10.000000
11.841922 13.230520 -2.101568 4.000000
11.543027 5.192486 -2.068151 9.000000
11.639571 0.000000 -2.085901 11.000000
5.871891 -2.611879 -1.069677 1.000000
5.879177 -6.552450 -1.043505 10.000000
11.854418 13.342568 -2.090343 1.000000
11.544703 5.239339 -2.064738 8.000000
11.649344 0.040664 -2.087666 1.000000
5.880911 -2.590113 -1.073042 1.000000
5.922391 -6.552141 -1.056286 9.000000
12.084082 13.692241 -2.122682 1.000000
11.585060 5.308947 -2.066290 7.000000
11.575294 0.082832 -2.074435 10.000000
6.011895 -2.621536 -1.098711 1.000000
5.944479 -6.530607 -1.065535 9.000000
12.085478 13.800270 -2.109509 1.000000
11.684623 5.413909 -2.081155 8.000000
11.382916 0.129141 -2.040038 32.000000
6.053079 -2.611879 -1.107946 1.000000
6.005404 -6.546864 -1.084529 10.000000
12.132385 13.946878 -2.106146 1.000000
11.743945 5.488774 -2.085666 9.000000
11.377475 0.168801 -2.039156 36.000000
6.089102 -2.600991 -1.117541 2.000000
6.053500 -6.555523 -1.095605 9.000000
12.237710 14.167522 -2.113145 2.000000
11.822962 5.578593 -2.096294 7.000000
11.381701 0.210591 -2.040038 27.000000
6.143914 -2.596555 -1.129355 1.000000
6.083462 -6.539714 -1.106178 9.000000
12.355323 14.410112 -2.122431 1.000000
11.779831 5.613645 -2.087781 7.000000
11.389935 0.254496 -2.045779 35.000000
6.147037 -6.559681 -1.126106 9.000000
12.391740 14.565394 -2.114626 6.000000
11.818660 5.685397 -2.086606 8.000000
11.389639 0.296259 -2.041802 23.000000
6.216336 -2.573620 -1.146417 1.000000
6.199725 -6.569793 -1.141159 9.000000
12.644338 14.973152 -2.146311 6.000000
11.854791 5.761492 -2.087618 8.000000
11.393694 0.340147 -2.040695 35.000000
6.344199 -2.598066 -1.171844 4.000000
6.221941 -6.540535 -1.148410 9.000000
12.589664 15.009096 -2.124708 6.000000
11.907557 5.836030 -2.093189 8.000000
11.382466 0.383562 -2.038932 34.000000
6.389647 -2.589372 -1.182193 1.000000
6.273490 -6.551084 -1.165172 9.000000
12.807098 15.387934 -2.146616 8.000000
11.843122 5.858380 -2.076170 10.000000
11.410494 0.426381 -2.044219 20.000000
6.425961 -2.576708 -1.190889 1.000000
6.326590 -6.560536 -1.178860 10.000000
12.770096 15.447370 -2.127761 11.000000
11.773220 5.880177 -2.058445 9.000000
11.556661 0.476286 -2.068635 7.000000
6.705461 -2.658942 -1.244675 1.000000
6.360095 -6.547084 -1.190343 9.000000
12.736900 15.517196 -2.102900 16.000000
11.637848 5.865959 -2.031532 10.000000
11.638333 0.524423 -2.083599 29.000000
6.609066 -2.592726 -1.228838 1.000000
6.421313 -6.561809 -1.207070 10.000000
12.715231 15.601529 -2.090545 8.000000
11.537636 5.868576 -2.013152 9.000000
11.542207 0.562489 -2.070908 53.000000
6.503155 -2.522407 -1.213606 1.000000
6.467641 -6.563163 -1.221283 9.000000
12.793840 15.816002 -2.091456 6.000000
11.447579 5.875681 -1.987384 8.000000
11.427993 0.600916 -2.044631 37.000000
6.571945 -2.521417 -1.225976 1.000000
6.501223 -6.549055 -1.232918 9.000000
13.104595 16.316317 -2.125719 6.000000
11.329629 5.870214 -1.961686 8.000000
11.415884 0.642244 -2.042872 36.000000
6.589348 -2.500427 -1.233843 1.000000
6.569817 -6.569817 -1.251256 10.000000
13.185631 16.541027 -2.126306 6.000000
11.234487 5.873248 -1.942133 9.000000
11.442455 0.687824 -2.050149 36.000000
6.865731 -2.575190 -1.287692 1.000000
6.610500 -6.562219 -1.264347 9.000000
13.366945 16.889095 -2.142258 6.000000
11.135386 5.873507 -1.919715 8.000000
11.439731 0.731755 -2.050149 43.000000
6.632420 -6.538171 -1.274101 9.000000
13.460252 17.135677 -2.140381 6.000000
11.040777 5.875430 -1.898171 14.000000
11.442952 0.774083 -2.045024 38.000000
7.188710 -2.634963 -1.352787 1.000000
6.708643 -6.565003 -1.292458 7.000000
13.601114 17.439981 -2.141273 6.000000
10.976774 5.893097 -1.881971 3.000000
11.454911 0.815070 -2.047657 23.000000
6.784972 -6.591188 -1.312595 1.000000
13.745682 17.752792 -2.150045 6.000000
10.904082 5.905657 -1.864352 1.000000
11.491173 0.864026 -2.052668 8.000000
7.165899 -2.565763 -1.348943 1.000000
13.782202 17.935375 -2.138141 9.000000
10.882465 5.948105 -1.855695 5.000000
11.566645 0.914377 -2.064672 1.000000
7.229828 -2.558796 -1.366107 1.000000
13.741775 18.012556 -2.121665 9.000000
10.952670 6.038719 -1.862502 1.000000
11.626824 0.964071 -2.076059 1.000000
7.220338 -2.524283 -1.366605 1.000000
13.653175 18.033100 -2.090303 9.000000
10.957533 6.093875 -1.858168 6.000000
11.638638 1.003922 -2.076649 1.000000
13.570726 18.054815 -2.059489 10.000000
10.944880 6.139469 -1.850873 8.000000
11.625252 1.047753 -2.072861 1.000000
7.384614 -2.545610 -1.396989 1.000000
13.440617 18.012280 -2.021590 10.000000
10.932598 6.185366 -1.839179 6.000000
11.670347 1.094953 -2.081604 1.000000
7.456435 -2.547094 -1.412063 1.000000
4.174119 -3.851766 -0.829596 1.000000
13.349681 18.021317 -1.985798 10.000000
11.009805 6.282429 -1.846990 9.000000
11.666742 1.143934 -2.075466 1.000000
7.544521 -2.546344 -1.429836 1.000000
4.177505 -3.825295 -0.831383 1.000000
13.275710 18.059473 -1.964916 11.000000
11.069306 6.370276 -1.851772 7.000000
11.663038 1.184688 -2.073420 1.000000
7.642231 -2.546677 -1.450844 1.000000
4.252287 -3.866571 -0.850749 1.000000
13.284671 18.204479 -1.943931 7.000000
11.029879 6.401515 -1.840000 7.000000
11.717737 1.233652 -2.081814 4.000000
7.777471 -2.560111 -1.476203 5.000000
4.221934 -3.810797 -0.845934 1.000000
13.438710 18.551214 -1.947743 6.000000
11.075790 6.482547 -1.842465 8.000000
11.727512 1.284371 -2.082364 1.000000
7.828869 -2.543754 -1.487061 24.000000
4.310214 -3.859194 -0.866705 1.000000
11.185205 6.601744 -1.855425 9.000000
11.708871 1.321638 -2.077700 1.000000
7.869690 -2.525166 -1.500496 5.000000
16.153048 22.637377 -2.305909 8.000000
11.264134 6.704118 -1.863245 7.000000
11.699180 1.366058 -2.074776 1.000000
7.981122 -2.530228 -1.523068 1.000000
4.161512 -3.674033 -0.843517 1.000000
16.239729 22.927704 -2.295135 7.000000
11.206916 6.725811 -1.846210 7.000000
11.713761 1.413372 -2.076187 1.000000
8.070264 -2.522881 -1.542708 3.000000
4.129789 -3.619178 -0.839295 3.000000
16.289240 23.177244 -2.274309 10.000000
11.255855 6.811419 -1.844322 8.000000
11.703976 1.455733 -2.073262 1.000000
4.153657 -3.613266 -0.846366 1.000000
16.280886 23.338102 -2.254515 7.000000
11.323152 6.911681 -1.854963 7.000000
11.688890 1.499455 -2.069474 1.000000
4.188639 -3.616812 -0.856721 1.000000
13.723496 19.819244 -1.880312 5.000000
11.410279 7.019650 -1.858937 8.000000
11.712967 1.546201 -2.072601 3.000000
10.843198 -3.255178 -2.075799 1.000000
4.092626 -3.507804 -0.838301 2.000000
13.655522 19.868908 -1.850858 7.000000
11.528960 7.151045 -1.870465 8.000000
11.707302 1.591213 -2.070539 3.000000
10.807075 -3.199150 -2.074651 1.000000
4.123596 -3.508214 -0.847813 1.000000
13.600723 19.945391 -1.823662 7.000000
11.518768 7.206114 -1.868454 7.000000
11.716382 1.636205 -2.071063 5.000000
10.841631 -3.166207 -2.083119 3.000000
4.128694 -3.485313 -0.852868 2.000000
11.541291 7.276381 -1.861660 5.000000
11.749373 1.686831 -2.075889 1.000000
10.814471 -3.117348 -2.077829 1.000000
4.170769 -3.495971 -0.861954 1.000000
11.748041 1.732705 -2.074678 7.000000
10.758223 -3.058471 -2.072929 3.000000
4.160481 -3.468843 -0.861825 3.000000
11.757295 1.778124 -2.071033 1.000000
10.840897 -3.037033 -2.086597 1.000000
4.164863 -3.446699 -0.865915 5.000000
11.769852 1.826277 -2.074465 1.000000
10.803867 -2.983997 -2.081398 29.000000
4.165439 -3.421530 -0.868248 4.000000
13.530733 20.598574 -1.719032 9.000000
12.094444 7.875248 -1.923134 7.000000
11.768301 1.870233 -2.073243 1.000000
10.790827 -2.935848 -2.080737 6.000000
4.154410 -3.387047 -0.868155 5.000000
13.457322 20.643490 -1.684279 9.000000
12.160566 7.975852 -1.927511 7.000000
11.874614 1.929649 -2.086657 34.000000
10.777227 -2.887749 -2.082006 1.000000
4.173878 -3.377528 -0.874440 4.000000
13.342932 20.625032 -1.648813 9.000000
12.213095 8.080606 -1.922760 6.000000
11.682817 1.946650 -2.050052 63.000000
10.777533 -2.845535 -2.084063 1.000000
4.170125 -3.349273 -0.876826 4.000000
13.272087 20.673399 -1.614513 7.000000
14.209762 9.476733 -2.230429 5.000000
11.642314 1.985875 -2.037899 50.000000
10.736055 -2.790531 -2.073955 1.000000
4.209019 -3.355207 -0.885307 4.000000
14.184772 9.535365 -2.216809 6.000000
11.721975 2.043704 -2.055280 32.000000
10.760272 -2.752762 -2.080589 4.000000
4.158663 -3.290210 -0.877877 5.000000
14.159853 9.594151 -2.200185 4.000000
11.807624 2.105384 -2.063077 1.000000
10.769584 -2.713127 -2.084466 1.000000
4.208881 -3.304932 -0.890714 6.000000
14.243613 9.719977 -2.209018 5.000000
11.878505 2.158690 -2.074532 1.000000
10.702902 -2.652666 -2.073558 1.000000
4.224241 -3.292036 -0.896208 6.000000
14.382069 9.899311 -2.218055 4.000000
11.855535 2.205856 -2.067782 1.000000
10.711848 -2.613248 -2.077406 2.000000
4.193322 -3.242136 -0.891757 6.000000
14.496398 10.052762 -2.219188 6.000000
11.984802 2.271052 -2.085056 1.000000
10.621467 -2.548028 -2.057966 8.000000
4.169479 -3.199354 -0.887960 7.000000
14.565937 10.172681 -2.222387 6.000000
11.942835 2.310638 -2.074913 1.000000
10.549178 -2.487889 -2.046011 28.000000
4.184482 -3.186567 -0.893383 7.000000
14.481943 10.200753 -2.200103 6.000000
12.012012 2.369729 -2.086228 1.000000
10.547957 -2.446825 -2.047936 56.000000
4.183713 -3.161822 -0.895448 7.000000
14.591573 10.350538 -2.202940 6.000000
12.047744 2.424875 -2.085207 1.000000
10.547694 -2.404122 -2.046078 76.000000
4.179127 -3.134357 -0.894817 7.000000
14.724670 10.526288 -2.212810 6.000000
12.106740 2.482955 -2.094760 1.000000
10.537323 -2.359233 -2.044245 75.000000
4.173605 -3.107512 -0.895982 8.000000
14.913082 10.743788 -2.230750 6.000000
12.098545 2.529722 -2.086132 1.000000
10.549999 -2.321498 -2.048946 39.000000
4.189506 -3.093287 -0.900466 8.000000
14.941650 10.843797 -2.221056 6.000000
12.138128 2.584468 -2.090121 1.000000
10.544430 -2.277860 -2.046151 53.000000
4.172364 -3.057065 -0.899017 8.000000
15.131785 11.066683 -2.238739 6.000000
12.157739 2.637482 -2.090761 1.000000
10.542789 -2.235170 -2.048049 35.000000
4.194984 -3.050072 -0.905207 7.000000
15.320519 11.291134 -2.255926 6.000000
12.162793 2.685293 -2.091073 1.000000
10.622693 -2.211458 -2.063946 27.000000
4.197505 -3.028450 -0.908005 8.000000
7.496429 13.041956 -0.717300 1.000000
15.360654 11.407829 -2.247662 6.000000
12.293829 2.761517 -2.106284 1.000000
10.688147 -2.182300 -2.078966 9.000000
4.197603 -3.019617 -0.908043 9.000000
7.518253 13.191598 -0.705418 1.000000
15.564883 11.644020 -2.266284 6.000000
11.254988 2.573602 -1.925837 1.000000
10.667551 -2.135460 -2.073349 7.000000
4.196495 -2.994436 -0.909948 8.000000
7.536416 13.325995 -0.689844 1.000000
15.718653 11.849156 -2.270608 6.000000
11.045008 2.568222 -1.883370 1.000000
10.694940 -2.100202 -2.075191 4.000000
4.219107 -2.987294 -0.915262 8.000000
7.573465 13.501276 -0.673181 1.000000
15.776214 11.983479 -2.260730 7.000000
10.743199 2.541565 -1.827618 1.000000
10.620930 -2.043346 -2.059293 2.000000
4.229635 -2.971535 -0.917969 8.000000
15.890048 12.157650 -2.261888 8.000000
10.759034 2.586988 -1.823976 1.000000
10.676966 -2.011644 -2.068645 4.000000
4.256774 -2.966254 -0.924183 8.000000
7.330257 13.284217 -0.617346 1.000000
15.918395 12.272098 -2.247443 8.000000
10.659648 2.604456 -1.800865 1.000000
10.723609 -1.977826 -2.074223 5.000000
4.242795 -2.933470 -0.922523 9.000000
7.320860 13.267186 -0.603309 1.000000
16.299961 12.561727 -2.282824 7.000000
10.656680 2.603731 -1.788568 1.000000
10.773698 -1.987064 -2.074007 1.000000
4.255284 -2.951996 -0.919717 9.000000
7.446875 13.379393 -0.625710 1.000000
16.278156 12.450093 -2.280606 8.000000
10.739183 2.580232 -1.796782 1.000000
10.826062 -2.039735 -2.073632 4.000000
4.217235 -2.948554 -0.906414 9.000000
7.480983 13.330956 -0.640697 1.000000
16.227736 12.317521 -2.278002 8.000000
10.897453 2.576049 -1.821670 1.000000
10.842632 -2.085999 -2.076330 6.000000
4.215224 -2.970210 -0.902749 9.000000
7.578794 13.395473 -0.661212 1.000000
16.068779 12.104298 -2.267222 8.000000
11.103724 2.579832 -1.858566 1.000000
10.903850 -2.139250 -2.081509 7.000000
4.192903 -2.977538 -0.895675 10.000000
7.654799 13.420292 -0.682663 1.000000
16.044436 11.994038 -2.268192 7.000000
11.276995 2.576563 -1.883903 1.000000
10.911080 -2.184210 -2.078445 27.000000
4.186728 -2.996298 -0.891142 10.000000
7.671298 13.340796 -0.698817 1.000000
16.072643 11.927896 -2.283972 8.000000
10.836287 -2.210577 -2.061732 42.000000
4.196330 -3.026488 -0.890891 10.000000
16.035290 11.809280 -2.283062 6.000000
12.692838 2.799992 -2.121517 6.000000
10.838399 -2.254390 -2.057769 44.000000
4.171992 -3.045616 -0.881081 9.000000
15.904414 11.623229 -2.275766 6.000000
12.640797 2.737656 -2.111046 6.000000
10.843990 -2.302983 -2.056640 40.000000
4.176353 -3.074575 -0.879014 8.000000
15.840758 11.487878 -2.277923 6.000000
12.577628 2.675752 -2.103453 6.000000
10.870985 -2.346419 -2.057202 65.000000
4.194474 -3.109416 -0.880307 8.000000
15.813264 11.379730 -2.278296 6.000000
12.543979 2.618289 -2.098426 6.000000
10.896212 -2.395688 -2.059674 50.000000
4.170723 -3.117830 -0.873269 7.000000
15.635345 11.164939 -2.260349 6.000000
12.630109 2.587995 -2.115855 6.000000
10.912754 -2.441289 -2.056406 56.000000
4.172912 -3.141090 -0.870281 7.000000
12.435102 20.605774 -1.257096 6.000000
15.565803 11.029362 -2.254564 6.000000
12.577068 2.526846 -2.105328 6.000000
10.947155 -2.493161 -2.060626 60.000000
4.169834 -3.162783 -0.867358 7.000000
12.542472 20.620636 -1.290235 7.000000
15.546998 10.930667 -2.269569 6.000000
12.614929 2.486385 -2.112430 7.000000
11.019298 -2.554136 -2.073996 6.000000
4.182332 -3.196478 -0.867669 7.000000
12.632793 20.598701 -1.321360 5.000000
15.492333 10.807602 -2.265823 6.000000
12.584906 2.430305 -2.110420 6.000000
11.145319 -2.626427 -2.091251 1.000000
4.174212 -3.216898 -0.862045 6.000000
8.333563 13.482658 -0.886166 1.000000
15.359109 10.631186 -2.253854 6.000000
12.559435 2.377671 -2.106964 7.000000
11.202117 -2.685255 -2.103827 1.000000
4.194050 -3.256758 -0.864795 6.000000
15.300405 10.511745 -2.256279 6.000000
12.602427 2.335722 -2.112657 6.000000
11.197451 -2.731715 -2.096680 3.000000
4.190571 -3.278747 -0.860831 6.000000
8.394547 13.371683 -0.918642 1.000000
15.169062 10.339875 -2.247566 6.000000
12.479484 2.265656 -2.092914 6.000000
11.236309 -2.782787 -2.101588 4.000000
4.171361 -3.288436 -0.854599 6.000000
8.518041 13.463800 -0.943749 1.000000
15.234982 10.303228 -2.258239 6.000000
12.526228 2.224495 -2.103868 8.000000
11.221480 -2.824888 -2.096655 1.000000
4.187505 -3.324930 -0.855493 6.000000
13.185670 20.673462 -1.478260 7.000000
15.081454 10.119040 -2.246059 6.000000
12.495776 2.171874 -2.095128 6.000000
11.221000 -2.872714 -2.090352 4.000000
4.163954 -3.332378 -0.846608 6.000000
13.224389 20.575396 -1.504532 9.000000
15.038655 10.010587 -2.247012 6.000000
12.445303 2.113904 -2.087553 3.000000
11.244948 -2.920708 -2.092513 1.000000
4.172096 -3.362852 -0.845851 3.000000
13.346516 20.606907 -1.544647 10.000000
14.916284 9.850425 -2.239160 6.000000
12.470988 2.071268 -2.099642 8.000000
11.272942 -2.972126 -2.095534 27.000000
4.198063 -3.410457 -0.848927 5.000000
13.477320 20.650524 -1.581682 10.000000
14.872133 9.743176 -2.239765 6.000000
12.337296 2.000416 -2.078066 6.000000
11.200352 -2.999030 -2.079987 71.000000
4.221116 -3.453713 -0.851146 5.000000
13.548250 20.601725 -1.611808 9.000000
14.831237 9.638880 -2.243953 5.000000
12.427002 1.968244 -2.094203 1.000000
11.122795 -3.021996 -2.067627 60.000000
4.170875 -3.438204 -0.838719 2.000000
18.918224 28.539009 -2.268213 8.000000
14.857138 9.578443 -2.251951 6.000000
12.449090 1.922771 -2.096666 1.000000
11.165387 -3.079653 -2.065211 55.000000
4.116616 -3.420108 -0.823748 4.000000
18.985697 28.424843 -2.306341 8.000000
14.819787 9.477650 -2.253491 6.000000
12.504461 1.884426 -2.107082 6.000000
11.244789 -3.145949 -2.077811 35.000000
4.214625 -3.527725 -0.840051 2.000000
19.030302 28.277411 -2.341589 8.000000
12.704903 8.059666 -1.938075 6.000000
12.467324 1.829899 -2.101886 1.000000
11.445726 -3.249605 -2.117230 4.000000
4.175774 -3.521313 -0.829996 2.000000
12.636395 7.951404 -1.936412 6.000000
12.497682 1.789812 -2.108202 6.000000
11.440241 -3.293405 -2.107718 1.000000
4.201313 -3.576862 -0.831518 2.000000
13.662716 19.991297 -1.718696 6.000000
12.529712 7.820314 -1.926144 6.000000
12.489140 1.741899 -2.107933 1.000000
11.418763 -3.334754 -2.101823 1.000000
4.128671 -3.541200 -0.814850 1.000000
13.677478 19.863697 -1.741436 7.000000
12.498132 7.737096 -1.927355 6.000000
12.456502 1.684185 -2.105726 1.000000
11.463824 -3.393563 -2.108089 1.000000
4.086265 -3.530904 -0.804212 1.000000
13.697188 19.744415 -1.764674 1.000000
12.313753 7.560666 -1.907463 6.000000
12.487403 1.641781 -2.107658 1.000000
11.489144 -3.449094 -2.110847 3.000000
4.185850 -3.643837 -0.820494 3.000000
17.439779 24.943632 -2.267103 10.000000
12.268274 7.470963 -1.906368 8.000000
12.444332 1.587533 -2.101595 1.000000
11.608790 -3.533661 -2.128757 1.000000
4.132303 -3.623932 -0.805736 1.000000
17.539490 24.900700 -2.306173 8.000000
12.319886 7.440631 -1.920363 9.000000
12.444272 1.545605 -2.102958 1.000000
8.193772 -2.526997 -1.501133 4.000000
4.212866 -3.720680 -0.818962 1.000000
17.211210 24.263340 -2.278528 8.000000
12.215826 7.322609 -1.910468 8.000000
12.498706 1.503657 -2.113424 1.000000
8.176051 -2.554385 -1.493428 1.000000
12.116164 7.196912 -1.900364 8.000000
12.504275 1.453429 -2.115622 1.000000
7.983770 -2.528001 -1.455551 1.000000
4.046596 -3.626980 -0.781136 1.000000
12.076993 7.113893 -1.902574 9.000000
12.523605 1.411388 -2.120307 1.000000
7.931789 -2.545092 -1.447845 5.000000
4.243184 -3.831321 -0.816698 1.000000
12.011350 7.018866 -1.893307 9.000000
12.484578 1.360669 -2.112841 1.000000
7.867377 -2.556266 -1.430352 1.000000
4.160163 -3.784130 -0.797374 1.000000
11.954123 6.926776 -1.892554 7.000000
12.459924 1.309591 -2.110051 1.000000
7.788222 -2.562143 -1.414712 1.000000
4.230734 -3.876754 -0.808511 1.000000
11.890188 6.826120 -1.890269 7.000000
12.415439 1.256736 -2.103925 1.000000
7.657481 -2.551759 -1.388381 1.000000
4.329913 -3.996928 -0.823966 1.000000
13.937864 18.787895 -1.956172 6.000000
11.760992 6.700192 -1.875817 7.000000
12.463759 1.215494 -2.113592 1.000000
7.573825 -2.554762 -1.372029 1.000000
4.196180 -3.902061 -0.795117 1.000000
14.005110 18.741467 -1.981090 7.000000
11.802148 6.666461 -1.883294 8.000000
12.463058 1.167134 -2.114944 1.000000
7.476026 -2.553786 -1.351821 1.000000
4.190471 -3.924118 -0.789478 1.000000
13.847704 18.383198 -1.977148 8.000000
11.749879 6.574862 -1.880309 7.000000
12.442702 1.119238 -2.110780 1.000000
7.476601 -2.584622 -1.349366 1.000000
4.198181 -3.960318 -0.788529 2.000000
13.786921 18.176767 -1.983921 6.000000
11.663930 6.470746 -1.876990 9.000000
12.500569 1.076072 -2.122132 1.000000
7.257391 -2.572828 -1.306496 1.000000
4.227133 -4.017012 -0.792580 2.000000
13.827638 18.098888 -2.008718 8.000000
11.701809 6.441105 -1.886771 8.000000
12.484408 1.028599 -2.120983 1.000000
4.203645 -4.021304 -0.784468 4.000000
13.916774 18.084354 -2.036568 9.000000
11.641904 6.352644 -1.880428 7.000000
12.438750 0.976766 -2.114814 1.000000
7.312866 -2.640005 -1.313615 1.000000
14.008890 18.066664 -2.068501 15.000000
11.594578 6.271780 -1.876100 7.000000
12.461910 0.932641 -2.118156 1.000000
6.818206 -6.565892 -1.266353 12.000000
14.088856 18.026428 -2.098257 13.000000
11.593121 6.208364 -1.883350 9.000000
12.446098 0.883414 -2.112636 1.000000
7.206849 -2.677340 -1.286546 1.000000
6.768992 -6.568779 -1.251835 20.000000
14.196221 18.040180 -2.133610 9.000000
11.553144 6.132574 -1.884841 8.000000
12.399476 0.832267 -2.108627 1.000000
7.178731 -2.696878 -1.281907 1.000000
6.710203 -6.559655 -1.237068 10.000000
14.291956 18.031961 -2.158780 9.000000
11.600652 6.103398 -1.898272 8.000000
12.347963 0.783359 -2.101586 1.000000
7.196611 -2.735174 -1.282822 1.000000
6.658927 -6.557431 -1.220423 10.000000
14.235394 17.825989 -2.164455 7.000000
11.554440 6.030248 -1.892073 7.000000
12.232782 0.728904 -2.081491 27.000000
6.998797 -2.689390 -1.242586 1.000000
6.621670 -6.568720 -1.208067 13.000000
14.192925 17.646132 -2.176538 7.000000
11.518451 5.957851 -1.889525 7.000000
12.181595 0.681057 -2.070152 48.000000
6.585410 -6.578517 -1.197375 10.000000
14.121188 17.431993 -2.183857 6.000000
11.509686 5.894874 -1.898021 8.000000
12.222778 0.636290 -2.081115 40.000000
6.565979 -2.579791 -1.164087 1.000000
6.516685 -6.557760 -1.179402 9.000000
14.039042 17.201303 -2.180950 6.000000
11.616188 5.900878 -1.921640 8.000000
12.209895 0.590755 -2.080735 51.000000
6.552648 -2.602318 -1.158351 1.000000
6.471231 -6.555354 -1.166934 10.000000
13.838226 16.834948 -2.167495 6.000000
11.705887 5.884889 -1.941730 9.000000
12.187452 0.542772 -2.076540 51.000000
6.429149 -2.580592 -1.134459 1.000000
6.428501 -6.564569 -1.152568 10.000000
13.695059 16.536846 -2.162058 6.000000
11.792867 5.874568 -1.959624 9.000000
12.208784 0.496758 -2.082028 59.000000
6.446992 -2.616542 -1.136878 1.000000
6.373831 -6.556643 -1.140584 14.000000
13.719136 16.448700 -2.183219 6.000000
11.917459 5.887388 -1.986558 8.000000
12.190822 0.451278 -2.078669 51.000000
6.365217 -2.610566 -1.117974 1.000000
6.333478 -6.556218 -1.125734 16.000000
13.313899 15.844410 -2.131375 6.000000
12.019702 5.877990 -2.009203 9.000000
12.271284 0.407080 -2.092107 32.000000
6.369824 -2.639770 -1.116770 1.000000
6.280450 -6.553771 -1.111327 10.000000
13.191222 15.587616 -2.121023 9.000000
12.129207 5.876552 -2.031110 8.000000
12.459911 0.367625 -2.124022 5.000000
6.255467 -2.620568 -1.094833 1.000000
6.234382 -6.551324 -1.097603 10.000000
13.201649 15.484488 -2.135101 22.000000
12.269336 5.891651 -2.055979 8.000000
12.436965 0.319157 -2.117651 1.000000
6.269077 -2.653321 -1.095253 1.000000
6.197478 -6.560527 -1.085744 12.000000
13.234232 15.413402 -2.160338 9.000000
12.367162 5.877651 -2.080624 9.000000
12.432384 0.273446 -2.121153 1.000000
6.305231 -2.695915 -1.099605 1.000000
6.157185 -6.565916 -1.073332 10.000000
13.217596 15.280354 -2.169865 8.000000
12.492910 5.886709 -2.105883 7.000000
12.443198 0.225887 -2.122834 12.000000
6.054811 -2.616388 -1.056496 1.000000
6.113415 -6.567316 -1.061950 12.000000
13.207318 15.161186 -2.180778 6.000000
12.513066 5.840257 -2.115524 7.000000
12.389700 0.181655 -2.113586 37.000000
6.200488 -2.703773 -1.079841 1.000000
6.066403 -6.558004 -1.049453 10.000000
13.074412 14.898016 -2.170805 6.000000
12.475402 5.764445 -2.117674 7.000000
12.266338 0.134881 -2.096850 74.000000
5.977446 -2.636368 -1.038235 1.000000
6.026271 -6.562710 -1.037207 10.000000
12.923328 14.617444 -2.157490 6.000000
12.490604 5.716009 -2.126503 8.000000
12.203424 0.087327 -2.081639 59.000000
5.873505 -2.616281 -1.018388 1.000000
5.959406 -6.537831 -1.020427 10.000000
12.776103 14.359756 -2.145746 6.000000
12.380622 5.610889 -2.106693 8.000000
12.198733 0.042582 -2.080798 62.000000
5.887806 -2.646085 -1.018919 1.000000
5.930594 -6.552016 -1.010027 10.000000
12.697559 14.166576 -2.147355 1.000000
12.397478 5.569047 -2.118554 7.000000
12.192786 -0.004256 -2.086342 45.000000
6.098459 -2.768951 -1.053612 1.000000
5.895108 -6.565593 -0.997545 9.000000
12.595630 13.954541 -2.141805 1.000000
12.336505 5.484828 -2.111761 6.000000
12.222276 -0.044797 -2.091402 38.000000
5.846457 -2.680421 -1.007165 1.000000
5.825523 -6.529240 -0.979957 10.000000
12.491705 13.737835 -2.131973 2.000000
12.278320 5.405149 -2.107992 8.000000
12.203393 -0.091587 -2.081639 31.000000
5.760858 -2.666772 -0.990690 1.000000
5.805524 -6.555033 -0.971344 10.000000
12.432598 13.572555 -2.139423 1.000000
12.133372 5.288335 -2.091602 30.000000
12.202247 -0.136306 -2.085899 6.000000
5.670794 -2.650362 -0.974628 1.000000
5.765611 -6.558239 -0.960968 10.000000
12.343691 13.381414 -2.135397 1.000000
12.121510 5.227872 -2.088443 75.000000
12.226274 -0.183528 -2.090111 1.000000
5.670279 -2.676697 -0.970695 1.000000
5.726017 -6.554614 -0.948573 12.000000
12.184943 13.112560 -2.118612 1.000000
12.144122 5.184918 -2.096138 70.000000
12.348711 -0.230639 -2.111172 1.000000
5.598436 -2.667919 -0.956739 1.000000
5.686425 -6.557648 -0.935260 17.000000
12.090035 12.919693 -2.113047 5.000000
12.225368 5.166712 -2.116379 8.000000
12.431498 -0.279939 -2.125494 1.000000
5.624849 -2.705848 -0.958480 1.000000
5.654404 -6.566893 -0.924579 9.000000
12.016352 12.746984 -2.113700 2.000000
12.444368 -0.328041 -2.132366 1.000000
5.530722 -2.685574 -0.941915 2.000000
5.611436 -6.565506 -0.913859 9.000000
11.904240 12.535685 -2.104252 6.000000
12.423378 -0.373058 -2.128990 1.000000
5.538563 -2.715712 -0.941714 1.000000
5.605048 -6.611585 -0.906427 10.000000
11.826349 12.366921 -2.101027 6.000000
12.437002 -0.421270 -2.129350 1.000000
5.573464 -2.758210 -0.944919 1.000000
5.591165 -6.637370 -0.899894 10.000000
11.835638 12.286166 -2.112800 6.000000
10.562163 4.280262 -1.845828 1.000000
12.410748 -0.465927 -2.125134 1.000000
5.457615 -2.725825 -0.923698 1.000000
5.568366 -6.664417 -0.889800 9.000000
11.729957 12.095925 -2.101694 6.000000
10.431028 4.180563 -1.826132 1.000000
12.473627 -0.516257 -2.131739 1.000000
5.400688 -2.719807 -0.910187 1.000000
5.589401 -6.732466 -0.885736 8.000000
11.653161 11.924770 -2.100405 6.000000
10.582408 4.196283 -1.860126 1.000000
12.470810 -0.564115 -2.136097 1.000000
5.394079 -2.744864 -0.907763 1.000000
5.585055 -6.782445 -0.880060 4.000000
11.628737 11.821101 -2.103628 4.000000
10.312022 4.045391 -1.815936 1.000000
12.434784 -0.603812 -2.128021 1.000000
5.539363 -2.841959 -0.930460 1.000000
11.150462 -13.628054 -1.748243 9.000000
11.554966 11.660315 -2.102919 5.000000
10.197798 3.955465 -1.799015 1.000000
12.451088 -0.656892 -2.135743 1.000000
5.384269 -2.787364 -0.903955 1.000000
11.101775 -13.670479 -1.726729 7.000000
11.480454 11.500509 -2.098972 5.000000
10.151468 3.894751 -1.794159 1.000000
12.493253 -0.705043 -2.141157 1.000000
5.300188 -2.768516 -0.886203 2.000000
10.977023 -13.613694 -1.696219 9.000000
11.428022 11.360408 -2.098553 4.000000
10.082447 3.823922 -1.785153 1.000000
12.510879 -0.754240 -2.140155 1.000000
5.263462 -2.776283 -0.876612 1.000000
10.832679 -13.540755 -1.660554 13.000000
11.397040 11.254713 -2.103060 3.000000
10.053954 3.771024 -1.783426 1.000000
12.478146 -0.798178 -2.137288 1.000000
5.253033 -2.796616 -0.874535 1.000000
10.767115 -13.550675 -1.639094 6.000000
11.320089 11.097068 -2.095414 6.000000
10.131865 3.757945 -1.798667 1.000000
