VERSION .7
FIELDS x y z intensity
SIZE 4 4 4 4
TYPE F F F F
COUNT 1 1 1 1
WIDTH 1219
HEIGHT 1
VIEWPOINT 0 0 0 1 0 0 0
POINTS 1219
DATA ascii
60.456345 -33.415009 2.158741 5.000000
10.132850 -13.286828 0.586436 39.000000
48.192932 -4.428308 1.165869 16.000000
60.224007 -33.575344 2.166871 18.000000
10.108022 -13.355507 0.596609 1.000000
62.718170 57.109180 -0.503359 25.000000
53.235802 17.781462 0.587781 8.000000
47.773132 -4.566370 1.164491 10.000000
45.576683 -25.628767 1.670632 23.000000
63.123379 57.056366 -0.564334 8.000000
53.595184 17.683413 0.571327 4.000000
43.478371 -4.316728 1.060183 26.000000
59.336788 -33.639530 2.215057 10.000000
62.330528 55.925983 -0.643109 19.000000
56.174629 18.306456 0.567167 17.000000
43.418472 -4.463887 1.051473 83.000000
59.099293 -33.791714 2.246483 16.000000
62.095234 55.363731 -0.667925 17.000000
43.356716 -4.618190 1.065609 44.000000
60.571423 -34.928650 2.343943 10.000000
48.333477 -65.798058 3.193474 1.000000
61.926922 54.769047 -0.750324 16.000000
43.319809 -4.774899 1.057514 73.000000
60.316647 -35.076946 2.375619 18.000000
47.937332 -65.738487 3.239331 12.000000
61.833767 54.284061 -0.804228 19.000000
58.123833 18.237188 0.520988 14.000000
43.281971 -4.931357 1.064632 54.000000
60.059124 -35.208302 2.406797 18.000000
61.737640 53.800274 -0.886172 26.000000
56.881836 17.618750 0.488486 8.000000
43.199066 -5.082368 1.063044 38.000000
59.731441 -35.311005 2.410962 18.000000
12.202881 -16.994619 0.869573 9.000000
61.574707 53.262482 -0.937870 15.000000
43.175915 -5.232506 1.070513 39.000000
59.823715 -35.662090 2.456457 10.000000
12.082150 -16.951061 0.883379 38.000000
61.511703 52.852402 -0.976705 22.000000
43.176472 -5.393220 1.063411 36.000000
57.496601 -34.547443 2.389283 2.000000
11.996744 -16.949881 0.892132 35.000000
61.000740 52.025944 -1.021538 19.000000
43.096741 -5.543757 1.069528 42.000000
57.287323 -34.708103 2.420974 1.000000
11.934180 -16.986923 0.910034 36.000000
60.749996 51.446873 -1.097705 26.000000
43.046398 -5.697741 1.068790 55.000000
11.874331 -17.034122 0.924750 34.000000
60.757683 51.072170 -1.149877 24.000000
43.034950 -5.856800 1.076617 76.000000
11.888070 -17.187775 0.948994 14.000000
60.540764 50.512310 -1.197317 23.000000
42.953972 -6.006210 1.067560 38.000000
60.443752 50.056751 -1.246565 25.000000
65.917587 18.590683 0.370565 6.000000
42.907825 -6.152538 1.074510 49.000000
60.355610 49.611950 -1.309187 20.000000
42.835716 -6.302512 1.065714 74.000000
42.831913 -6.462425 1.073767 38.000000
57.309120 -36.439663 2.656440 1.000000
60.238319 48.780025 -1.407112 1.000000
60.924698 16.461563 0.264354 7.000000
42.825069 -6.606712 1.074138 38.000000
57.098682 -36.600437 2.676597 1.000000
60.629826 48.730209 -1.493561 17.000000
65.217247 17.365156 0.247363 14.000000
42.798386 -6.778598 1.066576 73.000000
56.965183 -36.796043 2.711909 1.000000
60.885357 48.569351 -1.549855 1.000000
65.324059 17.137447 0.223954 19.000000
42.775490 -6.920456 1.074138 69.000000
42.807590 -7.094427 1.083199 39.000000
56.224163 -36.904285 2.748224 1.000000
59.425705 46.713055 -1.609737 24.000000
65.198021 16.606649 0.187881 22.000000
42.790974 -7.252916 1.091023 58.000000
56.222965 -37.184952 2.789847 2.000000
4.710209 -7.306013 0.461653 2.000000
59.331326 46.288044 -1.668274 19.000000
65.103371 16.328678 0.140576 8.000000
42.791500 -7.399067 1.084072 38.000000
55.711388 -37.140831 2.794611 5.000000
4.736918 -7.401219 0.472826 2.000000
59.357121 45.959194 -1.729796 28.000000
42.798355 -7.561910 1.092531 50.000000
55.482033 -37.282379 2.836691 1.000000
4.780468 -7.527004 0.486036 3.000000
59.310177 45.576118 -1.775797 28.000000
65.527496 15.925424 0.082387 9.000000
42.819729 -7.727634 1.086193 36.000000
55.169132 -37.352314 2.838991 1.000000
4.789876 -7.603250 0.497688 2.000000
60.266499 45.960659 -1.865554 28.000000
42.441921 -7.820182 1.084866 19.000000
55.170502 -37.648876 2.892859 17.000000
4.815952 -7.710128 0.511428 1.000000
58.791435 44.495884 -1.866339 22.000000
96.480431 22.700354 0.051896 1.000000
42.124714 -7.913868 1.069972 18.000000
55.258087 -38.006241 2.916464 17.000000
4.771754 -7.696052 0.515784 8.000000
58.713017 44.099003 -1.922828 9.000000
96.475319 22.326296 0.017283 1.000000
41.928146 -8.036149 1.080632 7.000000
55.689987 -38.590347 2.993743 18.000000
4.726362 -7.682592 0.520091 11.000000
58.644180 43.712025 -1.991963 12.000000
55.915878 -39.050999 3.037415 7.000000
4.710982 -7.720856 0.527845 9.000000
58.803150 43.496159 -2.030261 5.000000
38.981457 8.720532 -0.034859 1.000000
55.957237 -39.356594 3.058698 8.000000
4.701807 -7.766665 0.539391 3.000000
58.996689 43.305683 -2.108149 9.000000
38.964294 8.566855 -0.062667 6.000000
41.098133 -8.346572 1.039569 50.000000
56.116165 -39.761871 3.099008 8.000000
59.323177 43.211639 -2.178244 1.000000
38.912308 8.406030 -0.083378 83.000000
41.087021 -8.501234 1.032741 32.000000
56.272194 -40.212704 3.140706 18.000000
60.115822 43.452671 -2.253317 7.000000
38.957516 8.266463 -0.090360 255.000000
38.782333 -8.165649 0.989365 13.000000
56.468613 -40.621662 3.195275 10.000000
57.993889 41.596146 -2.267798 19.000000
39.026615 8.131761 -0.125239 251.000000
41.284348 -8.850597 1.031893 36.000000
51.825172 -37.597942 2.952241 14.000000
57.867462 41.185097 -2.318983 26.000000
39.056038 7.988642 -0.160028 211.000000
56.511684 -41.284615 3.226991 10.000000
57.933643 41.232197 -2.433457 24.000000
39.061916 7.982742 -0.243550 217.000000
56.512547 -41.285244 3.092402 18.000000
58.034229 41.625080 -2.431594 8.000000
38.988342 8.116687 -0.243276 199.000000
56.511963 -40.967995 3.023104 19.000000
60.291683 43.579788 -2.506858 7.000000
38.948418 8.257429 -0.264061 245.000000
38.872948 -8.191815 0.811346 10.000000
56.442677 -40.617958 2.926682 18.000000
38.942329 8.405402 -0.264227 40.000000
56.300503 -40.203251 2.851173 11.000000
58.735603 43.114033 -2.391580 1.000000
39.174919 8.605997 -0.273018 1.000000
41.214397 -8.377673 0.807540 3.000000
56.103390 -39.752823 2.761669 13.000000
58.525623 43.290874 -2.364036 14.000000
56.063950 -39.431648 2.693027 9.000000
4.679531 -7.729869 0.503608 7.000000
58.435658 43.556595 -2.328634 6.000000
55.790779 -38.963631 2.614210 16.000000
4.692541 -7.687616 0.490935 10.000000
58.768414 44.140614 -2.296962 20.000000
55.616985 -38.525391 2.551814 18.000000
4.730035 -7.688561 0.484146 7.000000
58.698524 44.425564 -2.274858 20.000000
42.360954 -7.965905 0.752373 2.000000
55.187256 -37.929150 2.467183 17.000000
4.779546 -7.705615 0.475210 5.000000
96.568825 23.077194 -0.641182 1.000000
55.046585 -37.536160 2.408151 9.000000
4.811926 -7.697702 0.467812 1.000000
59.312355 45.577793 -2.233129 28.000000
96.609795 23.461632 -0.659374 1.000000
55.104511 -37.294533 2.346835 17.000000
4.805753 -7.625503 0.455028 6.000000
59.343403 45.948574 -2.201292 28.000000
43.060913 -7.616051 0.709856 3.000000
55.454082 -37.235508 2.297534 17.000000
4.771058 -7.512187 0.438358 2.000000
59.357059 46.308121 -2.155477 19.000000
54.451656 -36.273563 2.216181 1.000000
4.709898 -7.356173 0.422618 3.000000
59.404213 46.696163 -2.110597 21.000000
65.449982 16.646498 -0.412545 22.000000
44.254475 -7.493029 0.712935 9.000000
54.399975 -35.965607 2.163375 1.000000
4.722206 -7.319011 0.413809 1.000000
65.098068 16.811264 -0.410713 1.000000
44.297882 -7.357299 0.689741 29.000000
54.274006 -35.624245 2.096941 16.000000
65.553581 17.185432 -0.402153 1.000000
44.267956 -7.169845 0.680993 20.000000
54.484692 -35.477486 2.065965 17.000000
65.321175 17.380621 -0.377520 1.000000
54.810642 -35.390785 2.027563 30.000000
29.133385 23.591747 -0.962007 7.000000
55.097469 -35.317654 1.976665 29.000000
29.023739 23.679619 -0.948162 5.000000
55.357784 -35.171791 1.946551 31.000000
60.295605 49.562626 -1.921165 22.000000
55.676121 -35.101852 1.895938 32.000000
60.386097 49.973480 -1.874564 12.000000
55.903202 -34.986488 1.865151 18.000000
60.571838 50.502384 -1.844748 9.000000
58.578854 16.741907 -0.287101 1.000000
42.788963 -5.990751 0.565601 6.000000
56.210499 -34.892746 1.824900 28.000000
11.828233 -17.229506 0.821119 1.000000
60.721630 51.041862 -1.800126 21.000000
58.627548 16.988503 -0.287643 1.000000
42.688908 -5.802117 0.556446 7.000000
56.443298 -34.737732 1.770234 33.000000
11.891706 -17.186621 0.802881 16.000000
60.779232 51.471626 -1.751784 12.000000
59.246147 17.403387 -0.280212 5.000000
56.771542 -34.653496 1.741683 28.000000
11.900591 -17.071795 0.781266 36.000000
60.975540 51.967701 -1.720170 16.000000
59.304844 17.645737 -0.280779 5.000000
57.002338 -34.535442 1.710321 21.000000
11.966496 -17.032919 0.756022 56.000000
61.350674 52.676826 -1.679710 9.000000
81.834785 24.676210 -0.358036 17.000000
57.316086 -34.452595 1.681078 21.000000
12.034995 -16.997635 0.738211 33.000000
61.634438 53.314152 -1.635900 18.000000
81.500031 24.901508 -0.327220 13.000000
57.602077 -34.337730 1.627206 26.000000
12.120740 -16.992651 0.721590 33.000000
61.756050 53.816319 -1.587143 13.000000
57.917591 -34.238724 1.597315 17.000000
12.358308 -17.192072 0.713479 2.000000
61.893360 54.336376 -1.552640 18.000000
58.248058 18.264999 -0.213087 14.000000
58.242012 -34.143063 1.555642 21.000000
62.117741 54.937805 -1.505396 19.000000
58.512779 -34.027912 1.524232 27.000000
47.985844 -65.756783 2.586665 1.000000
62.237743 55.451805 -1.455007 20.000000
58.888947 -33.958447 1.495167 25.000000
48.382423 -65.816528 2.510017 1.000000
62.316360 55.913269 -1.388315 22.000000
59.200726 -33.849712 1.440385 33.000000
62.512272 56.503994 -1.338441 21.000000
53.577152 17.667097 -0.118155 4.000000
43.572365 -4.333740 0.481486 9.000000
59.545284 -33.771465 1.410032 18.000000
56.782619 51.704456 -1.179594 157.000000
53.369759 17.815851 -0.117841 8.000000
48.370968 -4.632034 0.517357 17.000000
45.643364 -25.666264 1.032884 9.000000
10.254702 -13.638139 0.476622 7.000000
56.626484 51.943180 -1.126639 177.000000
53.368866 18.022846 -0.098314 5.000000
45.624069 -25.435766 1.002970 9.000000
10.084520 -13.309968 0.451859 255.000000
56.943142 52.619270 -1.069095 24.000000
50.577271 17.286890 -0.074630 10.000000
47.671604 -4.212648 0.501180 178.000000
60.637199 -33.514969 1.294011 8.000000
10.137220 -13.282942 0.437548 175.000000
56.845573 52.916687 -1.016669 9.000000
75.803467 26.219673 -0.083996 16.000000
47.666885 -4.036214 0.492621 79.000000
60.763165 -33.308224 1.257915 1.000000
10.189113 -13.249957 0.423092 207.000000
75.310440 26.358583 -0.083556 14.000000
42.344269 -3.429255 0.422650 118.000000
45.687260 -24.826811 0.907612 25.000000
10.247057 -13.224719 0.405953 200.000000
39.421734 37.227184 -0.643540 8.000000
74.793686 26.456455 -0.055386 27.000000
42.546047 -3.288680 0.417092 236.000000
45.646317 -24.588289 0.877847 5.000000
10.290297 -13.185204 0.391236 223.000000
39.198479 37.289093 -0.594904 7.000000
74.206764 26.584482 -0.027515 14.000000
42.557270 -3.140146 0.417092 213.000000
61.943428 -33.074711 1.152148 4.000000
10.366570 -13.183028 0.377653 230.000000
63.684402 61.028484 -0.908321 19.000000
73.859695 26.766001 0.013711 20.000000
42.618439 -2.987646 0.410124 56.000000
62.207664 -32.909466 1.105560 6.000000
10.428243 -13.166607 0.363559 237.000000
63.690948 61.484154 -0.849814 1.000000
73.441864 26.919516 0.040956 25.000000
42.649059 -2.832747 0.410316 255.000000
62.445168 -32.770546 1.083220 1.000000
10.479744 -13.132448 0.349005 216.000000
58.419655 56.830475 -0.711256 12.000000
51.289242 19.013184 0.047735 14.000000
42.679111 -2.677664 0.410508 255.000000
62.851746 -32.662800 1.050894 1.000000
10.534257 -13.101974 0.334542 225.000000
58.218960 56.972420 -0.653996 19.000000
72.540421 27.150616 0.094629 24.000000
42.682835 -2.535828 0.402997 255.000000
63.480122 -32.722454 1.022178 2.000000
10.588124 -13.084580 0.320251 223.000000
58.178822 57.392139 -0.584807 5.000000
71.944527 27.257345 0.120849 18.000000
49.342186 -2.732741 0.465766 26.000000
63.616688 -32.512283 0.985129 7.000000
10.640737 -13.042184 0.305562 209.000000
57.712933 57.351448 -0.539629 1.000000
51.044697 -2.639407 0.463899 21.000000
63.798466 -32.310825 0.936168 1.000000
10.702263 -13.024513 0.288363 202.000000
58.686012 58.727001 -0.492677 1.000000
52.043434 20.154974 0.116888 15.000000
49.615826 -2.383219 0.442160 17.000000
64.225212 -32.231724 0.903058 1.000000
10.746899 -12.981539 0.273571 82.000000
58.512901 58.984573 -0.420529 1.000000
70.653305 27.660280 0.185397 19.000000
50.088364 -2.230700 0.446299 17.000000
64.594025 -32.120979 0.868805 7.000000
70.198013 27.779186 0.223998 25.000000
71.346603 -2.940413 0.635625 10.000000
66.836273 -32.945499 0.858390 4.000000
10.003749 -11.909335 0.225325 9.000000
58.656052 60.002247 -0.292901 1.000000
69.909958 27.961988 0.249687 21.000000
66.602058 -32.527176 0.815031 21.000000
9.957001 -11.765848 0.212537 2.000000
58.571785 60.335945 -0.220147 1.000000
66.644577 -32.245953 0.788253 15.000000
10.194794 -11.957685 0.202960 9.000000
42.782616 44.395638 -0.118369 1.000000
68.893150 28.128801 0.311708 18.000000
68.430840 -32.801250 0.768215 22.000000
42.706074 44.642529 -0.064696 22.000000
68.641579 28.320051 0.336957 10.000000
68.853561 -32.694077 0.731696 22.000000
11.078404 -12.807317 0.189162 7.000000
42.380356 44.628368 -0.032225 22.000000
68.071823 28.349504 0.347490 20.000000
48.456093 -22.801706 0.476696 38.000000
11.141819 -12.785615 0.171682 1.000000
42.180664 44.714104 0.032186 22.000000
67.681480 28.478479 0.397293 21.000000
48.480499 -22.596529 0.466782 96.000000
41.055573 -46.814907 0.597740 7.000000
42.150776 44.996052 0.075326 22.000000
67.295830 28.606981 0.421167 25.000000
48.554134 -22.414597 0.438694 37.000000
70.268990 -79.536461 0.926191 10.000000
35.067268 37.736877 0.098902 10.000000
66.909790 28.746714 0.432150 25.000000
48.599850 -22.219975 0.401059 84.000000
70.797806 -79.489647 0.817469 10.000000
25.090454 27.199787 0.103337 9.000000
66.569855 28.890150 0.468633 16.000000
48.653820 -22.029409 0.372869 33.000000
25.022320 27.316639 0.129311 8.000000
61.591030 26.998117 0.457753 22.000000
44.848335 -20.118017 0.326006 9.000000
34.764248 38.232208 0.225474 5.000000
62.095367 27.465033 0.497729 23.000000
94.506767 -0.098967 0.775261 6.000000
48.725197 -21.663292 0.335049 14.000000
34.415852 38.075417 0.259778 7.000000
62.172722 27.746115 0.522850 22.000000
48.772392 -21.470528 0.306927 40.000000
34.132320 38.041096 0.303291 9.000000
61.956394 27.922329 0.557473 19.000000
92.500214 0.532769 0.774959 7.000000
48.814232 -21.275705 0.278815 38.000000
38.515816 -41.739193 0.208164 8.000000
34.065655 38.234455 0.348573 9.000000
64.474670 29.342037 0.605824 20.000000
48.864426 -21.084799 0.260081 45.000000
38.794609 -41.733360 0.159118 9.000000
34.077492 38.531147 0.386049 2.000000
64.207993 29.491657 0.641281 24.000000
98.628090 1.291112 0.826355 135.000000
48.978237 -20.921307 0.241685 64.000000
33.737659 38.456886 0.428592 1.000000
63.881546 29.625727 0.663683 24.000000
98.672676 1.653431 0.826774 123.000000
49.022465 -20.728069 0.213658 38.000000
33.416008 38.332493 0.470414 7.000000
87.683632 1.790780 0.734747 15.000000
49.048466 -20.537539 0.194896 37.000000
30.487640 35.233154 0.471669 137.000000
60.737450 28.710461 0.703547 9.000000
42.128796 -17.476166 0.143288 8.000000
30.312469 35.291302 0.503439 153.000000
60.464520 28.853052 0.736689 16.000000
85.868912 2.383537 0.719668 6.000000
42.045994 -17.244318 0.126906 21.000000
30.146685 35.347172 0.535169 161.000000
62.282452 29.987909 0.760109 9.000000
25.397892 -10.307851 0.057407 6.000000
29.964930 35.396004 0.574719 167.000000
62.027863 30.145874 0.794460 23.000000
25.282412 -10.153214 0.042796 40.000000
29.799282 35.463093 0.614460 216.000000
61.660721 30.247318 0.827138 23.000000
25.291590 -10.049409 0.033249 191.000000
29.646128 35.531918 0.654246 129.000000
61.549046 30.472918 0.863098 23.000000
25.455061 -10.016752 0.023872 198.000000
58.780884 -59.275402 -0.378819 9.000000
32.072803 38.728058 0.746040 16.000000
61.262115 30.610943 0.896506 23.000000
25.628475 -9.971519 0.009599 182.000000
58.792206 -58.833267 -0.450018 1.000000
31.860380 38.759869 0.788193 16.000000
60.873341 30.682690 0.916179 23.000000
25.814175 -9.934988 0.000000 189.000000
31.749729 38.901283 0.832641 16.000000
60.519409 30.782978 0.948102 23.000000
25.943871 -9.875883 -0.009690 61.000000
31.502430 38.888382 0.891050 16.000000
49.648174 -18.691196 -0.018518 50.000000
31.344261 38.970467 0.916613 20.000000
59.887230 31.016075 1.012375 22.000000
49.723919 -18.531683 -0.055570 39.000000
31.097784 38.955521 0.957088 16.000000
59.733810 31.201538 1.046911 22.000000
49.779102 -18.325008 -0.083323 91.000000
63.237778 -61.025364 -0.812946 13.000000
30.917015 39.021553 0.999383 16.000000
49.830170 -18.156399 -0.101820 56.000000
62.854675 -60.254414 -0.866241 18.000000
30.823332 39.183537 1.044294 13.000000
49.872826 -17.965155 -0.120276 48.000000
35.102978 -33.404755 -0.524377 9.000000
30.617413 39.216709 1.085618 12.000000
35.336197 18.955042 0.685932 5.000000
49.971264 -17.793968 -0.138871 74.000000
35.152821 -33.184307 -0.565319 9.000000
30.357128 39.164394 1.133146 15.000000
58.617966 31.707838 1.198185 8.000000
50.010925 -17.592007 -0.138793 54.000000
35.385017 -33.170681 -0.584121 11.000000
30.217325 39.252167 1.176032 15.000000
50.050045 -17.419476 -0.157239 76.000000
35.637211 -33.185753 -0.620465 2.000000
30.043713 39.352451 1.218645 19.000000
57.502560 31.651520 1.248856 21.000000
68.434891 5.878972 0.647378 10.000000
50.091145 -17.208658 -0.175638 37.000000
29.896320 39.444099 1.270106 19.000000
57.206390 31.762249 1.279217 21.000000
50.139610 -17.020105 -0.194071 38.000000
29.657734 39.428680 1.309185 20.000000
56.950638 31.880831 1.310166 21.000000
66.320015 6.175672 0.639400 11.000000
50.205189 -16.856903 -0.212594 35.000000
55.519981 -50.537014 -1.140074 17.000000
29.498293 39.503002 1.351281 19.000000
56.567261 31.939083 1.338058 21.000000
66.331657 6.422067 0.651367 7.000000
50.223850 -16.658587 -0.230884 37.000000
55.696808 -50.325928 -1.192328 8.000000
29.322836 39.569733 1.392891 15.000000
56.262413 32.039478 1.367531 21.000000
50.303497 -16.480597 -0.249449 9.000000
61.002834 -54.734711 -1.359052 16.000000
29.096931 39.567234 1.431935 8.000000
55.953247 32.135571 1.396671 21.000000
64.213989 6.692511 0.642306 25.000000
50.382507 -16.302242 -0.268028 35.000000
60.739208 -54.097645 -1.419753 16.000000
28.996202 39.720016 1.476746 9.000000
55.723289 32.262691 1.427464 20.000000
64.243591 6.933712 0.654131 8.000000
60.520821 -53.544300 -1.452814 24.000000
28.732384 39.663074 1.513483 8.000000
55.793949 32.577232 1.466169 21.000000
64.232552 7.170782 0.665563 1.000000
60.381104 -52.990105 -1.514472 18.000000
28.531706 39.676834 1.552888 9.000000
55.849880 32.884968 1.516068 21.000000
62.000576 7.151780 0.642703 7.000000
50.531799 -15.748578 -0.323329 27.000000
60.314014 -52.541168 -1.563813 1.000000
28.428831 39.841042 1.597982 15.000000
55.970478 33.219627 1.556578 21.000000
59.398407 7.061803 0.626422 21.000000
50.512665 -15.539724 -0.332064 29.000000
28.236614 39.865242 1.646204 10.000000
56.023491 33.529369 1.595666 21.000000
59.352165 7.277014 0.636649 24.000000
50.621792 -15.370425 -0.350877 29.000000
28.051847 39.884140 1.677215 13.000000
56.591862 34.124924 1.649691 13.000000
50.711193 -15.194795 -0.369588 26.000000
27.938944 40.034645 1.721882 8.000000
56.282623 34.247288 1.690696 21.000000
59.465687 7.733798 0.648925 5.000000
50.723267 -14.996032 -0.387737 29.000000
32.904331 -27.835861 -0.970529 10.000000
27.672796 39.949692 1.765020 10.000000
56.375015 34.573730 1.731736 22.000000
50.729752 -14.795981 -0.405816 26.000000
32.896431 -27.642542 -0.997600 15.000000
27.530964 40.057800 1.807800 9.000000
56.476700 34.921585 1.773572 22.000000
84.894806 11.644238 0.957202 9.000000
50.855652 -14.630665 -0.415628 27.000000
32.985466 -27.511724 -1.027239 15.000000
27.423857 40.201874 1.852499 5.000000
56.504036 35.198032 1.812967 22.000000
33.035461 -27.348742 -1.055626 10.000000
27.269434 40.291931 1.911560 3.000000
56.679996 35.610462 1.893138 22.000000
50.946945 -14.253402 -0.433977 25.000000
33.291344 -27.336090 -1.082856 10.000000
27.019039 40.223732 1.946191 3.000000
56.704483 35.916382 1.933514 22.000000
49.550159 7.343443 0.603268 113.000000
45.480118 -12.544393 -0.387015 9.000000
30.217747 -24.627434 -0.993556 158.000000
26.693169 40.055004 1.975355 3.000000
56.904408 36.307980 1.979799 22.000000
49.527756 7.525741 0.612072 255.000000
30.356836 -24.573709 -1.029550 247.000000
26.441998 39.979813 2.008984 9.000000
56.986149 36.668785 2.034877 23.000000
49.504677 7.707971 0.620877 255.000000
30.540174 -24.528614 -1.053090 254.000000
26.318781 40.112270 2.061110 6.000000
57.039474 36.971138 2.076771 23.000000
49.515480 7.895643 0.630124 255.000000
30.703180 -24.483717 -1.083194 255.000000
26.161053 40.176945 2.110030 5.000000
57.131660 37.357437 2.145198 23.000000
49.485878 8.077020 0.656378 238.000000
40.577999 -10.554652 -0.387857 1.000000
30.823124 -24.403841 -1.111881 153.000000
57.296909 37.722988 2.191797 23.000000
49.481922 8.253802 0.665461 23.000000
40.684082 -10.423193 -0.403165 3.000000
4.358496 6.799492 0.370989 1.000000
57.444275 38.122543 2.250946 23.000000
77.148643 13.159544 1.051842 10.000000
40.686218 -10.272532 -0.410153 5.000000
56.912029 -44.384624 -2.142051 22.000000
4.325331 6.802502 0.377335 4.000000
57.274723 38.327610 2.322300 23.000000
77.030380 13.430100 1.091842 12.000000
40.490692 -10.065443 -0.407807 4.000000
57.041405 -44.118420 -2.178029 1.000000
4.280061 6.783487 0.382465 3.000000
57.216728 38.564117 2.361291 22.000000
40.459251 -9.900316 -0.414393 4.000000
4.226102 6.757927 0.388430 5.000000
57.350910 38.961006 2.409052 20.000000
38.798714 -9.343400 -0.410964 6.000000
4.191975 6.760963 0.397419 9.000000
57.490810 39.364777 2.469676 9.000000
101.975731 18.936905 1.502604 12.000000
38.725597 -9.175756 -0.416777 194.000000
4.157663 6.758184 0.404731 10.000000
57.520611 39.680809 2.513526 13.000000
101.628746 19.239695 1.516528 23.000000
38.753952 -9.032589 -0.430615 208.000000
4.125116 6.765989 0.411137 13.000000
57.721302 40.132294 2.602425 15.000000
38.767376 -8.886036 -0.423457 199.000000
4.088550 6.764314 0.418378 7.000000
57.968513 40.605068 2.657055 24.000000
38.789787 -8.741655 -0.437230 248.000000
4.046884 6.753823 0.426411 9.000000
58.005535 40.948734 2.715254 23.000000
38.811726 -8.597245 -0.444058 253.000000
3.994143 6.732256 0.434908 4.000000
58.105507 41.339241 2.789331 19.000000
38.769772 -8.439002 -0.436296 230.000000
3.927541 6.678298 0.438584 9.000000
58.251629 41.750217 2.853436 20.000000
38.682949 -8.271723 -0.448784 151.000000
55.455292 -40.069229 -2.436984 1.000000
3.934196 6.743373 0.448788 4.000000
58.813843 42.480331 2.926632 25.000000
39.217682 8.314515 0.671767 6.000000
38.756969 -8.139119 -0.456207 35.000000
55.413589 -39.730774 -2.476399 1.000000
3.948924 6.809511 0.458014 3.000000
59.014980 42.939877 2.995118 17.000000
39.269905 8.476107 0.680203 7.000000
39.222263 -8.086851 -0.468322 1.000000
44.402248 -31.590038 -2.007692 27.000000
3.988091 6.907577 0.469682 1.000000
59.120537 43.348972 3.085421 19.000000
39.168335 -7.926182 -0.467328 1.000000
3.992257 6.973695 0.481624 1.000000
59.076458 43.650490 3.129979 25.000000
65.776573 14.678700 1.188142 9.000000
4.004604 7.052244 0.494604 1.000000
58.872990 43.818668 3.204280 16.000000
65.836243 14.933462 1.237299 12.000000
58.997444 44.248249 3.284341 25.000000
64.996170 14.993600 1.257474 19.000000
84.246582 -16.116615 -0.988093 1.000000
25.287949 45.284569 3.272276 7.000000
59.613014 45.035919 3.405738 23.000000
60.335758 14.151624 1.211586 6.000000
84.104202 -15.739673 -0.985674 1.000000
25.239389 45.551811 3.358529 17.000000
59.647839 45.406582 3.482769 20.000000
84.170845 -15.463428 -0.970910 4.000000
25.144224 45.380058 3.373144 6.000000
60.585106 14.433409 1.337218 24.000000
83.938293 -15.435848 -0.849080 9.000000
25.300295 45.306679 3.346623 9.000000
59.488628 44.941952 3.529038 22.000000
60.126572 14.091490 1.325949 17.000000
84.122360 -15.788666 -0.806702 1.000000
4.012346 7.120767 0.521387 1.000000
58.954891 44.216331 3.462417 24.000000
64.719719 14.929828 1.437680 11.000000
84.049850 -16.094187 -0.731881 1.000000
4.007824 7.060783 0.510801 1.000000
58.878075 43.822456 3.397097 18.000000
64.935120 14.729063 1.429629 3.000000
3.989219 6.962750 0.497833 1.000000
59.027195 43.598160 3.370789 25.000000
65.676613 14.644361 1.444762 6.000000
54.867607 -38.432983 -2.339313 1.000000
4.003762 6.937515 0.491313 2.000000
58.986618 43.250778 3.334244 25.000000
39.195564 8.589022 0.868537 4.000000
55.001209 -38.827843 -2.304003 1.000000
3.972260 6.794985 0.471752 1.000000
58.892159 42.850510 3.269054 25.000000
39.300385 8.461151 0.856128 9.000000
39.209812 -8.105689 -0.300494 2.000000
55.112278 -39.209705 -2.267386 1.000000
3.937340 6.665642 0.454516 11.000000
58.763351 42.443863 3.215630 25.000000
39.350838 8.321218 0.849533 7.000000
38.680984 -8.144311 -0.269070 153.000000
55.282505 -39.636791 -2.220925 1.000000
3.983728 6.690729 0.451718 1.000000
58.269829 41.763264 3.155152 24.000000
38.670475 -8.290232 -0.262304 183.000000
55.385193 -40.018581 -2.183174 1.000000
4.031996 6.726313 0.448059 2.000000
58.147469 41.353809 3.090390 22.000000
38.762085 -8.458589 -0.242359 241.000000
4.080605 6.767166 0.448723 5.000000
58.157673 41.056133 3.058400 25.000000
38.813839 -8.619037 -0.235939 255.000000
4.111001 6.766728 0.442665 1.000000
58.345882 40.869404 3.023033 24.000000
38.772308 -8.759052 -0.222005 250.000000
55.821430 -41.275536 -2.072586 1.000000
4.137443 6.756987 0.434647 6.000000
58.172089 40.430653 2.981558 22.000000
38.777275 -8.895428 -0.201369 255.000000
4.173053 6.764668 0.431855 8.000000
58.014374 40.021435 2.917006 23.000000
38.755898 -9.054439 -0.194499 251.000000
56.099434 -42.120647 -1.984028 1.000000
4.202385 6.764566 0.425719 6.000000
57.625977 39.442558 2.853564 23.000000
38.693321 -9.189507 -0.180470 93.000000
56.113174 -42.453461 -1.940843 1.000000
4.248830 6.788998 0.421132 1.000000
57.342613 38.955368 2.808542 13.000000
4.280649 6.787043 0.416318 1.000000
57.179646 38.539124 2.757460 13.000000
85.857590 -21.025103 -0.308556 1.000000
4.305766 6.771732 0.406514 1.000000
57.239033 38.274807 2.705394 12.000000
77.137444 13.434894 1.599109 23.000000
85.944916 -21.380682 -0.309150 3.000000
56.780766 -43.948517 -1.817501 11.000000
4.345695 6.782126 0.402409 1.000000
57.173649 37.942944 2.660043 9.000000
56.829189 -44.320019 -1.773894 19.000000
26.194466 40.552525 2.369580 6.000000
57.213707 37.668209 2.607573 14.000000
49.536922 8.254090 1.008113 11.000000
52.953178 -41.610214 -1.610612 20.000000
26.205053 40.244518 2.315170 14.000000
57.150970 37.327358 2.586530 11.000000
49.471516 8.065811 1.014955 200.000000
85.434906 -22.270050 -0.215733 4.000000
30.815510 -24.397812 -0.905672 175.000000
26.327295 40.125248 2.271605 7.000000
56.997311 36.943810 2.526237 16.000000
49.481171 7.881318 1.005805 224.000000
30.656029 -24.454870 -0.876222 179.000000
26.373537 39.876305 2.212795 8.000000
56.847641 36.551609 2.478214 23.000000
49.500019 7.698397 0.996861 224.000000
51.003300 -13.694920 -0.092171 28.000000
30.500801 -24.505751 -0.846897 121.000000
26.405394 39.623177 2.170537 7.000000
56.754833 36.198608 2.433074 22.000000
49.498421 7.512444 0.987526 214.000000
45.593155 -12.421573 -0.057733 9.000000
30.356836 -24.573709 -0.818116 38.000000
26.629477 39.643784 2.135237 9.000000
56.683250 35.902935 2.401706 29.000000
50.920967 -14.054661 -0.046099 19.000000
26.785530 39.576939 2.094874 13.000000
56.603676 35.534958 2.357233 22.000000
50.902660 -14.269756 -0.036907 31.000000
33.309242 -27.370256 -0.835318 9.000000
26.934242 39.484123 2.053384 7.000000
56.506195 35.185692 2.289627 22.000000
50.874302 -14.443939 -0.036921 35.000000
33.112762 -27.412737 -0.810389 9.000000
27.033295 39.333687 2.008730 1.000000
56.455055 34.880970 2.259416 22.000000
50.753464 -14.630045 0.000000 34.000000
33.016441 -27.537561 -0.772965 14.000000
27.633419 39.892845 2.000021 6.000000
56.246914 34.468155 2.211435 21.000000
50.776669 -14.819282 0.009232 34.000000
32.973202 -27.707052 -0.736729 17.000000
27.802078 39.838528 1.959687 3.000000
56.161221 34.159981 2.169143 21.000000
50.678852 -14.992519 0.027672 29.000000
32.784054 -27.753750 -0.704774 1.000000
28.018053 39.836094 1.913523 6.000000
56.139191 33.851963 2.117441 21.000000
50.611324 -15.184124 0.046112 32.000000
60.594959 -51.679867 -1.251088 1.000000
28.232616 39.844856 1.893058 8.000000
55.959309 33.464432 2.071841 21.000000
59.421757 7.264494 1.138999 12.000000
50.641396 -15.395687 0.083142 34.000000
60.529419 -52.026760 -1.198115 1.000000
28.411541 39.787430 1.843992 9.000000
55.932064 33.170429 2.032234 21.000000
59.463078 7.048442 1.128833 18.000000
50.517715 -15.560582 0.092258 31.000000
60.171932 -52.067444 -1.138886 1.000000
28.624126 39.790707 1.805929 10.000000
55.756329 32.790577 2.010168 21.000000
50.493717 -15.756050 0.110783 9.000000
60.267834 -52.537949 -1.074553 1.000000
28.756023 39.666557 1.762254 7.000000
55.673378 32.480778 1.946777 21.000000
64.308197 7.145137 1.197191 10.000000
60.545067 -53.208866 -1.041084 27.000000
28.993490 39.687202 1.724935 13.000000
55.758026 32.256821 1.923084 21.000000
64.005493 6.874112 1.213557 6.000000
50.458603 -16.132511 0.147934 17.000000
60.638672 -53.648567 -0.960949 25.000000
29.221586 39.707695 1.687174 9.000000
56.015465 32.132313 1.894046 21.000000
64.169693 6.653933 1.204936 3.000000
50.327728 -16.294224 0.166190 34.000000
60.848946 -54.233486 -0.910512 22.000000
29.373747 39.609524 1.644483 15.000000
56.375751 32.077965 1.868439 21.000000
66.262016 6.637190 1.232155 11.000000
50.271362 -16.499220 0.184690 36.000000
29.532522 39.548843 1.611524 15.000000
56.626282 31.972408 1.839142 21.000000
66.298592 6.418866 1.232432 20.000000
50.206848 -16.662674 0.193888 37.000000
55.813404 -50.466679 -0.735470 1.000000
29.629005 39.390491 1.574830 15.000000
56.970699 31.892063 1.812306 21.000000
66.257179 6.169820 1.219616 6.000000
50.145298 -16.846533 0.230819 71.000000
55.388168 -50.452393 -0.679988 1.000000
29.918900 39.473888 1.539271 15.000000
57.289062 31.795069 1.784382 21.000000
68.355713 6.112610 1.257823 12.000000
50.111538 -17.039843 0.249426 36.000000
30.074244 39.363949 1.487551 15.000000
57.564823 31.659613 1.754748 8.000000
68.345047 5.835206 1.245210 21.000000
50.122589 -17.239023 0.268281 36.000000
30.264828 39.313873 1.446506 15.000000
50.044807 -17.417654 0.286702 40.000000
35.518528 -33.075233 -0.330365 8.000000
30.424076 39.236622 1.404199 15.000000
49.983826 -17.621696 0.305256 39.000000
35.384781 -33.182064 -0.296329 8.000000
30.582302 39.171738 1.370777 15.000000
35.346729 18.952751 1.008219 4.000000
49.901566 -17.778963 0.305112 35.000000
35.237656 -33.287663 -0.253813 9.000000
30.788202 39.138878 1.330079 15.000000
49.873592 -17.975266 0.323848 39.000000
35.090183 -33.392578 -0.219813 6.000000
30.978109 39.098663 1.288817 15.000000
59.480457 31.347221 1.631451 17.000000
49.830692 -18.166443 0.351772 42.000000
63.196606 -60.582195 -0.336148 19.000000
31.162437 39.036510 1.246907 16.000000
59.710899 31.189569 1.599332 22.000000
104.296761 6.653178 1.842453 1.000000
49.777733 -18.354105 0.370391 40.000000
63.481457 -61.303333 -0.261843 17.000000
31.352961 38.981285 1.205124 16.000000
59.877354 31.010960 1.589106 22.000000
104.055321 6.254929 1.874170 1.000000
49.705189 -18.534584 0.407391 35.000000
31.523975 38.914978 1.171486 16.000000
60.347111 30.974270 1.563014 11.000000
49.663441 -18.716740 0.426109 63.000000
31.632259 38.757351 1.126543 16.000000
60.594620 30.821234 1.530874 23.000000
25.888121 -9.865008 0.232098 168.000000
31.910810 38.821220 1.087754 13.000000
61.015892 30.754541 1.502864 23.000000
25.716412 -9.907671 0.240503 191.000000
32.130001 38.797119 1.046392 16.000000
61.375736 30.640949 1.472883 21.000000
25.554054 -9.952835 0.248898 188.000000
58.736835 -58.798374 0.087033 7.000000
32.250134 38.652912 1.001735 16.000000
61.540184 30.468529 1.450415 23.000000
25.387018 -9.995094 0.261913 195.000000
58.612392 -59.105492 0.159809 1.000000
29.831408 35.476177 0.881904 115.000000
61.658180 30.219378 1.414357 23.000000
25.257219 -10.051068 0.270442 173.000000
29.984808 35.419483 0.850552 125.000000
58.463055 28.413359 1.304847 1.000000
25.393532 -10.208135 0.281836 19.000000
30.147337 35.347939 0.810926 134.000000
59.544811 28.669783 1.292020 9.000000
41.975578 -17.053049 0.490292 14.000000
30.313334 35.292309 0.771461 144.000000
59.581760 28.431808 1.267607 22.000000
42.014381 -17.248489 0.507336 8.000000
30.498526 35.245735 0.732197 105.000000
59.491814 28.121651 1.229025 21.000000
87.626961 2.080346 1.529965 10.000000
49.178028 -20.400379 0.613325 18.000000
33.426819 38.344891 0.763597 4.000000
59.549786 27.882486 1.193663 21.000000
87.594009 1.758361 1.529267 1.000000
49.042679 -20.555239 0.640419 29.000000
59.497761 27.592703 1.167684 9.000000
48.971409 -20.736712 0.659043 33.000000
64.319176 29.542723 1.223103 13.000000
48.921494 -20.917263 0.677925 33.000000
39.006790 -41.683563 0.468307 6.000000
34.319923 38.519840 0.639340 2.000000
64.759193 29.471523 1.192241 22.000000
48.880886 -21.112144 0.706314 36.000000
38.615314 -41.569576 0.505046 8.000000
34.441109 38.385242 0.603089 1.000000
65.108719 29.343008 1.171753 10.000000
48.839603 -21.307053 0.725445 37.000000
38.645409 -41.908970 0.557198 6.000000
62.116489 27.721020 1.080441 9.000000
48.792850 -21.499870 0.753839 29.000000
61.591179 27.242027 1.046212 3.000000
94.235840 -0.131578 1.628442 1.000000
44.986320 -20.019794 0.713350 6.000000
25.057962 27.336388 0.343040 9.000000
61.553562 26.956083 1.020426 22.000000
93.909775 -0.475324 1.622827 1.000000
44.887531 -20.154425 0.730018 101.000000
11.583007 -12.828166 0.208154 1.000000
25.166952 27.263617 0.317322 8.000000
66.573708 28.878017 1.063967 20.000000
48.618805 -22.034008 0.819902 40.000000
11.388961 -12.706582 0.220396 1.000000
42.093319 45.266113 0.474700 7.000000
67.115852 28.821373 1.045434 25.000000
48.582779 -22.232679 0.848646 40.000000
11.218150 -12.604257 0.226777 1.000000
42.108814 44.951260 0.419261 19.000000
67.387489 28.645943 0.984111 25.000000
111.769547 -1.775329 1.912159 130.000000
48.537277 -22.427370 0.849281 55.000000
11.218085 -12.697589 0.242503 214.000000
42.256321 44.778645 0.376107 20.000000
68.363297 28.765369 0.970921 1.000000
111.932236 -2.188295 1.915067 18.000000
48.476994 -22.615494 0.877687 61.000000
11.184542 -12.753526 0.254632 246.000000
42.574459 44.801437 0.323609 22.000000
68.584114 28.562857 0.933657 1.000000
111.803513 -2.595747 1.913014 22.000000
48.438725 -22.814190 0.897197 27.000000
11.126673 -12.777237 0.269118 228.000000
42.652084 44.554947 0.279894 22.000000
68.882790 28.391436 0.910289 25.000000
68.794403 -32.695419 1.316230 22.000000
11.076340 -12.813967 0.283819 223.000000
69.000275 28.158489 0.884519 15.000000
68.312889 -32.774040 1.348992 14.000000
66.419136 -32.165489 1.339683 9.000000
58.484936 59.785439 0.160568 1.000000
66.677429 -32.592815 1.386166 13.000000
9.955266 -11.772129 0.293334 7.000000
58.482647 59.346394 0.087252 1.000000
64.719864 -31.916304 1.385575 12.000000
58.774227 59.248005 0.029131 1.000000
64.507805 -32.106194 1.421288 14.000000
58.071136 58.071136 -0.043001 9.000000
63.996143 -32.144733 1.437610 4.000000
10.747678 -12.991711 0.362022 195.000000
58.047543 57.683964 -0.099980 9.000000
49.560631 -2.580015 0.848927 17.000000
64.156090 -32.491947 1.481285 3.000000
10.702060 -13.028900 0.376736 202.000000
57.664078 56.884354 -0.155509 1.000000
54.697590 20.712147 0.510415 17.000000
42.692490 -2.379406 0.731427 93.000000
63.615002 -32.539433 1.509226 4.000000
10.628752 -13.036782 0.390522 202.000000
57.966885 56.725742 -0.226488 19.000000
51.317780 19.217564 0.459086 14.000000
42.678486 -2.535569 0.731341 255.000000
62.989437 -32.497353 1.534196 6.000000
10.580681 -13.075382 0.405200 216.000000
58.495136 56.864174 -0.284767 16.000000
51.388092 19.029427 0.430394 15.000000
42.649296 -2.683266 0.738457 227.000000
10.537926 -13.115909 0.417067 239.000000
63.675152 61.425980 -0.386044 27.000000
73.787239 27.016897 0.589731 8.000000
42.629196 -2.838901 0.738285 39.000000
10.473971 -13.134616 0.431108 216.000000
63.556946 60.906345 -0.460922 25.000000
55.381683 20.047890 0.400916 17.000000
42.578861 -2.992340 0.722694 71.000000
10.419366 -13.164839 0.442572 228.000000
55.548946 19.878464 0.401597 17.000000
42.572216 -3.148720 0.745130 246.000000
45.466137 -24.297054 1.196865 8.000000
10.373057 -13.200758 0.460153 246.000000
42.455975 -3.296626 0.728433 126.000000
45.481949 -24.499748 1.208434 25.000000
10.305961 -13.214783 0.471031 232.000000
42.289013 -3.439639 0.733188 10.000000
10.244217 -13.230589 0.484931 205.000000
56.786152 52.861374 -0.663508 8.000000
55.997543 19.358057 0.320572 12.000000
48.726879 -4.143101 0.845062 10.000000
60.781334 -33.318184 1.694005 7.000000
10.192348 -13.263742 0.499384 239.000000
56.993942 52.666210 -0.704311 16.000000
48.736866 -4.315356 0.854033 16.000000
60.586567 -33.514599 1.728426 8.000000
10.131275 -13.284764 0.513367 81.000000
56.625687 51.906067 -0.777629 182.000000
53.290966 17.986179 0.265047 7.000000
48.885002 -4.509109 0.856913 17.000000
45.691715 -25.494390 1.333573 9.000000
10.087583 -13.323668 0.528105 1.000000
56.819260 51.737816 -0.831581 80.000000
53.380329 17.798672 0.245523 7.000000
43.652756 -4.187904 0.773116 12.000000
45.575577 -25.649086 1.360319 26.000000
10.089434 -13.428100 0.545447 1.000000
53.483276 17.615442 0.226042 1.000000
43.467976 -4.331019 0.770120 26.000000
59.413689 -33.710537 1.812647 18.000000
10.215625 -13.695332 0.563806 1.000000
62.402149 55.990242 -1.024334 17.000000
43.476814 -4.492892 0.762932 54.000000
59.041901 -33.786251 1.828832 33.000000
62.141247 55.365829 -1.074986 22.000000
43.401886 -4.630662 0.769503 30.000000
58.790436 -33.901642 1.848222 30.000000
48.196312 -65.611328 2.828704 1.000000
62.005829 54.838833 -1.155859 25.000000
43.350105 -4.785896 0.753662 39.000000
58.453224 -33.993279 1.876957 26.000000
48.045307 -65.886559 2.890321 1.000000
61.908974 54.350082 -1.207857 25.000000
58.326199 18.300684 0.128030 10.000000
43.258499 -4.928683 0.759965 49.000000
58.130989 -34.077976 1.893958 29.000000
61.598286 53.678833 -1.255003 21.000000
57.023556 17.640833 0.104179 6.000000
43.309517 -5.095362 0.768798 36.000000
57.837040 -34.191105 1.923659 23.000000
12.266243 -17.076572 0.781993 7.000000
61.502800 53.200283 -1.305862 22.000000
56.933548 17.406332 0.083127 3.000000
43.230999 -5.246838 0.767740 38.000000
57.525871 -34.292301 1.952572 23.000000
12.101673 -16.978453 0.793684 38.000000
61.260288 52.599220 -1.367092 21.000000
81.792854 24.679142 0.089467 12.000000
43.176624 -5.400892 0.774718 33.000000
57.349243 -34.458900 1.985710 17.000000
12.013070 -16.979231 0.809933 39.000000
60.945873 51.942417 -1.411739 23.000000
59.474876 17.707628 0.043323 1.000000
43.191109 -5.563560 0.782941 50.000000
56.948093 -34.502579 2.011081 30.000000
11.958960 -17.034830 0.828680 32.000000
60.625950 51.305492 -1.469502 17.000000
59.329590 17.405403 0.000000 7.000000
43.081356 -5.710020 0.773739 12.000000
56.739616 -34.661198 2.031422 17.000000
11.887543 -17.065771 0.842603 38.000000
60.613735 50.915066 -1.519957 18.000000
59.593487 17.268404 -0.010829 3.000000
43.051254 -5.859018 0.773561 24.000000
56.385757 -34.729462 2.058004 30.000000
11.858729 -17.151751 0.863027 12.000000
60.526085 50.464237 -1.595666 8.000000
43.079132 -6.023712 0.766859 17.000000
56.161667 -34.862434 2.077351 32.000000
60.191719 49.848026 -1.637069 12.000000
97.612129 27.511078 -0.123902 1.000000
42.982407 -6.170889 0.773116 12.000000
55.837719 -34.945507 2.104616 28.000000
60.185711 49.437103 -1.685895 10.000000
97.418419 27.071459 -0.141176 1.000000
43.063229 -6.343665 0.782582 12.000000
55.598434 -35.080002 2.134887 30.000000
29.022432 23.661684 -0.836683 4.000000
55.284927 -35.152596 2.161887 28.000000
29.023010 23.485601 -0.860291 7.000000
60.863258 16.422169 -0.132031 8.000000
55.024014 -35.270569 2.202404 30.000000
65.399277 17.401402 -0.177173 5.000000
54.726162 -35.363312 2.207041 21.000000
65.735229 17.245316 -0.201641 4.000000
44.264374 -7.177193 0.821873 27.000000
54.492207 -35.482376 2.248037 25.000000
65.072762 16.792616 -0.234589 1.000000
44.242844 -7.340223 0.814137 24.000000
54.307159 -35.646008 2.257130 1.000000
59.497730 46.736080 -1.994407 18.000000
65.501114 16.671677 -0.259526 12.000000
43.929634 -7.453804 0.816651 12.000000
4.711215 -7.307574 0.425237 1.000000
59.229691 46.175499 -2.045322 28.000000
65.488983 16.413248 -0.271022 1.000000
43.960991 -7.624992 0.825537 8.000000
4.715081 -7.369933 0.435559 1.000000
59.333927 45.941235 -2.096077 28.000000
96.732948 23.867327 -0.469517 3.000000
43.037003 -7.627315 0.801074 12.000000
55.184334 -37.082333 2.414698 17.000000
4.765413 -7.503298 0.448726 3.000000
59.234943 45.485432 -2.151340 28.000000
55.090740 -37.299236 2.451167 17.000000
4.784252 -7.597264 0.461099 1.000000
58.835583 44.836933 -2.182540 16.000000
96.501244 23.061045 -0.554146 1.000000
55.072639 -37.582096 2.479779 17.000000
4.806420 -7.694868 0.473889 1.000000
58.734585 44.420620 -2.249925 23.000000
96.506943 22.688818 -0.605608 1.000000
55.196911 -37.964165 2.526750 17.000000
4.774094 -7.702827 0.479694 7.000000
55.625957 -38.545975 2.576191 18.000000
4.735105 -7.702827 0.488106 8.000000
55.815357 -38.980793 2.615361 10.000000
4.702946 -7.704662 0.492023 10.000000
58.617020 43.358482 -2.405945 13.000000
55.998211 -39.414639 2.654620 14.000000
4.676923 -7.731651 0.500453 4.000000
58.516701 42.953354 -2.433399 1.000000
38.930504 8.552303 -0.306100 5.000000
41.082802 -8.350924 0.768364 3.000000
56.079220 -39.765110 2.701075 18.000000
4.914562 -8.182439 0.536985 1.000000
38.902721 8.396852 -0.333424 73.000000
56.233131 -40.184792 2.739727 18.000000
60.534698 43.755444 -2.660534 1.000000
38.952621 8.258321 -0.354440 252.000000
38.864986 -8.190137 0.714094 29.000000
56.340099 -40.573997 2.776440 12.000000
57.980137 41.586281 -2.616361 18.000000
38.982441 8.115458 -0.375289 220.000000
40.179020 -8.620971 0.731638 6.000000
56.625984 -41.080818 2.822037 19.000000
57.898251 41.207008 -2.667934 26.000000
39.041119 7.978491 -0.396436 210.000000
39.087547 -8.536757 0.698358 5.000000
56.494408 -41.302246 2.847474 19.000000
57.972107 41.259571 -2.783273 26.000000
38.887150 -8.500101 0.611414 1.000000
56.462791 -41.279137 2.699162 19.000000
57.853363 41.495354 -2.772410 1.000000
38.987495 8.109411 -0.493492 225.000000
40.272537 -8.648389 0.596739 8.000000
56.550892 -41.026337 2.635109 19.000000
38.932796 8.247017 -0.514020 226.000000
38.831902 -8.190243 0.547232 20.000000
56.371952 -40.596939 2.535163 18.000000
38.941406 8.398089 -0.514537 32.000000
56.217587 -40.173683 2.449131 18.000000
58.802002 43.162773 -2.751195 11.000000
39.081192 8.578257 -0.523780 1.000000
41.212284 -8.384734 0.535868 2.000000
56.155411 -39.833862 2.380194 18.000000
4.876890 -8.119717 0.501366 1.000000
58.592339 43.340225 -2.710586 5.000000
38.951900 8.699644 -0.522471 1.000000
39.154385 -7.816712 0.487825 1.000000
55.963535 -39.390232 2.306134 17.000000
4.684434 -7.734920 0.469167 8.000000
58.537582 43.600792 -2.676457 18.000000
39.065098 -7.650107 0.479411 1.000000
55.768780 -38.948269 2.244669 18.000000
4.703854 -7.706150 0.458936 10.000000
58.886028 44.196812 -2.661174 16.000000
92.807007 21.443249 -1.230290 1.000000
44.459793 -8.537466 0.513618 1.000000
55.548668 -38.506767 2.171340 17.000000
4.736207 -7.698596 0.449978 6.000000
58.911697 44.554569 -2.643880 21.000000
92.946602 21.834661 -1.249860 1.000000
44.525440 -8.380979 0.490292 5.000000
55.176563 -37.950169 2.081145 11.000000
4.812062 -7.758037 0.443300 3.000000
44.480759 -8.211905 0.481586 6.000000
55.165886 -37.631615 2.040278 17.000000
4.810236 -7.694997 0.431130 1.000000
59.152779 45.455170 -2.579032 28.000000
44.791233 -8.099575 0.460787 3.000000
55.370445 -37.502705 1.984820 13.000000
4.780097 -7.584794 0.414957 1.000000
59.303150 45.884304 -2.552902 28.000000
79.075653 19.496029 -1.023504 13.000000
44.448715 -7.885510 0.449112 7.000000
55.612373 -37.369965 1.941753 9.000000
4.726364 -7.441815 0.401867 2.000000
59.297554 46.228409 -2.507387 27.000000
78.455978 19.648560 -0.988172 7.000000
44.295128 -7.690911 0.439425 9.000000
54.504211 -36.349792 1.864287 1.000000
4.689227 -7.323889 0.385778 1.000000
59.447063 46.696281 -2.481305 23.000000
65.431641 16.641834 -0.836675 17.000000
44.133617 -7.480490 0.414081 13.000000
54.371899 -35.974327 1.786913 1.000000
44.227436 -7.345599 0.391254 20.000000
54.224709 -35.591888 1.721133 33.000000
44.208458 -7.183964 0.383044 11.000000
54.533638 -35.522911 1.692891 31.000000
50.434677 -7.988068 0.409972 38.000000
54.844742 -35.412804 1.652515 29.000000
29.238621 23.660074 -1.149164 4.000000
50.446140 -7.818491 0.400942 22.000000
55.068272 -35.298935 1.598597 23.000000
28.981739 23.628508 -1.122867 5.000000
50.553753 -7.645536 0.374799 17.000000
55.390537 -35.233326 1.547052 29.000000
60.390202 49.605072 -2.292176 1.000000
93.697762 26.019915 -1.120215 1.000000
50.655693 -7.471148 0.366412 22.000000
55.638348 -35.105183 1.515904 32.000000
60.328564 49.925869 -2.242051 26.000000
93.274246 26.235775 -1.099272 1.000000
50.633312 -7.278331 0.357126 29.000000
55.907364 -34.989094 1.473661 28.000000
60.461147 50.410091 -2.198829 14.000000
50.653515 -7.100858 0.348164 32.000000
56.237324 -34.895802 1.444145 26.000000
60.655731 50.950344 -2.171173 20.000000
59.679344 17.281990 -0.683196 3.000000
50.748676 -6.924635 0.330762 30.000000
56.455940 -34.772690 1.388901 32.000000
11.896287 -17.193241 0.719150 29.000000
60.889416 51.528454 -2.130556 23.000000
59.247707 17.370152 -0.657356 8.000000
50.768818 -6.737936 0.321791 29.000000
56.784122 -34.688389 1.358982 33.000000
11.925277 -17.100843 0.698894 36.000000
61.070210 52.066784 -2.087479 26.000000
59.426907 17.682055 -0.638482 8.000000
50.813065 -6.554379 0.312975 26.000000
57.098038 -34.607052 1.316965 18.000000
11.985311 -17.059700 0.677062 39.000000
61.384079 52.724125 -2.062402 22.000000
81.801323 24.634975 -0.894657 20.000000
43.122311 -5.401742 0.242725 4.000000
57.392563 -34.498566 1.262374 25.000000
12.039497 -17.003992 0.654757 33.000000
61.533417 53.226765 -2.016813 22.000000
81.419067 24.845699 -0.861749 23.000000
57.660881 -34.372784 1.230336 22.000000
12.165857 -17.055902 0.640087 30.000000
61.761032 53.820660 -1.973499 13.000000
81.476570 25.221214 -0.833647 1.000000
57.920437 -34.240406 1.197946 17.000000
58.225571 -34.147079 1.166431 32.000000
62.085777 54.909538 -1.880893 1.000000
49.408298 -5.463456 0.234252 9.000000
58.575909 -34.064625 1.111791 28.000000
62.452377 55.643036 -1.839741 8.000000
78.976212 25.371695 -0.752865 20.000000
58.878437 -33.952385 1.079567 28.000000
62.472164 56.072750 -1.787733 7.000000
78.655006 25.602098 -0.721859 1.000000
43.259956 -4.462851 0.197351 12.000000
59.222736 -33.876015 1.047973 18.000000
62.451267 56.448853 -1.733967 16.000000
53.356678 17.563423 -0.470605 6.000000
59.512371 -33.752796 1.003127 26.000000
10.213814 -13.682936 0.426242 1.000000
53.306179 17.763611 -0.470731 10.000000
59.836739 -33.647507 0.958573 18.000000
10.156676 -13.507771 0.401227 57.000000
57.089993 52.368359 -1.487514 15.000000
53.343620 18.014320 -0.442214 1.000000
45.624096 -25.435781 0.692917 27.000000
56.917137 52.595238 -1.406840 8.000000
45.769592 -25.307880 0.684651 9.000000
10.141237 -13.288204 0.370580 241.000000
63.131729 58.768375 -1.520586 11.000000
75.536621 26.097857 -0.571891 13.000000
45.726639 -25.065731 0.637117 10.000000
10.211472 -13.279033 0.350890 230.000000
39.515739 37.055870 -0.917207 1.000000
75.190498 26.287148 -0.542190 15.000000
45.783348 -24.879026 0.609345 18.000000
10.257946 -13.243546 0.336272 232.000000
39.439583 37.218002 -0.880280 13.000000
74.787430 26.454243 -0.512287 8.000000
42.501228 -3.307603 0.148806 245.000000
61.553345 -33.156921 0.780998 2.000000
10.315822 -13.217909 0.321941 225.000000
39.129417 37.197380 -0.838694 9.000000
74.322937 26.596830 -0.482214 5.000000
