VERSION .7
FIELDS x y z intensity
SIZE 4 4 4 4
TYPE F F F F
COUNT 1 1 1 1
WIDTH 1225
HEIGHT 1
VIEWPOINT 0 0 0 1 0 0 0
POINTS 1225
DATA ascii
70.019936 -1.833537 3.572786 5.000000
22.503424 -10.685411 1.192227 6.000000
10.256024 -11.864963 0.607971 7.000000
39.212116 40.747421 1.490700 7.000000
69.214500 -2.054239 3.532033 22.000000
22.428263 -10.760266 1.203579 6.000000
39.643353 40.923058 1.462123 5.000000
71.673660 29.030821 3.295163 27.000000
68.882111 -2.297090 3.515477 9.000000
22.576883 -10.933543 1.226862 9.000000
39.766449 40.721748 1.400980 9.000000
71.712143 28.740900 3.238035 11.000000
63.295429 -2.343062 3.208604 27.000000
22.738169 -11.114720 1.246688 21.000000
9.519716 -11.257091 0.602437 8.000000
40.031601 40.722233 1.365667 5.000000
71.710915 28.450289 3.206499 15.000000
63.436432 -2.558960 3.227274 24.000000
22.698071 -11.183601 1.259691 9.000000
40.152737 40.561268 1.345027 8.000000
72.368614 28.404671 3.217638 6.000000
63.330227 -2.798281 3.244579 27.000000
56.938683 -28.314173 3.187957 10.000000
9.161325 -10.995765 0.607363 31.000000
40.513725 40.627022 1.302026 7.000000
72.282341 28.065502 3.182095 14.000000
56.859798 -28.535357 3.222770 15.000000
9.275384 -11.212013 0.630237 40.000000
40.606464 40.422615 1.250211 8.000000
72.335106 27.810308 3.126148 23.000000
60.731987 -3.108431 3.091218 22.000000
57.199295 -28.968666 3.270448 15.000000
9.189568 -11.191545 0.637318 37.000000
41.000301 40.516567 1.217496 12.000000
73.978828 28.116697 3.164826 13.000000
60.733433 -3.352995 3.102595 25.000000
56.789474 -29.010632 3.286264 15.000000
9.043997 -11.096943 0.642556 26.000000
41.127857 40.345741 1.166586 14.000000
73.348183 27.569771 3.106107 9.000000
60.507011 -3.552390 3.091643 16.000000
56.560089 -29.180340 3.313155 15.000000
9.067761 -11.205749 0.657104 10.000000
41.405083 40.335049 1.130078 14.000000
73.563156 27.343277 3.056071 8.000000
14.902054 -7.750907 0.874427 230.000000
9.020085 -11.230760 0.666705 9.000000
41.646633 40.273914 1.092173 17.000000
14.861235 -7.795707 0.882435 255.000000
8.853967 -11.107067 0.669854 9.000000
41.841385 40.166523 1.052906 20.000000
56.021381 -3.907571 2.854642 1.000000
14.851472 -7.866769 0.892547 181.000000
8.861342 -11.196280 0.683355 9.000000
42.133739 40.151470 1.005747 21.000000
74.967346 26.945574 3.018565 1.000000
56.131901 -4.112220 2.860988 1.000000
14.852949 -7.937400 0.903221 171.000000
8.846790 -11.270571 0.698249 37.000000
42.361137 40.072945 0.956761 21.000000
55.847095 -4.297200 2.857057 1.000000
14.886405 -8.022207 0.912873 223.000000
8.749614 -11.219162 0.703315 8.000000
42.555893 39.976624 0.917229 21.000000
56.040016 -4.518717 2.867755 1.000000
14.895957 -8.097946 0.924177 202.000000
8.885335 -11.479708 0.730301 33.000000
42.874435 39.981060 0.879993 20.000000
14.894864 -8.161459 0.934703 199.000000
8.806384 -11.464270 0.737379 23.000000
43.101841 39.898773 0.840640 20.000000
55.678303 -4.881012 2.860699 1.000000
14.892072 -8.227649 0.945260 237.000000
43.351284 39.835632 0.801542 19.000000
55.710155 -5.079825 2.873019 1.000000
14.896414 -8.301457 0.953431 181.000000
8.801677 -11.629463 0.769458 8.000000
43.497402 39.676842 0.760440 21.000000
55.652386 -5.280300 2.851454 4.000000
14.913613 -8.382826 0.959487 42.000000
8.611822 -11.465702 0.764058 10.000000
43.828709 39.699646 0.722513 21.000000
63.121597 20.887695 2.368281 22.000000
55.507931 -5.471945 2.854821 1.000000
14.879477 -8.432121 0.968162 3.000000
8.556423 -11.475142 0.775220 10.000000
44.030140 39.589291 0.671758 16.000000
46.222240 -26.418186 3.023143 9.000000
8.609012 -11.634412 0.793977 10.000000
44.238697 39.484547 0.631326 10.000000
63.731865 20.572548 2.315238 12.000000
46.123722 -26.586626 3.051018 9.000000
8.627044 -11.744297 0.812171 9.000000
44.578033 39.494827 0.592516 20.000000
64.093262 20.430120 2.302122 22.000000
46.098301 -26.786785 3.083512 9.000000
8.439431 -11.577594 0.811041 24.000000
44.756577 39.361156 0.551353 21.000000
62.592041 19.711176 2.222783 21.000000
8.396691 -11.608103 0.818542 7.000000
45.120586 39.416702 0.512394 21.000000
62.271683 19.383547 2.174924 8.000000
8.215954 -11.442135 0.817145 9.000000
45.313484 39.279465 0.460532 21.000000
63.962391 19.652964 2.208061 3.000000
55.123180 -6.641355 2.851477 1.000000
48.251057 -28.740578 3.316972 10.000000
42.107014 36.230534 0.387809 142.000000
64.505432 19.536777 2.200530 12.000000
54.775883 -6.803281 2.844441 1.000000
48.019814 -28.841808 3.337754 10.000000
8.277216 -11.703321 0.854141 11.000000
42.322144 36.172081 0.349814 139.000000
64.440964 19.284187 2.184384 6.000000
54.844189 -7.015974 2.858980 1.000000
48.591068 -29.427797 3.414786 10.000000
8.182317 -11.659554 0.858733 31.000000
42.562569 36.082912 0.301906 153.000000
8.255237 -11.851227 0.883372 34.000000
42.770103 36.015770 0.263492 130.000000
57.024780 -7.710053 2.965383 1.000000
48.593971 -29.906904 3.469922 10.000000
8.239676 -11.921820 0.899072 13.000000
62.765606 18.045179 2.040981 18.000000
57.193455 -7.946423 2.985754 1.000000
48.563046 -30.133839 3.505614 10.000000
8.263209 -12.050059 0.919253 9.000000
63.211845 17.922903 2.030384 21.000000
57.322651 -8.178638 2.983910 1.000000
47.401920 -29.643019 3.468424 10.000000
8.344362 -12.259936 0.940832 7.000000
47.158745 38.833214 0.149271 7.000000
63.884579 17.860935 2.015111 16.000000
57.625736 -8.416958 3.011315 1.000000
10.870799 -16.098433 1.245951 9.000000
47.246628 38.615864 0.106500 13.000000
64.369453 17.742390 2.005012 15.000000
24.029202 -15.267051 1.786131 28.000000
8.294475 -12.376116 0.968668 6.000000
64.392601 17.470947 1.980222 22.000000
57.802258 -8.886291 3.034173 1.000000
24.144575 -15.464860 1.813980 28.000000
8.331461 -12.530365 0.991532 7.000000
63.731831 17.064970 1.923575 17.000000
57.935776 -9.103582 3.032486 1.000000
24.237839 -15.650174 1.840452 33.000000
8.083858 -12.250506 0.980013 7.000000
63.422165 16.733177 1.900907 21.000000
57.862057 -9.309437 3.040650 1.000000
24.207615 -15.750660 1.852443 90.000000
10.462231 -15.981874 1.285484 9.000000
65.532623 51.996407 -0.087603 10.000000
64.428879 16.758453 1.906058 17.000000
57.766243 -9.521710 3.047759 1.000000
24.207323 -15.877059 1.872082 9.000000
10.318799 -15.883487 1.291270 7.000000
65.710892 51.746525 -0.160577 25.000000
64.505356 16.526163 1.871622 18.000000
48.409767 -32.005283 3.763005 11.000000
10.230301 -15.874318 1.300714 8.000000
66.089104 51.653046 -0.219597 5.000000
64.163887 16.188305 1.836863 22.000000
54.820583 -9.429749 2.876279 1.000000
10.128448 -15.843505 1.311628 7.000000
63.840508 15.858064 1.791460 21.000000
54.809753 -9.634851 2.887283 1.000000
10.008467 -15.776906 1.316322 9.000000
64.835846 15.853238 1.794433 16.000000
58.393627 -10.475110 3.067601 2.000000
18.454510 -12.485250 1.476007 6.000000
9.907459 -15.744965 1.326934 7.000000
74.535011 56.945107 -0.474762 20.000000
65.701111 15.809829 1.781356 5.000000
18.502998 -12.617158 1.491426 6.000000
9.862512 -15.795586 1.341358 7.000000
74.420235 56.426636 -0.537914 27.000000
65.195297 15.435547 1.730992 22.000000
58.290730 -10.898284 3.066310 5.000000
18.386089 -12.636410 1.497460 9.000000
9.806558 -15.834865 1.357971 2.000000
74.422386 55.999874 -0.617723 10.000000
65.023216 15.143341 1.701618 22.000000
58.593208 -11.177253 3.094795 6.000000
18.977156 -13.140407 1.557420 10.000000
11.463449 -18.655451 1.607944 5.000000
37.461658 27.973948 -0.334569 14.000000
65.883080 15.089240 1.687249 19.000000
18.990005 -13.252539 1.566510 8.000000
11.669324 -19.147467 1.666329 5.000000
51.378418 38.073566 -0.513418 208.000000
71.341248 16.064362 1.812740 1.000000
45.712296 -32.139057 3.819289 10.000000
11.790143 -19.498549 1.709287 5.000000
51.323898 37.742542 -0.567087 213.000000
71.293190 15.779213 1.771782 15.000000
46.281502 -32.793388 3.886809 10.000000
12.038494 -20.075081 1.772382 2.000000
51.406456 37.527477 -0.622095 13.000000
71.978790 15.667597 1.748858 22.000000
45.981274 -32.834461 3.891492 10.000000
12.214968 -20.531513 1.825679 3.000000
73.192825 53.021713 -0.978041 23.000000
71.616531 15.314035 1.687525 16.000000
18.180902 -13.078743 1.550398 8.000000
73.203262 52.621254 -1.054280 10.000000
17.938778 -13.004605 1.537690 9.000000
9.027165 -15.423412 1.390785 10.000000
72.975456 52.052887 -1.142127 33.000000
18.163164 -13.264241 1.560884 26.000000
8.942870 -15.402469 1.395455 7.000000
18.024334 -13.162855 1.509816 20.000000
8.941216 -15.399618 1.373310 7.000000
72.994949 52.452190 -1.270818 24.000000
17.938852 -12.995110 1.471280 10.000000
9.023920 -15.405531 1.351842 4.000000
73.219643 53.021660 -1.246543 24.000000
71.630379 15.303924 1.380837 13.000000
18.004015 -12.941962 1.445518 7.000000
73.554214 53.675999 -1.223789 30.000000
71.493706 15.535872 1.366465 20.000000
46.134922 -32.932026 3.645649 10.000000
12.139276 -20.379995 1.737830 4.000000
73.739799 54.226734 -1.214197 23.000000
71.348427 15.778375 1.364785 20.000000
45.486732 -32.230244 3.536668 10.000000
11.932224 -19.889997 1.674818 6.000000
51.335621 38.041851 -0.825273 13.000000
11.760716 -19.442217 1.616814 5.000000
37.491875 27.996510 -0.571695 14.000000
65.943481 15.090960 1.263479 23.000000
45.855751 -32.001312 3.459283 10.000000
11.595565 -19.018970 1.565438 4.000000
37.329239 28.088760 -0.554471 1.000000
65.473862 15.236245 1.255542 10.000000
58.621777 -11.193306 2.657905 24.000000
18.989616 -13.139230 1.408328 8.000000
11.463716 -18.634003 1.510668 5.000000
74.567917 56.538616 -1.077998 9.000000
65.670753 15.536011 1.248619 22.000000
54.765289 -10.249045 2.452102 8.000000
18.904716 -12.983138 1.378575 8.000000
9.820856 -15.839420 1.267273 7.000000
74.460098 56.887871 -1.014020 27.000000
64.752625 15.569637 1.255495 22.000000
54.690735 -10.027761 2.417933 4.000000
18.321461 -12.493368 1.321362 9.000000
9.855627 -15.766176 1.247995 7.000000
64.911781 15.847795 1.247979 15.000000
54.757034 -9.832615 2.409526 4.000000
18.376549 -12.423157 1.302302 9.000000
9.916612 -15.741219 1.229183 7.000000
68.998428 53.501381 -0.853390 17.000000
63.935791 15.858039 1.253327 14.000000
54.521667 -9.594019 2.368641 7.000000
18.254433 -12.257222 1.279361 9.000000
10.022959 -15.781477 1.218802 7.000000
68.609047 53.603264 -0.820603 13.000000
64.333122 16.207119 1.250688 18.000000
54.497795 -9.384020 2.356424 7.000000
48.261730 -32.150078 3.323364 11.000000
10.162132 -15.871768 1.208825 7.000000
68.396835 53.842335 -0.759645 1.000000
64.282547 16.445171 1.274038 20.000000
54.345840 -9.152890 2.319480 10.000000
23.769182 -15.696708 1.612474 10.000000
10.258620 -15.899974 1.197113 9.000000
64.047440 16.635370 1.282132 19.000000
54.453358 -8.965879 2.313002 13.000000
23.810734 -15.616944 1.596999 28.000000
10.377122 -15.967161 1.188072 7.000000
75.285316 60.164051 -0.740100 26.000000
63.560658 16.757851 1.273608 21.000000
54.272644 -8.741653 2.294404 17.000000
23.853462 -15.508383 1.570771 70.000000
7.966137 -12.155005 0.888867 6.000000
75.486923 60.736443 -0.693324 12.000000
64.489540 17.231674 1.316669 19.000000
54.206402 -8.527271 2.271080 11.000000
24.027094 -15.508157 1.563791 28.000000
10.563839 -16.002663 1.159356 10.000000
47.423649 38.444046 -0.394241 6.000000
63.978821 17.358681 1.319167 16.000000
54.114235 -8.309642 2.256355 19.000000
19.457127 -12.462499 1.251384 8.000000
47.226513 38.599426 -0.361950 9.000000
63.799530 17.561338 1.293681 12.000000
54.079845 -8.111238 2.225046 25.000000
19.508091 -12.384988 1.227186 6.000000
8.334943 -12.422429 0.873041 6.000000
47.076138 38.751404 -0.340547 9.000000
63.507992 17.731750 1.312104 18.000000
53.941517 -7.888447 2.208620 31.000000
47.469196 -29.904520 2.930442 10.000000
46.812809 38.795784 -0.297124 1.000000
62.740120 17.765491 1.308961 17.000000
53.935829 -7.685809 2.197695 30.000000
47.556267 -29.739540 2.910081 10.000000
8.196778 -12.029553 0.824040 22.000000
46.656841 38.983513 -0.254678 5.000000
65.523865 18.813419 1.368469 15.000000
53.791569 -7.464197 2.162206 23.000000
48.354099 -29.992498 2.912326 10.000000
8.331738 -12.131823 0.817672 7.000000
46.624668 39.247711 -0.223375 3.000000
54.001755 -7.291727 2.169566 21.000000
48.464470 -29.827206 2.872854 10.000000
8.297738 -11.992397 0.797457 8.000000
42.626495 36.124325 -0.175536 54.000000
63.018002 18.583067 1.364764 14.000000
49.329624 -30.110931 2.877127 11.000000
8.259212 -11.843707 0.776939 9.000000
42.383614 36.186234 -0.136174 129.000000
54.988255 -7.044158 2.168459 16.000000
49.282871 -29.835012 2.837765 11.000000
8.177543 -11.639785 0.750491 10.000000
42.106701 36.217476 -0.106629 139.000000
62.738171 18.977621 1.372985 7.000000
55.291725 -6.877148 2.169678 10.000000
48.604935 -29.193245 2.753166 10.000000
8.318628 -11.748821 0.746885 31.000000
45.231670 39.208546 -0.073133 21.000000
63.941772 19.622204 1.424395 17.000000
55.586746 -6.687364 2.180184 13.000000
8.342566 -11.695847 0.732794 10.000000
44.950741 39.226849 -0.031238 21.000000
62.792175 19.497488 1.423180 1.000000
55.687260 -6.522043 2.173512 22.000000
8.242925 -11.467019 0.707990 23.000000
44.780384 39.368237 0.010407 21.000000
55.642406 -6.310141 2.141479 29.000000
46.030220 -26.973385 2.506644 6.000000
8.364431 -11.546521 0.699819 27.000000
44.516003 39.426003 0.041514 21.000000
62.842613 20.019386 1.439128 21.000000
55.600601 -6.099077 2.138995 24.000000
45.927677 -26.687639 2.449261 9.000000
8.483342 -11.633566 0.696631 7.000000
44.211891 39.474487 0.082757 21.000000
63.792324 20.592064 1.486087 21.000000
55.669724 -5.880596 2.130945 24.000000
46.074497 -26.526123 2.423497 9.000000
44.036064 39.580723 0.124009 21.000000
63.633404 20.774019 1.483982 22.000000
55.545872 -5.681325 2.096194 22.000000
46.323776 -26.465494 2.403987 7.000000
8.658340 -11.692538 0.675948 10.000000
43.816494 39.674667 0.165066 21.000000
63.247326 20.904808 1.523283 16.000000
55.540504 -5.484944 2.095256 22.000000
14.940693 -8.466812 0.764804 13.000000
8.553117 -11.466531 0.652095 11.000000
43.596367 39.753174 0.205948 21.000000
55.605366 -5.285632 2.087196 20.000000
14.889228 -8.365699 0.751635 31.000000
8.571416 -11.403613 0.637824 31.000000
43.288261 39.763790 0.235957 21.000000
63.581997 21.558432 1.535286 22.000000
55.664894 -5.085494 2.069178 9.000000
14.894176 -8.296803 0.735438 17.000000
8.703020 -11.486607 0.629210 10.000000
43.024670 39.813393 0.276239 21.000000
63.778648 21.861189 1.588870 22.000000
55.747505 -4.887079 2.081349 20.000000
14.897145 -8.230453 0.725234 22.000000
8.818079 -11.550271 0.624299 8.000000
42.750298 39.851349 0.316216 21.000000
64.886864 22.494459 1.642410 4.000000
55.819717 -4.697124 2.063840 20.000000
14.909905 -8.166317 0.718448 9.000000
8.793736 -11.431274 0.604475 19.000000
42.589195 39.993919 0.356896 21.000000
65.034554 22.813011 1.672325 9.000000
55.851856 -4.493733 2.054613 12.000000
14.896164 -8.087956 0.707462 6.000000
8.723748 -11.258757 0.584508 31.000000
42.325672 40.025402 0.386359 21.000000
75.431702 26.771049 1.942192 1.000000
56.057266 -4.303530 2.061575 10.000000
14.924843 -8.036200 0.692670 8.000000
8.745918 -11.210388 0.573557 29.000000
42.102459 40.107643 0.426258 20.000000
75.214821 27.004881 1.967056 1.000000
55.913906 -4.086438 2.036142 9.000000
15.038255 -8.026308 0.687624 10.000000
8.760326 -11.136387 0.556704 32.000000
41.861160 40.171471 0.465809 20.000000
56.008621 -3.887036 2.029247 9.000000
14.997230 -7.933923 0.675515 10.000000
8.935131 -11.285463 0.552976 9.000000
41.663002 40.275677 0.515817 20.000000
73.896835 27.159458 1.992862 16.000000
60.120277 -3.961567 2.177702 14.000000
15.052965 -7.892932 0.670776 6.000000
8.893377 -11.140541 0.535163 9.000000
41.414677 40.330311 0.534749 8.000000
73.585800 27.322464 2.000615 28.000000
60.020065 -3.734076 2.163053 18.000000
69.406898 -36.084766 3.018843 24.000000
8.955544 -11.142433 0.526683 33.000000
41.276871 40.477791 0.585246 5.000000
73.872894 27.737568 2.038733 14.000000
60.078239 -3.516695 2.164670 23.000000
69.739952 -35.933834 2.986442 24.000000
9.085843 -11.224087 0.519420 32.000000
45.890568 45.333309 0.698052 17.000000
73.606522 27.945795 2.061696 7.000000
60.639549 -3.326581 2.184441 25.000000
70.152451 -35.821606 2.970928 24.000000
9.111356 -11.171627 0.508457 13.000000
41.134361 40.933830 0.668500 1.000000
72.429680 27.803152 2.058675 14.000000
60.960014 -3.141438 2.184930 25.000000
57.096500 -28.904087 2.380172 15.000000
9.233042 -11.240489 0.500346 8.000000
40.937725 41.037876 0.718336 1.000000
72.545624 28.153160 2.092072 1.000000
61.156300 -2.916151 2.191548 25.000000
57.068443 -28.627596 2.363453 15.000000
9.194803 -11.110659 0.483463 16.000000
40.508862 40.892460 0.753503 4.000000
72.497414 28.426023 2.120732 21.000000
22.649635 -11.258162 0.918623 6.000000
9.281270 -11.123925 0.470470 10.000000
71.992096 28.532761 2.149574 16.000000
22.682209 -11.170867 0.905022 10.000000
71.761070 28.745974 2.172812 25.000000
22.759823 -11.115462 0.897790 8.000000
39.516224 40.777580 0.872197 5.000000
71.835899 29.081940 2.178291 16.000000
69.009094 -2.289267 2.435308 9.000000
22.433880 -10.849792 0.870219 8.000000
9.917471 -11.628295 0.458932 21.000000
39.328148 40.867992 0.910796 5.000000
71.685768 29.327423 2.231099 14.000000
22.473902 -10.767690 0.857171 6.000000
10.101439 -11.760603 0.457418 20.000000
39.156811 40.989582 0.959783 14.000000
16.610378 6.863267 0.520852 6.000000
22.585716 -10.719656 0.851194 6.000000
10.153767 -11.742519 0.441751 6.000000
39.144081 41.249256 1.002531 12.000000
16.598778 6.929807 0.527565 6.000000
55.316570 -1.245649 1.951525 7.000000
22.456085 -10.562244 0.831906 6.000000
10.298710 -11.822283 0.435214 7.000000
39.114632 41.551006 1.055855 16.000000
16.545469 6.978873 0.532954 6.000000
55.381077 -1.024694 1.953640 33.000000
22.676100 -10.564404 0.829874 6.000000
15.791753 -17.988035 0.643518 10.000000
39.044075 41.767220 1.087827 17.000000
16.551704 7.053072 0.543413 6.000000
55.334354 -0.830622 1.951877 209.000000
15.927479 -18.009073 0.625359 9.000000
38.910606 41.931469 1.128334 18.000000
16.568300 7.128582 0.544771 6.000000
55.352474 -0.647305 1.933083 226.000000
16.100210 -18.070480 0.604175 10.000000
38.867741 42.194389 1.181651 15.000000
16.541618 7.189068 0.560511 9.000000
55.353794 -0.444418 1.952406 218.000000
16.290079 -18.149216 0.596023 10.000000
38.737167 42.333492 1.222020 20.000000
16.519552 7.251576 0.566964 6.000000
55.355392 -0.241535 1.942744 232.000000
11.726894 -12.982966 0.415349 8.000000
38.692783 42.582497 1.265489 13.000000
16.533892 7.330265 0.571534 6.000000
55.366577 -0.038653 1.923769 232.000000
11.679324 -12.844414 0.396996 8.000000
38.704834 42.880604 1.310874 10.000000
16.527557 7.393134 0.578486 8.000000
55.426052 0.135432 1.935526 26.000000
11.773824 -12.853377 0.383385 35.000000
38.556633 43.032475 1.361637 10.000000
16.528793 7.463036 0.585775 6.000000
55.310249 0.337875 1.931512 151.000000
11.668482 -12.645013 0.366425 27.000000
38.411301 43.187721 1.402459 7.000000
16.569250 7.554535 0.597731 6.000000
55.333626 0.540839 1.932385 219.000000
11.661720 -12.549505 0.349878 10.000000
38.365372 43.440491 1.456917 14.000000
70.863235 32.623421 2.587927 28.000000
55.346264 0.743845 1.932909 211.000000
11.688243 -12.477228 0.337228 28.000000
38.231747 43.610302 1.488289 9.000000
70.556160 32.795994 2.621870 28.000000
55.343330 0.937035 1.932909 215.000000
58.431046 -24.706278 1.794191 15.000000
11.784630 -12.496802 0.323816 13.000000
38.133121 43.820782 1.541420 8.000000
70.082588 32.873844 2.649099 27.000000
55.354507 1.140181 1.933432 228.000000
38.041306 44.024654 1.584560 8.000000
69.549812 32.935471 2.660399 19.000000
55.354958 1.343179 1.933607 229.000000
17.396755 -7.213088 0.519470 9.000000
12.022652 -12.567805 0.303585 8.000000
37.953621 44.249977 1.638565 12.000000
69.066696 33.017143 2.686662 27.000000
55.349663 1.546056 1.933607 226.000000
17.415325 -7.142545 0.509338 1.000000
12.325522 -12.790229 0.294541 8.000000
37.832355 44.437153 1.691321 8.000000
68.773369 33.187130 2.706654 18.000000
55.363598 1.749544 1.934304 226.000000
79.596474 -32.336960 2.294763 23.000000
12.466479 -12.841965 0.284285 9.000000
37.737541 44.640549 1.734882 6.000000
68.270309 33.238674 2.704675 23.000000
55.377464 1.943501 1.925331 234.000000
80.060333 -32.151588 2.274259 17.000000
12.445976 -12.722732 0.264059 10.000000
37.823257 45.076000 1.797802 15.000000
68.222977 33.525509 2.747502 27.000000
55.369972 2.146456 1.925331 226.000000
12.439114 -12.631647 0.250644 14.000000
37.688755 45.251503 1.850722 16.000000
68.406059 33.897560 2.786072 27.000000
55.427452 2.332790 1.927589 24.000000
12.503052 -12.603838 0.238603 13.000000
37.825924 45.739937 1.906765 5.000000
68.561584 34.288193 2.837698 27.000000
55.508381 2.540037 1.930714 10.000000
12.535114 -12.543869 0.229049 9.000000
37.587200 45.791985 1.954933 9.000000
68.717995 34.696903 2.890028 27.000000
55.462467 2.761085 1.939190 6.000000
12.723022 -12.638919 0.215982 21.000000
37.503242 46.032707 2.011202 12.000000
68.918442 35.115700 2.944409 26.000000
91.106003 4.838444 3.185975 25.000000
12.770728 -12.598044 0.203518 9.000000
37.200016 45.987404 2.044880 1.000000
68.903885 35.426991 2.976399 27.000000
12.941938 -12.673683 0.192858 9.000000
36.710991 45.724594 2.078431 10.000000
69.041901 35.787922 3.028250 27.000000
12.590464 -12.239416 0.174691 18.000000
36.498421 45.802700 2.127061 20.000000
69.171463 36.161968 3.094026 28.000000
60.175766 -22.176151 1.522552 15.000000
12.577780 -12.137738 0.158641 38.000000
36.516960 46.155624 2.188947 9.000000
69.324242 36.565994 3.147938 28.000000
60.206829 -21.949202 1.476627 9.000000
12.692346 -12.163019 0.147276 13.000000
36.389793 46.342957 2.232686 17.000000
69.422371 36.974720 3.200359 24.000000
12.791249 -12.168178 0.135579 12.000000
36.309528 46.574528 2.289334 10.000000
69.509171 37.317360 3.251425 28.000000
61.012165 -21.737455 1.447190 1.000000
12.803111 -12.090381 0.122940 7.000000
36.226006 46.820290 2.346612 9.000000
69.622993 37.692135 3.304409 27.000000
80.286270 6.304567 2.882656 1.000000
62.680847 -22.073412 1.461634 9.000000
36.192863 47.133377 2.407582 15.000000
69.719460 38.107052 3.357896 28.000000
80.426964 6.612299 2.888558 1.000000
62.717491 -21.803726 1.437247 14.000000
36.069229 47.313362 2.462335 1.000000
12.207440 6.724976 0.596328 7.000000
80.491287 6.914690 2.905878 14.000000
62.685928 -21.560022 1.411727 17.000000
13.039855 -12.049697 0.083668 7.000000
36.105518 47.722736 2.518587 8.000000
12.080834 6.715823 0.598649 192.000000
78.660057 7.034061 2.840636 21.000000
62.855919 -21.373421 1.390681 10.000000
12.969750 -11.897085 0.070651 18.000000
36.051380 47.998482 2.578963 16.000000
12.071388 6.763070 0.604128 235.000000
76.891922 7.160120 2.791208 1.000000
13.020693 -11.856230 0.058397 1.000000
35.804039 47.999828 2.624997 10.000000
12.059288 6.814484 0.612036 192.000000
61.631157 -20.454180 1.314876 7.000000
19.399542 -17.534983 0.068460 28.000000
12.035148 6.856378 0.619288 176.000000
61.720390 -20.232965 1.292507 37.000000
19.500927 -17.497181 0.050300 32.000000
12.031308 6.912722 0.627670 184.000000
61.756516 -19.994434 1.269053 57.000000
19.606018 -17.462187 0.032077 31.000000
12.024685 6.973270 0.638504 157.000000
71.836075 7.740473 2.636730 25.000000
61.815102 -19.763386 1.268760 38.000000
19.711807 -17.433401 0.018371 31.000000
36.062958 49.837326 2.901051 8.000000
12.002524 7.010900 0.643356 125.000000
71.191002 7.935028 2.626621 26.000000
61.849602 -19.524843 1.234018 36.000000
19.756788 -17.344547 -0.004588 22.000000
36.023918 50.151054 2.976785 12.000000
11.985063 7.059741 0.651102 159.000000
71.096458 8.188418 2.636730 5.000000
61.941250 -19.316273 1.234494 37.000000
19.903154 -17.344284 -0.018431 27.000000
35.919506 50.394485 3.037533 10.000000
11.980283 7.116199 0.659567 186.000000
61.978600 -19.078947 1.211192 39.000000
20.019518 -17.316999 -0.036959 31.000000
35.678375 50.427692 3.086048 6.000000
11.959255 7.160302 0.669535 186.000000
62.096333 -18.866308 1.189471 49.000000
20.082827 -17.243486 -0.055439 20.000000
35.310989 50.298420 3.123963 3.000000
11.945456 7.211648 0.677561 209.000000
62.310478 7.838500 2.335757 26.000000
62.107807 -18.621422 1.177055 35.000000
15.400507 -13.125410 -0.056507 22.000000
11.931437 7.262987 0.685602 182.000000
62.361523 8.099347 2.371843 23.000000
15.486650 -13.101139 -0.070808 21.000000
11.914217 7.309625 0.693411 182.000000
62.350819 8.330452 2.383576 22.000000
15.639443 -13.137012 -0.085556 30.000000
11.899568 7.360804 0.706365 205.000000
62.309967 8.557563 2.383197 18.000000
62.415268 -17.968046 1.133708 81.000000
15.353350 -12.801011 -0.094200 40.000000
11.889141 7.414742 0.714710 201.000000
62.468178 -17.747389 1.122200 63.000000
15.615819 -12.923120 -0.109671 17.000000
11.858853 7.453474 0.716900 178.000000
62.379818 9.022411 2.410311 26.000000
62.519100 -17.514471 1.076614 38.000000
15.647563 -12.853053 -0.123699 16.000000
34.569420 51.561275 3.481537 1.000000
11.847795 7.507241 0.730163 30.000000
62.385456 9.256790 2.422847 27.000000
62.582691 -17.285160 1.087945 40.000000
15.849502 -12.921932 -0.139198 12.000000
11.845014 7.566466 0.741535 5.000000
62.388573 9.468801 2.435204 29.000000
62.592926 -17.041319 1.064380 39.000000
20.778397 -16.814009 -0.200605 29.000000
11.793012 7.591341 0.747298 3.000000
62.520882 9.723442 2.452802 15.000000
62.703613 -16.824842 1.042538 54.000000
20.886606 -16.775265 -0.210406 25.000000
34.285656 52.354080 3.685149 1.000000
11.848319 7.688510 0.764945 3.000000
62.736031 -16.587288 1.030731 67.000000
20.998655 -16.739017 -0.229664 17.000000
34.116241 52.514339 3.742445 6.000000
72.246964 47.259079 4.720858 31.000000
62.801243 -16.358498 1.030810 76.000000
21.092112 -16.693439 -0.248828 29.000000
71.987785 47.449173 4.759996 18.000000
62.877499 -16.144197 1.019798 39.000000
16.871355 -13.252624 -0.205950 7.000000
72.080879 47.890423 4.838329 17.000000
81.997246 13.971863 3.311736 3.000000
62.936588 -15.913717 0.997137 67.000000
16.829006 -13.119904 -0.219744 9.000000
12.147423 19.141275 1.422330 9.000000
81.588097 14.195385 3.311669 9.000000
62.951004 -15.672110 0.985124 39.000000
16.932215 -13.100870 -0.235410 8.000000
12.052592 19.146603 1.439256 1.000000
80.461517 14.303403 3.310906 17.000000
63.046867 -15.450797 0.985731 37.000000
17.083084 -13.117788 -0.251877 4.000000
72.994530 49.644283 5.120914 24.000000
80.462051 14.607925 3.327406 21.000000
63.132401 -15.226688 0.974852 48.000000
72.913277 49.962154 5.173855 32.000000
80.829842 14.980926 3.359235 7.000000
63.139309 -14.983690 0.962776 24.000000
72.850639 50.312607 5.228978 21.000000
80.570297 15.223916 3.364971 23.000000
38.120953 -8.899083 0.567116 7.000000
73.047791 50.845203 5.318824 4.000000
80.316002 15.480963 3.399599 14.000000
38.260609 -8.783937 0.561858 6.000000
80.346382 15.792460 3.417628 24.000000
18.124096 -13.396445 -0.322575 10.000000
74.192070 52.433773 5.556638 7.000000
79.528137 15.934598 3.399466 9.000000
55.214386 -12.260957 0.799642 28.000000
18.366388 -13.471722 -0.341911 16.000000
73.768028 52.521152 5.633766 32.000000
80.042953 16.328573 3.466737 5.000000
55.117847 -12.047870 0.807510 62.000000
73.495583 52.734173 5.675231 14.000000
74.386154 15.458798 3.250736 6.000000
55.092712 -11.810855 0.786769 40.000000
18.217077 -13.157914 -0.364788 9.000000
73.622078 53.234772 5.763705 25.000000
74.059647 15.674327 3.252193 18.000000
55.043655 -11.609551 0.775694 39.000000
74.222214 54.064259 5.905888 26.000000
71.229042 15.335212 3.168445 13.000000
54.909462 -11.371202 0.782999 33.000000
19.170013 -13.638532 -0.402443 24.000000
74.270432 54.517151 5.974025 16.000000
71.171822 15.596058 3.181162 16.000000
54.905804 -11.140777 0.772523 31.000000
18.521263 -13.074998 -0.403647 98.000000
67.880035 15.110801 3.084895 9.000000
54.785679 -10.927373 0.760567 28.000000
19.244549 -13.480185 -0.426535 30.000000
15.441290 27.247984 2.387881 7.000000
37.717514 28.103529 3.124151 10.000000
67.586098 15.317975 3.110545 15.000000
54.722065 -10.706290 0.778601 37.000000
18.879095 -13.121312 -0.425394 90.000000
37.581078 28.206417 3.162176 4.000000
66.599800 15.326810 3.079427 13.000000
54.626667 -10.489778 0.767008 31.000000
18.881666 -13.020726 -0.432383 9.000000
75.045052 56.756130 6.430944 23.000000
66.580505 15.579543 3.117031 16.000000
54.561443 -10.270045 0.775250 38.000000
66.477097 15.812559 3.162687 8.000000
66.519226 15.810313 3.260237 10.000000
54.568096 -10.064352 0.852308 33.000000
75.042099 56.753899 6.628695 26.000000
66.675018 15.601658 3.289141 8.000000
54.608700 -10.278940 0.902029 35.000000
19.593956 -13.406219 -0.418551 3.000000
37.634624 28.246607 3.282200 6.000000
54.639240 -10.492192 0.912876 34.000000
18.804174 -12.967288 -0.382754 33.000000
15.441458 27.248281 2.448394 8.000000
37.785912 28.154493 3.270275 7.000000
67.669258 15.311989 3.332561 14.000000
54.747120 -10.721113 0.944547 37.000000
19.294573 -13.410077 -0.373223 28.000000
74.448845 55.049042 6.377141 26.000000
54.800446 -10.940264 0.955909 36.000000
18.573906 -13.010421 -0.348326 125.000000
74.296509 54.536297 6.315424 21.000000
71.245361 15.586112 3.515852 7.000000
54.891407 -11.167784 1.007101 28.000000
18.840267 -13.310054 -0.334186 15.000000
74.063965 53.948990 6.214540 18.000000
74.139481 15.934734 3.642499 4.000000
54.992069 -11.398319 1.009708 30.000000
19.195438 -13.656620 -0.324837 8.000000
73.771652 53.342926 6.158389 30.000000
54.998310 -11.610014 1.040038 27.000000
73.575119 52.752342 6.060766 26.000000
55.091698 -11.840812 1.072133 32.000000
18.154503 -13.127188 -0.273722 29.000000
73.718849 52.486145 6.026505 21.000000
55.189365 -12.073595 1.084751 31.000000
18.163565 -13.225685 -0.258830 5.000000
73.993820 52.293663 5.986374 1.000000
79.916199 15.997845 3.900551 18.000000
55.246658 -12.298480 1.116403 10.000000
18.376444 -13.493902 -0.246715 25.000000
79.803436 15.671276 3.877990 9.000000
18.078430 -13.367571 -0.231534 33.000000
72.867500 50.719711 5.787926 11.000000
38.130295 -8.775038 0.792266 8.000000
18.089607 -13.478667 -0.212620 6.000000
72.798676 50.239193 5.704383 30.000000
38.189945 -8.936277 0.814726 8.000000
18.127405 -13.620337 -0.197874 6.000000
72.973923 50.003712 5.689588 32.000000
80.603470 14.895321 3.879861 18.000000
63.153728 -15.022047 1.359791 9.000000
17.993782 -13.623408 -0.177263 8.000000
73.133972 49.739124 5.641995 29.000000
80.633438 14.624505 3.864613 25.000000
18.109215 -13.810516 -0.162973 8.000000
12.147891 19.297995 1.538570 5.000000
73.360397 49.500847 5.583395 1.000000
80.741249 14.338594 3.852892 21.000000
64.283981 -15.789660 1.421257 16.000000
17.087244 -13.130466 -0.139163 7.000000
12.167648 19.180546 1.516654 7.000000
81.255135 14.122844 3.889344 19.000000
64.249199 -16.031036 1.456466 10.000000
16.925032 -13.095312 -0.126989 8.000000
72.137268 47.927891 5.388185 29.000000
81.619720 13.892875 3.889968 10.000000
64.073219 -16.236818 1.476900 14.000000
16.817232 -13.120165 -0.104238 9.000000
72.052292 47.491692 5.323442 24.000000
81.832001 13.620580 3.912191 4.000000
17.091402 -13.435122 -0.094858 8.000000
34.166058 52.591022 4.044587 8.000000
72.228302 47.246872 5.278867 31.000000
63.003792 -16.458237 1.489105 16.000000
34.228363 52.286499 3.975572 7.000000
11.743450 7.620460 0.848876 3.000000
62.945709 -16.677994 1.500470 16.000000
20.943665 -16.713125 -0.079502 24.000000
11.805123 7.599137 0.846396 7.000000
62.427586 9.697774 2.946169 23.000000
62.979668 -16.934271 1.548304 16.000000
20.856974 -16.757456 -0.065375 29.000000
11.815125 7.547374 0.837852 148.000000
62.428650 9.463737 2.933518 27.000000
62.969963 -17.179390 1.561001 16.000000
20.764355 -16.808643 -0.046626 31.000000
11.862686 7.510875 0.829243 224.000000
62.372963 9.221561 2.951350 26.000000
63.180637 -17.485922 1.590698 16.000000
15.726889 -12.835682 -0.014172 92.000000
11.848316 7.449736 0.824147 255.000000
62.317871 8.980143 2.936153 13.000000
62.913189 -17.660406 1.619819 121.000000
15.590916 -12.820201 -0.003523 25.000000
11.884618 7.411920 0.812513 232.000000
62.215801 8.743861 2.918899 14.000000
62.588440 -17.816977 1.613128 116.000000
15.407436 -12.759734 0.010475 93.000000
11.899089 7.360508 0.809202 232.000000
62.332062 8.527347 2.911864 29.000000
62.393711 -17.985428 1.643659 49.000000
15.430314 -12.865181 0.024545 91.000000
11.899543 7.303481 0.800159 197.000000
62.313892 8.292311 2.898580 33.000000
62.288433 -18.202614 1.665299 97.000000
15.444297 -12.973089 0.038724 40.000000
11.930853 7.262631 0.793132 194.000000
62.388943 8.069694 2.889673 29.000000
62.182400 -18.419266 1.686911 94.000000
15.362278 -13.000526 0.049175 32.000000
11.944922 7.211326 0.784976 190.000000
62.415722 7.851739 2.911633 9.000000
62.182735 -18.679377 1.700193 63.000000
15.214825 -12.980917 0.069813 34.000000
11.948960 7.156971 0.776279 213.000000
62.118065 -18.908443 1.722989 58.000000
15.212607 -13.075669 0.084027 33.000000
11.975343 7.113266 0.771417 190.000000
71.405769 8.451429 3.302877 19.000000
62.008976 -19.123850 1.767231 39.000000
15.289266 -13.239308 0.098838 30.000000
11.988891 7.061996 0.760874 178.000000
71.859207 8.238145 3.297131 26.000000
61.971855 -19.361427 1.768184 35.000000
19.900560 -17.354250 0.147473 29.000000
11.992145 7.007644 0.754660 180.000000
61.920712 -19.571062 1.802595 38.000000
19.797750 -17.380508 0.160931 28.000000
12.013768 6.961337 0.747119 173.000000
71.565994 7.711371 3.281193 18.000000
61.843208 -19.796165 1.825123 35.000000
19.707609 -17.429689 0.179085 28.000000
12.035210 6.914964 0.739583 169.000000
61.766132 -20.033283 1.847789 39.000000
13.099019 -11.679005 0.137836 18.000000
12.024794 6.853260 0.732623 184.000000
61.743904 -20.276484 1.872039 34.000000
13.078369 -11.746917 0.150344 32.000000
35.819176 48.037613 2.962117 9.000000
12.058859 6.814241 0.725900 145.000000
76.567207 7.372584 3.479525 1.000000
12.972118 -11.737670 0.161831 28.000000
35.951542 47.848164 2.906187 20.000000
12.062302 6.757979 0.717352 17.000000
76.895866 7.133414 3.493308 1.000000
12.964243 -11.813108 0.174492 19.000000
36.098763 47.696503 2.852290 20.000000
12.116699 6.732993 0.711908 3.000000
78.728104 7.012446 3.561529 5.000000
62.811916 -21.395155 1.969394 7.000000
13.016530 -11.948366 0.188120 19.000000
36.142895 47.427158 2.801612 11.000000
69.613129 38.349289 4.040058 28.000000
80.328545 6.886585 3.632877 7.000000
61.015171 -21.009209 1.937778 15.000000
12.936396 -11.954095 0.193683 16.000000
36.082504 46.972691 2.741489 9.000000
69.714378 38.072674 4.023909 23.000000
80.270271 6.557106 3.643108 4.000000
60.810066 -21.200109 1.978836 15.000000
12.844249 -11.964890 0.211406 28.000000
36.270878 46.861382 2.701275 4.000000
69.457901 37.618435 3.960037 24.000000
60.995224 -21.515715 2.010013 10.000000
12.833011 -12.042573 0.224234 30.000000
69.601524 37.366947 3.918925 24.000000
12.697842 -12.003555 0.234840 12.000000
69.312180 36.884979 3.853784 19.000000
61.647728 -22.255339 2.082639 4.000000
12.699164 -12.089025 0.250947 15.000000
36.503300 46.154907 2.538371 1.000000
69.271400 36.538120 3.816641 23.000000
12.637250 -12.110222 0.259682 31.000000
36.542831 45.858433 2.478151 15.000000
69.117050 36.148884 3.760225 26.000000
79.966782 5.101148 3.596610 5.000000
12.556677 -12.121608 0.271125 7.000000
36.885120 45.957909 2.449256 1.000000
69.037979 35.785889 3.707953 28.000000
91.461693 5.513927 4.112718 8.000000
58.904156 -21.964790 2.063516 8.000000
12.547831 -12.202232 0.287176 11.000000
37.287102 46.111523 2.412872 16.000000
68.930511 35.410263 3.654519 27.000000
91.212692 5.163462 4.084666 30.000000
12.802860 -12.541864 0.306578 29.000000
37.428772 45.941299 2.359331 8.000000
68.846748 35.094311 3.617181 27.000000
91.116280 4.823043 4.079529 13.000000
12.488369 -12.319504 0.312326 37.000000
37.539238 45.749836 2.314834 9.000000
68.756889 34.701485 3.564698 27.000000
55.427357 2.730244 2.481172 5.000000
12.435881 -12.357988 0.324388 32.000000
37.685390 45.553810 2.271215 9.000000
68.522331 34.268562 3.532602 27.000000
55.491005 2.539242 2.493324 19.000000
12.396521 -12.418175 0.343040 10.000000
37.757805 45.334415 2.204634 15.000000
68.415489 33.917107 3.467546 27.000000
55.415966 2.332306 2.470152 93.000000
12.418503 -12.522979 0.354034 8.000000
37.865421 45.142254 2.160513 17.000000
67.847862 33.355877 3.393485 25.000000
55.419151 2.128989 2.469929 229.000000
12.455213 -12.647995 0.368735 24.000000
37.857666 44.798496 2.099436 12.000000
68.000237 33.092506 3.367984 26.000000
55.386642 1.924466 2.468150 234.000000
79.942719 -32.152977 3.039113 22.000000
12.253951 -12.543943 0.376512 12.000000
37.918655 44.538521 2.063086 13.000000
68.759003 33.180199 3.360044 27.000000
55.398140 1.740957 2.458699 239.000000
17.423637 -7.082091 0.673222 9.000000
12.170231 -12.541172 0.393525 13.000000
38.110302 44.416962 2.002856 10.000000
69.234528 33.082527 3.336795 27.000000
55.404419 1.528231 2.458699 241.000000
17.396097 -7.148851 0.679787 6.000000
11.987910 -12.452930 0.398298 20.000000
38.075138 44.079357 1.962782 16.000000
69.753693 33.017117 3.328972 19.000000
55.359711 1.323959 2.456483 225.000000
17.422844 -7.227468 0.688358 1.000000
11.972720 -12.515609 0.411196 24.000000
38.191624 43.888004 1.909655 12.000000
70.251213 32.937981 3.306231 24.000000
55.369186 1.121148 2.456704 231.000000
11.878380 -12.508453 0.421577 34.000000
38.151127 43.533669 1.859566 7.000000
70.574013 32.804291 3.289070 28.000000
55.367931 0.918119 2.456483 237.000000
58.313282 -24.692484 2.366322 15.000000
11.780768 -12.497077 0.434733 10.000000
38.278622 43.357517 1.797395 11.000000
71.032295 32.686226 3.263541 26.000000
55.345825 0.724517 2.455375 238.000000
58.015400 -24.805525 2.357734 9.000000
11.772242 -12.580091 0.448153 15.000000
38.394928 43.169308 1.755043 16.000000
55.358097 0.521753 2.455818 251.000000
11.707627 -12.598907 0.459380 15.000000
38.400482 42.858196 1.697842 7.000000
55.384613 0.318996 2.456926 100.000000
11.674650 -12.656128 0.474940 16.000000
38.500416 42.669102 1.655508 9.000000
55.310440 0.135149 2.453602 154.000000
11.688713 -12.764935 0.489505 22.000000
38.682796 42.586433 1.617071 6.000000
72.802773 32.261749 3.198303 25.000000
55.370941 -0.057984 2.446597 255.000000
55.308506 -24.601803 2.378360 13.000000
11.612433 -12.779810 0.503443 7.000000
38.481903 42.054531 1.552436 1.000000
73.148239 32.125061 3.180850 26.000000
55.365448 -0.241579 2.446376 255.000000
55.075439 -24.717232 2.392954 12.000000
11.795386 -13.058795 0.522274 7.000000
38.751125 42.053059 1.517414 6.000000
73.420181 31.893534 3.145104 27.000000
55.338791 -0.444298 2.454931 255.000000
55.201752 -25.017395 2.434194 13.000000
16.227795 -18.098879 0.742697 9.000000
38.926285 41.933685 1.468280 12.000000
16.486519 7.089986 0.698842 1.000000
55.346783 -0.647238 2.455375 255.000000
55.173286 -25.248657 2.437003 12.000000
10.466109 -11.759295 0.491972 16.000000
38.984818 41.689243 1.424841 9.000000
16.505680 7.033460 0.689253 5.000000
55.339191 -0.840355 2.455153 228.000000
55.259830 -25.533625 2.498153 11.000000
10.358521 -11.720538 0.502499 17.000000
39.100319 41.506767 1.383659 15.000000
16.576382 6.995320 0.684892 6.000000
22.593037 -10.535306 1.031745 6.000000
10.311964 -11.754402 0.513255 19.000000
39.276749 41.403530 1.334949 10.000000
16.586103 6.921117 0.677858 4.000000
22.463385 -10.575255 1.040610 6.000000
10.159425 -11.674730 0.521511 19.000000
39.256191 41.079262 1.289435 20.000000
68.904648 -1.804332 3.033580 10.000000
22.410936 -10.651083 1.039982 6.000000
10.169491 -11.764854 0.532180 7.000000
39.389774 40.917736 1.249216 9.000000
71.737167 29.348448 2.828558 18.000000
68.708206 -2.039212 3.025226 3.000000
22.411789 -10.752362 1.054882 6.000000
39.557625 40.791801 1.200180 9.000000
71.404671 28.892859 2.811053 19.000000
22.495190 -10.889133 1.069330 7.000000
9.961288 -11.692064 0.552491 12.000000
39.836563 40.793545 1.164492 10.000000
71.571465 28.684519 2.759959 20.000000
22.719425 -11.100645 1.095180 10.000000
9.627735 -11.384823 0.546724 9.000000
39.979359 40.640705 1.124488 8.000000
72.048607 28.569710 2.747213 12.000000
22.687204 -11.188090 1.104443 9.000000
40.283550 40.650822 1.078885 12.000000
72.195595 28.322220 2.721736 21.000000
57.168812 -28.441053 2.821367 7.000000
9.260759 -11.111165 0.553139 16.000000
40.499985 40.599064 1.031009 1.000000
72.221039 28.027199 2.678193 16.000000
61.135307 -2.925845 2.704389 25.000000
57.042492 -28.614578 2.830960 15.000000
9.277049 -11.214026 0.566739 26.000000
41.130882 40.916084 1.012676 9.000000
72.417259 27.812883 2.654742 7.000000
57.027866 -28.894356 2.880689 15.000000
9.259728 -11.272978 0.580832 36.000000
60.518234 -3.341115 2.688703 25.000000
57.130154 -29.209818 2.902466 15.000000
9.060246 -11.112920 0.580896 10.000000
41.230976 40.418667 0.907019 6.000000
73.505325 27.584919 2.631911 14.000000
60.355988 -3.554094 2.682055 19.000000
69.629494 -35.907688 3.584939 10.000000
9.032962 -11.166729 0.591936 16.000000
41.415371 40.330986 0.867761 12.000000
73.531670 27.316969 2.602184 16.000000
60.702164 -3.787148 2.698009 25.000000
15.091008 -7.852535 0.787378 132.000000
9.067587 -11.285868 0.606778 10.000000
41.692425 40.275974 0.829692 20.000000
73.650909 27.054483 2.575459 15.000000
60.547844 -4.000356 2.702396 12.000000
14.818666 -7.779974 0.780505 241.000000
9.009423 -11.306130 0.618557 9.000000
41.869244 40.165192 0.789903 20.000000
14.844022 -7.859505 0.792095 209.000000
8.896003 -11.236042 0.625720 15.000000
42.147095 40.136135 0.731406 21.000000
14.850236 -7.932618 0.796918 209.000000
8.860661 -11.276081 0.636168 9.000000
42.403187 40.084682 0.702739 17.000000
55.908833 -4.311766 2.487504 1.000000
14.864532 -8.010420 0.811070 223.000000
8.877290 -11.382874 0.652976 24.000000
42.593994 39.970455 0.652488 14.000000
65.065475 22.836613 2.142958 11.000000
55.908379 -4.508103 2.488169 13.000000
14.891989 -8.095789 0.817147 223.000000
8.785168 -11.346201 0.661658 19.000000
42.758827 39.831417 0.611971 10.000000
64.936974 22.524527 2.111977 17.000000
14.876398 -8.154717 0.826752 220.000000
8.840623 -11.504684 0.679157 10.000000
43.012085 39.801746 0.572787 18.000000
63.592022 21.797220 2.042135 22.000000
14.880993 -8.228310 0.837603 216.000000
8.685977 -11.389597 0.683006 32.000000
43.261482 39.753109 0.533236 20.000000
14.901224 -8.304137 0.849241 213.000000
8.678964 -11.463165 0.698174 19.000000
43.577072 39.749516 0.494146 21.000000
55.575504 -5.273005 2.476425 2.000000
14.884818 -8.363221 0.858927 35.000000
8.642669 -11.502590 0.706192 11.000000
43.792202 39.624863 0.443236 21.000000
55.558430 -5.496506 2.486391 1.000000
14.868107 -8.432535 0.868881 1.000000
8.499508 -11.402965 0.712997 10.000000
44.046246 39.589870 0.413465 21.000000
46.136467 -26.369164 2.719875 8.000000
8.511856 -11.498915 0.727241 10.000000
44.247314 39.478367 0.351891 21.000000
63.847607 20.597605 1.909088 22.000000
46.069687 -26.544769 2.730688 9.000000
8.605410 -11.714847 0.746528 31.000000
44.552231 39.444218 0.311566 21.000000
62.585121 19.937359 1.846195 6.000000
55.400497 -6.086913 2.501619 1.000000
46.017212 -26.761158 2.771187 9.000000
8.454041 -11.601889 0.752329 32.000000
44.750523 39.355831 0.270433 21.000000
62.840878 19.777485 1.828677 18.000000
55.439568 -6.277338 2.504310 1.000000
8.362525 -11.556621 0.757578 34.000000
45.018925 39.300194 0.219031 21.000000
55.332279 -6.470679 2.490775 1.000000
8.234362 -11.463548 0.761941 21.000000
41.913113 36.319080 0.164553 142.000000
64.251968 19.705126 1.806795 8.000000
54.955673 -6.630904 2.484580 1.000000
8.362868 -11.732969 0.790416 10.000000
42.095303 36.207672 0.125982 183.000000
62.669136 18.968678 1.737446 8.000000
54.821953 -6.818718 2.479648 1.000000
48.506310 -29.134008 3.044625 10.000000
8.316604 -11.759012 0.800198 9.000000
42.330452 36.140846 0.087430 170.000000
8.154715 -11.615909 0.798457 9.000000
42.554214 36.063068 0.048677 163.000000
63.139030 18.606779 1.677668 16.000000
49.043835 -29.936485 3.152080 10.000000
8.345647 -11.981021 0.834229 37.000000
42.786972 36.004459 0.009760 117.000000
65.443733 19.025551 1.725139 9.000000
53.943089 -7.302979 2.443327 6.000000
48.609245 -29.916306 3.161151 10.000000
8.277809 -11.972525 0.844364 28.000000
46.644855 38.959671 -0.042429 1.000000
65.510323 18.797157 1.701349 7.000000
48.351326 -29.990778 3.161128 10.000000
8.275889 -12.064034 0.858922 34.000000
46.875835 38.861820 -0.085018 1.000000
63.001656 17.827671 1.600185 21.000000
47.706356 -29.833399 3.155641 10.000000
8.191253 -12.030465 0.864687 9.000000
47.164593 38.810413 -0.138586 7.000000
63.688732 17.770231 1.569783 16.000000
47.575577 -29.994741 3.154241 10.000000
8.264103 -12.233605 0.887448 6.000000
47.275455 38.611908 -0.181109 13.000000
64.120247 17.637581 1.555589 22.000000
19.508459 -12.394779 1.308404 6.000000
8.379332 -12.498013 0.917681 7.000000
64.020691 17.358046 1.540036 10.000000
24.237526 -15.524397 1.644500 9.000000
10.660186 -16.026657 1.190759 10.000000
75.394585 60.662144 -0.439127 33.000000
64.055420 17.115679 1.516196 22.000000
57.906097 -9.129990 2.620975 1.000000
24.023088 -15.505572 1.648634 23.000000
8.077803 -12.241330 0.917587 7.000000
75.420815 60.229198 -0.505375 28.000000
63.281704 16.660683 1.484999 21.000000
57.843834 -9.327219 2.629861 1.000000
23.869141 -15.530432 1.656924 29.000000
10.467646 -15.984060 1.212129 9.000000
64.257835 16.666077 1.460095 22.000000
57.971443 -9.565927 2.647515 1.000000
23.824095 -15.625708 1.667741 30.000000
10.335133 -15.908628 1.216826 7.000000
68.503098 53.887268 -0.593275 8.000000
64.403038 16.464022 1.450472 20.000000
23.772840 -15.711043 1.682954 20.000000
10.230295 -15.868227 1.227542 8.000000
68.568291 53.552151 -0.652959 12.000000
64.100349 16.136580 1.396145 22.000000
48.193024 -32.104305 3.450469 11.000000
10.133853 -15.845864 1.239415 7.000000
64.091362 15.884752 1.383142 22.000000
18.264982 -12.264306 1.318632 9.000000
10.024665 -15.796344 1.242636 7.000000
64.824905 15.814595 1.362759 22.000000
57.913990 -10.399503 2.651341 1.000000
18.382895 -12.436800 1.338046 10.000000
9.918282 -15.756063 1.252919 7.000000
74.512413 56.886658 -0.932645 23.000000
64.814842 15.560667 1.338063 18.000000
58.051899 -10.644044 2.669744 10.000000
18.348978 -12.512133 1.350578 9.000000
9.902397 -15.853305 1.271004 7.000000
65.660271 15.509330 1.318994 22.000000
58.120968 -10.877044 2.664395 6.000000
18.942587 -13.014011 1.401631 7.000000
9.804232 -15.824939 1.282162 6.000000
37.403133 28.123920 -0.539085 1.000000
65.269348 15.164638 1.274917 21.000000
58.591423 -11.187510 2.677392 25.000000
18.984623 -13.145577 1.416388 8.000000
11.454181 -18.633078 1.521776 5.000000
37.507896 28.008474 -0.571939 14.000000
65.948357 15.092075 1.263572 22.000000
45.921230 -32.047009 3.464223 10.000000
51.463924 38.136929 -0.849699 10.000000
18.880886 -13.274633 1.435918 6.000000
11.737630 -19.404053 1.609662 4.000000
73.791634 54.264854 -1.263019 23.000000
71.374802 15.758079 1.288615 16.000000
55.162201 -11.152711 2.526057 1.000000
45.460232 -32.211468 3.495557 10.000000
11.950484 -19.920433 1.669230 4.000000
73.524689 53.654449 -1.334522 17.000000
71.149361 15.435039 1.245384 15.000000
55.087135 -11.347849 2.514671 1.000000
12.117474 -20.359554 1.719098 3.000000
73.185379 52.996845 -1.403700 20.000000
71.728394 15.311776 1.241818 23.000000
54.983204 -11.526657 2.521573 1.000000
17.989363 -12.940956 1.405867 8.000000
12.262674 -20.776407 1.767421 2.000000
72.984299 52.444538 -1.474596 23.000000
55.234978 -11.790946 2.505453 5.000000
17.945850 -13.009732 1.406183 10.000000
9.024930 -15.413423 1.321048 7.000000
72.918076 51.992756 -1.578843 23.000000
55.245934 -12.005165 2.488156 1.000000
8.960517 -15.432861 1.329286 7.000000
55.216736 -11.998820 2.368278 15.000000
8.933963 -15.380943 1.303099 7.000000
72.915962 52.395435 -1.708355 33.000000
55.206543 -11.794950 2.316711 22.000000
17.928755 -12.997340 1.342767 23.000000
9.026195 -15.415582 1.286755 1.000000
73.193596 53.002796 -1.687844 23.000000
72.791519 15.525436 0.961334 9.000000
55.109173 -11.563106 2.271455 35.000000
17.904287 -12.879756 1.318073 10.000000
12.205062 -20.670555 1.699638 4.000000
73.459663 53.606998 -1.666744 28.000000
71.048698 15.426186 0.926366 12.000000
55.054470 -11.341120 2.237993 31.000000
12.071414 -20.282166 1.646319 4.000000
