VERSION .7
FIELDS x y z intensity
SIZE 4 4 4 4
TYPE F F F F
COUNT 1 1 1 1
WIDTH 1230
HEIGHT 1
VIEWPOINT 0 0 0 1 0 0 0
POINTS 1230
DATA ascii
14.441918 15.694468 -1.813460 14.000000
14.145008 6.138686 -1.762296 6.000000
16.771669 -0.175639 -2.071302 6.000000
16.190689 -7.422933 -2.016733 6.000000
15.577209 -17.563547 -1.864102 8.000000
14.480452 15.615582 -1.833221 10.000000
14.094802 6.049778 -1.769276 6.000000
16.746101 -0.236758 -2.068238 6.000000
16.132771 -7.468058 -2.003488 6.000000
15.491397 -17.608679 -1.837564 8.000000
14.386437 15.400599 -1.840101 7.000000
13.983461 5.941389 -1.760615 6.000000
16.714579 -0.300509 -2.070396 6.000000
16.218136 -7.579879 -2.014362 6.000000
15.476989 -17.722862 -1.822889 8.000000
14.333962 15.242780 -1.845314 6.000000
13.957769 5.873040 -1.760146 6.000000
16.762976 -0.362842 -2.076542 6.000000
16.365747 -7.725573 -2.020374 6.000000
15.484352 -17.844137 -1.809610 8.000000
14.260873 15.048852 -1.850335 6.000000
13.796689 5.740182 -1.747487 6.000000
16.756573 -0.424154 -2.075927 6.000000
16.400763 -7.815736 -2.021798 6.000000
15.417075 -17.911354 -1.785245 7.000000
14.287081 14.966256 -1.868447 6.000000
13.741623 5.663888 -1.743383 6.000000
16.819300 -0.490371 -2.083916 6.000000
16.467005 -7.921494 -2.023844 6.000000
15.442960 -18.055841 -1.769781 7.000000
14.176788 14.752462 -1.865617 6.000000
13.743051 5.605638 -1.748825 6.000000
16.792593 -0.551200 -2.080844 6.000000
16.425713 -7.975897 -2.009445 6.000000
15.461580 -18.212330 -1.758591 7.000000
14.015627 14.483224 -1.859028 6.000000
13.881795 5.602973 -1.777102 7.000000
16.810551 -0.616415 -2.080366 6.000000
16.517815 -8.095570 -2.014581 6.000000
13.921520 14.280864 -1.857144 6.000000
13.998196 5.590379 -1.797372 9.000000
16.882549 -0.681025 -2.089571 6.000000
16.680553 -8.251289 -2.028244 6.000000
21.004324 -25.103079 -2.340476 9.000000
13.616637 13.866070 -1.830211 6.000000
14.143945 5.585711 -1.816011 6.000000
16.785751 -0.738752 -2.077911 6.000000
16.744858 -8.359628 -2.026555 6.000000
21.130419 -25.442677 -2.330093 7.000000
13.591173 13.734249 -1.843505 8.000000
14.331252 5.593286 -1.850781 8.000000
16.827036 -0.805317 -2.086375 6.000000
16.808283 -8.468394 -2.028004 6.000000
21.481119 -26.067949 -2.350163 6.000000
13.509051 13.561022 -1.843114 10.000000
14.455613 5.586655 -1.869926 7.000000
16.848747 -0.868262 -2.089447 6.000000
16.773645 -8.528170 -2.017616 6.000000
22.097773 -26.998199 -2.384584 5.000000
13.490314 13.443307 -1.853953 8.000000
14.577078 5.572276 -1.891275 7.000000
16.875179 -0.931651 -2.093134 6.000000
16.900633 -8.674562 -2.030175 6.000000
21.926044 -26.979992 -2.345722 9.000000
13.451005 13.296946 -1.857864 8.000000
14.655086 5.531850 -1.906696 8.000000
16.807447 -0.992659 -2.082207 6.000000
16.991037 -8.796033 -2.027825 9.000000
22.723921 -28.192255 -2.405080 3.000000
13.415763 13.174431 -1.863520 7.000000
14.654128 5.476039 -1.909740 8.000000
16.897793 -1.060158 -2.093867 6.000000
17.028900 -8.898710 -2.022843 9.000000
22.823933 -28.499117 -2.386728 2.000000
13.417521 13.084470 -1.877229 7.000000
14.719081 5.438913 -1.929493 7.000000
16.938719 -1.125068 -2.096427 6.000000
17.106762 -9.019373 -2.029181 9.000000
20.171835 -25.377649 -2.085016 19.000000
13.321238 12.895658 -1.873477 6.000000
14.647245 5.345641 -1.920010 6.000000
16.894674 -1.187317 -2.091525 8.000000
17.307220 -9.206287 -2.046571 8.000000
20.035412 -25.405678 -2.046963 37.000000
13.348817 12.827917 -1.893583 6.000000
14.696296 5.308383 -1.935197 6.000000
16.914589 -1.251034 -2.097549 10.000000
17.379789 -9.326774 -2.045261 9.000000
19.949289 -25.469725 -2.012769 50.000000
13.275785 12.664470 -1.892806 6.000000
14.678228 5.238232 -1.938441 6.000000
16.870081 -1.312892 -2.092639 6.000000
17.447025 -9.445380 -2.046734 10.000000
19.882988 -25.568432 -1.981025 34.000000
13.213766 12.517499 -1.896988 6.000000
14.668296 5.174157 -1.942883 6.000000
16.336308 -1.331608 -2.024115 6.000000
17.548868 -9.583853 -2.048682 26.000000
19.811722 -25.688925 -1.955768 9.000000
13.051863 12.273674 -1.883080 6.000000
14.592188 5.087250 -1.941277 6.000000
15.970378 -1.360721 -1.979380 8.000000
17.579599 -9.684454 -2.049320 9.000000
12.921093 12.061769 -1.873419 6.000000
14.610095 5.033512 -1.946671 6.000000
15.930779 -1.418982 -1.972299 8.000000
17.675678 -9.822000 -2.050440 11.000000
24.361225 -32.036636 -2.341767 1.000000
12.923414 11.975595 -1.889150 6.000000
14.515641 4.938700 -1.939701 6.000000
15.955292 -1.474511 -1.978768 9.000000
17.740305 -9.943185 -2.051393 9.000000
24.352972 -32.258873 -2.309317 1.000000
12.879786 11.851871 -1.892164 6.000000
14.500090 4.874186 -1.940648 6.000000
15.984358 -1.536303 -1.983057 9.000000
17.899078 -10.110322 -2.059122 10.000000
12.833591 11.722787 -1.897470 5.000000
14.424418 4.784389 -1.936020 6.000000
15.983062 -1.603774 -1.980866 7.000000
17.980618 -10.251804 -2.058626 12.000000
12.786877 11.594431 -1.899511 6.000000
14.449813 4.736888 -1.942592 6.000000
15.696645 -1.627628 -1.943231 38.000000
18.007853 -10.346612 -2.054680 25.000000
12.798251 11.519552 -1.913168 3.000000
14.437151 4.674206 -1.952034 6.000000
15.566970 -1.677370 -1.925222 10.000000
18.134979 -10.516708 -2.062901 28.000000
12.757371 11.398396 -1.918938 4.000000
14.368517 4.593870 -1.945818 6.000000
15.934903 -1.778938 -1.974396 8.000000
18.174871 -10.629050 -2.057017 10.000000
12.667707 11.235061 -1.914207 5.000000
14.403522 4.546941 -1.953649 6.000000
15.983148 -1.838006 -1.981118 8.000000
18.235312 -10.754284 -2.057115 46.000000
12.618052 11.108663 -1.915398 5.000000
14.329299 4.463079 -1.954560 6.000000
16.075207 -1.908316 -1.990514 6.000000
18.269722 -10.865026 -2.050496 10.000000
12.595652 11.011137 -1.920943 4.000000
14.321214 4.403045 -1.956562 6.000000
16.265139 -1.994226 -2.012063 6.000000
18.337713 -10.996641 -2.047571 20.000000
28.751879 -40.442875 -2.409536 1.000000
12.401566 10.761531 -1.905643 1.000000
14.279672 4.333052 -1.954002 6.000000
17.059900 -2.155167 -2.114388 6.000000
18.221228 -11.017788 -2.031559 49.000000
28.787390 -40.793610 -2.380759 1.000000
12.405543 10.685527 -1.917602 5.000000
14.214159 4.253638 -1.953324 6.000000
17.105999 -2.227754 -2.118089 6.000000
18.249630 -11.126511 -2.027966 107.000000
29.438122 -42.041996 -2.402414 7.000000
12.284833 10.503369 -1.907279 4.000000
14.243261 4.205529 -1.960467 6.000000
17.176788 -2.301027 -2.124814 7.000000
18.320492 -11.262028 -2.021480 105.000000
12.231120 10.380087 -1.907216 6.000000
14.190968 4.133603 -1.959045 5.000000
17.148207 -2.361210 -2.125401 6.000000
18.178431 -11.266712 -1.999051 40.000000
29.711132 -43.068741 -2.339359 1.000000
12.264009 10.330914 -1.920620 5.000000
14.195889 4.075969 -1.968042 6.000000
17.134466 -2.426392 -2.121772 6.000000
18.184635 -11.363022 -1.989200 22.000000
29.715042 -43.413975 -2.306179 1.000000
12.193357 10.195230 -1.923391 6.000000
14.243451 4.033175 -1.977833 6.000000
17.125092 -2.489124 -2.124792 6.000000
18.358292 -11.565309 -2.005181 117.000000
12.118587 10.057473 -1.919715 5.000000
14.119050 3.942110 -1.963748 6.000000
17.116219 -2.551928 -2.121772 6.000000
18.409426 -11.691994 -2.000079 34.000000
12.104275 9.970899 -1.925535 4.000000
14.127978 3.886189 -1.973314 6.000000
17.062508 -2.610931 -2.113283 6.000000
14.554769 -9.311743 -1.572475 16.000000
12.060619 9.864474 -1.929666 5.000000
14.146244 3.835497 -1.979097 6.000000
17.102221 -2.681194 -2.116338 7.000000
14.573318 -9.395464 -1.565808 10.000000
11.983672 9.728452 -1.925315 6.000000
14.059014 3.756584 -1.970127 6.000000
17.083206 -2.742403 -2.109085 6.000000
14.477953 -9.416470 -1.547456 6.000000
11.963590 9.639618 -1.932741 6.000000
14.062419 3.699702 -1.978937 5.000000
17.057493 -2.805501 -2.110287 7.000000
18.946318 -12.421751 -2.017947 9.000000
11.947159 9.554373 -1.937979 6.000000
14.036849 3.638018 -1.978605 6.000000
17.027155 -2.864646 -2.110877 7.000000
18.926182 -12.507974 -2.012690 9.000000
11.848155 9.404207 -1.935095 5.000000
14.024750 3.580078 -1.985331 6.000000
17.007124 -2.925414 -2.106652 6.000000
14.334312 -9.548958 -1.512935 6.000000
11.842258 9.328982 -1.941907 5.000000
13.936832 3.500690 -1.976079 6.000000
17.044643 -2.999296 -2.112710 6.000000
14.262872 -9.577027 -1.497004 32.000000
11.739279 9.184936 -1.930595 4.000000
13.967796 3.454093 -1.986337 6.000000
16.950855 -3.046886 -2.099405 6.000000
8.644512 -5.846176 -0.905671 34.000000
11.739933 9.116276 -1.941023 4.000000
13.893657 3.379202 -1.979021 6.000000
16.984959 -3.111195 -2.101836 7.000000
8.582385 -5.850118 -0.894097 37.000000
11.626637 8.960183 -1.929878 5.000000
13.851622 3.315254 -1.981424 5.000000
17.011915 -3.183693 -2.106669 6.000000
8.536633 -5.864872 -0.886101 64.000000
26.538742 -42.553455 -1.558529 23.000000
11.538550 8.818697 -1.927418 5.000000
13.847871 3.260741 -1.989290 5.000000
16.964512 -3.245360 -2.105454 6.000000
8.494982 -5.882205 -0.878560 33.000000
26.356564 -42.591728 -1.512801 27.000000
11.487701 8.719641 -1.924330 5.000000
13.894059 3.215360 -1.994137 5.000000
16.997864 -3.310208 -2.107877 6.000000
8.430197 -5.880987 -0.863137 36.000000
11.506094 8.667315 -1.937433 5.000000
13.779202 3.135616 -1.983534 5.000000
16.994764 -3.377385 -2.109086 6.000000
8.388452 -5.897690 -0.857466 39.000000
36.029770 -59.165478 -1.947060 3.000000
11.429006 8.543768 -1.934382 5.000000
13.780120 3.080222 -1.992002 5.000000
16.938850 -3.430857 -2.100632 6.000000
8.342751 -5.911370 -0.849612 38.000000
11.355165 8.423868 -1.931726 5.000000
13.799968 3.031595 -2.000797 5.000000
16.882412 -3.483890 -2.095202 6.000000
8.284891 -5.916102 -0.840556 55.000000
11.304278 8.322058 -1.935340 6.000000
13.732199 2.963989 -1.999388 5.000000
16.878626 -3.550731 -2.096409 6.000000
8.235076 -5.926224 -0.834134 36.000000
11.245901 8.215693 -1.927609 6.000000
13.665318 2.894683 -1.992992 4.000000
16.880415 -3.615766 -2.095206 6.000000
8.221954 -5.962644 -0.826091 30.000000
33.754005 -57.234383 -1.577497 9.000000
11.169782 8.097464 -1.926643 7.000000
13.645737 2.838317 -1.996053 4.000000
16.867050 -3.677611 -2.095206 6.000000
8.288917 -6.057688 -0.829633 14.000000
11.157550 8.026374 -1.934121 8.000000
13.645467 2.783643 -2.004359 5.000000
16.813684 -3.733662 -2.093393 9.000000
13.893387 -10.231864 -1.385232 5.000000
11.055752 7.891816 -1.930794 8.000000
13.507610 2.703991 -1.999822 5.000000
16.658066 -3.763224 -2.087821 14.000000
13.939643 -10.344945 -1.396664 4.000000
10.975919 7.837720 -1.933904 10.000000
13.334737 2.669384 -1.996044 5.000000
16.508636 -3.732494 -2.099161 15.000000
13.912449 -10.328530 -1.415429 4.000000
11.012220 7.924746 -1.938155 12.000000
13.334425 2.722615 -1.995121 5.000000
16.579971 -3.684800 -2.109511 6.000000
13.928951 -10.261805 -1.431511 6.000000
11.003956 7.980180 -1.934574 8.000000
13.260712 2.758232 -1.990421 5.000000
16.422180 -3.583617 -2.105544 7.000000
8.289615 -6.060418 -0.864092 33.000000
10.986038 8.031734 -1.929562 8.000000
13.221664 2.803117 -1.981342 5.000000
16.438614 -3.524133 -2.117903 6.000000
8.213335 -5.960769 -0.862887 19.000000
10.981256 8.090163 -1.926632 6.000000
13.268651 2.863936 -1.994783 5.000000
16.416353 -3.456476 -2.122313 7.000000
8.246269 -5.938649 -0.878347 7.000000
11.032117 8.190187 -1.931027 6.000000
13.253065 2.913875 -1.991688 5.000000
16.354595 -3.380920 -2.124559 6.000000
8.316112 -5.942781 -0.890650 32.000000
11.049600 8.260142 -1.929050 7.000000
13.194019 2.951631 -1.984427 5.000000
16.333067 -3.311127 -2.123051 7.000000
8.344163 -5.918935 -0.902232 38.000000
11.081887 8.350801 -1.932864 5.000000
13.201882 3.006664 -1.987331 5.000000
16.348501 -3.251919 -2.135321 6.000000
8.397605 -5.910698 -0.916500 33.000000
11.116385 8.446974 -1.934844 5.000000
13.196268 3.056304 -1.983329 5.000000
16.286928 -3.177660 -2.128687 7.000000
8.443049 -5.896528 -0.928154 37.000000
11.070956 8.476639 -1.919932 6.000000
13.223503 3.113722 -1.989124 5.000000
16.243427 -3.107415 -2.133235 6.000000
8.487331 -5.883483 -0.941662 36.000000
26.325596 -42.591511 -1.713509 27.000000
11.161541 8.604857 -1.930554 8.000000
13.173633 3.155415 -1.978601 5.000000
16.308487 -3.054996 -2.143167 6.000000
8.598546 -5.914038 -0.958937 37.000000
26.509470 -42.539577 -1.776629 24.000000
11.181851 8.686043 -1.929491 14.000000
13.190822 3.210698 -1.982937 5.000000
16.216051 -2.976202 -2.138349 7.000000
8.619189 -5.881817 -0.971686 42.000000
11.155165 8.731057 -1.917805 9.000000
13.197944 3.266161 -1.983454 5.000000
16.226114 -2.916615 -2.144104 6.000000
8.627760 -5.841433 -0.977570 36.000000
11.164124 8.810568 -1.912773 8.000000
13.181755 3.313474 -1.977988 5.000000
16.227058 -2.852508 -2.145690 6.000000
8.677468 -5.828819 -0.988137 36.000000
11.193829 8.894407 -1.915285 6.000000
13.193574 3.370358 -1.976835 29.000000
16.230433 -2.797648 -2.153668 6.000000
8.705179 -5.803439 -1.000035 11.000000
11.208884 8.973588 -1.910722 5.000000
13.075760 3.391362 -1.961032 40.000000
16.210505 -2.733072 -2.155517 6.000000
8.746415 -5.784737 -1.011565 1.000000
11.333279 9.144804 -1.930139 5.000000
13.039378 3.435416 -1.952734 50.000000
16.148062 -2.653029 -2.148623 6.000000
14.400793 -9.448763 -1.673642 9.000000
11.420229 9.284279 -1.937661 5.000000
13.022576 3.482081 -1.947312 36.000000
16.175234 -2.602436 -2.159805 7.000000
14.446362 -9.403100 -1.693144 10.000000
11.444960 9.374265 -1.934541 5.000000
12.990950 3.524694 -1.942103 42.000000
16.135323 -2.535381 -2.156121 6.000000
14.529892 -9.381833 -1.711085 11.000000
11.494562 9.488872 -1.933196 5.000000
13.006601 3.582615 -1.941678 39.000000
16.140528 -2.466965 -2.158316 6.000000
14.538034 -9.311768 -1.720184 6.000000
11.460255 9.524628 -1.922150 5.000000
13.013101 3.635771 -1.939811 27.000000
16.099224 -2.406045 -2.154605 7.000000
17.334087 -11.013283 -2.060713 7.000000
11.506840 9.641703 -1.923123 6.000000
13.003806 3.687061 -1.940521 29.000000
16.107260 -2.341182 -2.165968 6.000000
17.227520 -10.861350 -2.065068 7.000000
11.526950 9.727242 -1.924120 5.000000
12.990856 3.734885 -1.935803 32.000000
16.104397 -2.283393 -2.173166 6.000000
17.218981 -10.767973 -2.080788 9.000000
11.518949 9.792998 -1.915356 5.000000
12.982479 3.784048 -1.931792 28.000000
16.004276 -2.209390 -2.161419 6.000000
17.011951 -10.551969 -2.065206 9.000000
11.582206 9.920140 -1.918387 6.000000
12.978316 3.836962 -1.926120 35.000000
15.962777 -2.144069 -2.157600 6.000000
16.888319 -10.389763 -2.059551 10.000000
11.650208 10.049096 -1.921812 5.000000
13.006843 3.897291 -1.932461 24.000000
15.798527 -2.060282 -2.137145 10.000000
16.852888 -10.283010 -2.064553 6.000000
11.723177 10.187210 -1.926231 5.000000
12.997163 3.948840 -1.928423 9.000000
15.623703 -1.979274 -2.115298 8.000000
16.612701 -10.053085 -2.044307 8.000000
11.675567 10.221186 -1.913552 6.000000
13.054540 4.018595 -1.931813 5.000000
15.379256 -1.888335 -2.089465 9.000000
16.596436 -9.960321 -2.058296 8.000000
11.717441 10.333949 -1.912770 3.000000
13.210520 4.119678 -1.952190 5.000000
15.351270 -1.827811 -2.087486 6.000000
16.422253 -9.774095 -2.045731 6.000000
11.758900 10.447382 -1.909059 5.000000
13.233021 4.182515 -1.952933 5.000000
15.357866 -1.771533 -2.087486 8.000000
16.311174 -9.627199 -2.040860 6.000000
11.799442 10.561041 -1.907891 5.000000
13.147192 4.208449 -1.940073 5.000000
15.290327 -1.704277 -2.080136 6.000000
16.173515 -9.466192 -2.032517 6.000000
11.831696 10.668272 -1.908133 5.000000
13.263460 4.301883 -1.954690 5.000000
15.300311 -1.648637 -2.088863 7.000000
16.098783 -9.343404 -2.038532 6.000000
11.896647 10.806154 -1.910758 6.000000
13.276803 4.360056 -1.951538 5.000000
15.296033 -1.591485 -2.090202 8.000000
16.071684 -9.249095 -2.040621 6.000000
11.905810 10.894384 -1.904350 4.000000
13.256035 4.407126 -1.950847 5.000000
15.306597 -1.533198 -2.093561 8.000000
15.873274 -9.061300 -2.030775 6.000000
11.911077 10.979685 -1.894418 1.000000
13.268785 4.468018 -1.942778 5.000000
15.341702 -1.479940 -2.097606 9.000000
15.882570 -8.993246 -2.034385 6.000000
11.948391 11.095360 -1.892385 4.000000
13.233568 4.510230 -1.940030 5.000000
15.386373 -1.424642 -2.105697 9.000000
15.734671 -8.826275 -2.030016 6.000000
21.604433 -28.670050 -2.340347 3.000000
12.002919 11.228204 -1.895898 4.000000
13.245999 4.568723 -1.936817 5.000000
15.385455 -1.367702 -2.113110 10.000000
15.778701 -8.775099 -2.044298 6.000000
21.331871 -28.103701 -2.337287 2.000000
12.062961 11.363584 -1.891122 2.000000
13.290108 4.641113 -1.938347 5.000000
15.361481 -1.308841 -2.103662 9.000000
15.657549 -8.632738 -2.033971 6.000000
12.043807 11.429145 -1.882932 5.000000
13.287658 4.694969 -1.935473 5.000000
15.434420 -1.255381 -2.121234 6.000000
15.504759 -8.474544 -2.022571 6.000000
12.164639 11.628844 -1.893601 5.000000
13.308631 4.757319 -1.933516 5.000000
15.374343 -1.193789 -2.115104 7.000000
15.485806 -8.390617 -2.034762 6.000000
19.835421 -25.544041 -2.261505 37.000000
12.101897 11.645915 -1.877962 6.000000
13.365117 4.835467 -1.941879 6.000000
15.338161 -1.137130 -2.115038 6.000000
15.363864 -8.258758 -2.024385 6.000000
19.860428 -25.401907 -2.283017 31.000000
12.145864 11.782498 -1.871180 6.000000
13.315373 4.872735 -1.932191 5.000000
15.396948 -1.084761 -2.119837 6.000000
15.270061 -8.136336 -2.020325 6.000000
19.867016 -25.228346 -2.313070 23.000000
12.262492 11.979007 -1.877409 6.000000
13.368070 4.947652 -1.934855 6.000000
15.371343 -1.023658 -2.115755 6.000000
15.224190 -8.040393 -2.019482 6.000000
19.920635 -25.106571 -2.342322 11.000000
12.290526 12.094745 -1.873249 6.000000
13.345281 4.997562 -1.926721 5.000000
15.359390 -0.960948 -2.121772 6.000000
15.193488 -7.946341 -2.023298 6.000000
19.913225 -24.918095 -2.364793 9.000000
12.346357 12.239082 -1.870164 3.000000
13.411231 5.078384 -1.931272 6.000000
15.263603 -0.904152 -2.108114 6.000000
15.091000 -7.829116 -2.015207 6.000000
19.480661 -24.194447 -2.335587 9.000000
12.408339 12.391026 -1.867846 1.000000
13.402411 5.131289 -1.927597 6.000000
15.202597 -0.836650 -2.101894 6.000000
15.072474 -7.742874 -2.020564 6.000000
19.277431 -23.771692 -2.338866 2.000000
12.525007 12.599553 -1.879804 1.000000
13.439915 5.202208 -1.928039 6.000000
15.165716 -0.784185 -2.096424 6.000000
15.030141 -7.658239 -2.026405 6.000000
19.044306 -23.309067 -2.331908 8.000000
12.541486 12.704519 -1.873170 1.000000
13.447843 5.264738 -1.929496 7.000000
15.212407 -0.728043 -2.107894 6.000000
15.003671 -7.575613 -2.030983 7.000000
18.794596 -22.840250 -2.322719 8.000000
12.698092 12.957813 -1.884435 1.000000
13.430017 5.314609 -1.916893 8.000000
15.170808 -0.670331 -2.099074 6.000000
14.888334 -7.449024 -2.020506 6.000000
18.841368 -22.726801 -2.354482 8.000000
12.722113 13.068737 -1.878335 1.000000
13.466606 5.386259 -1.917193 8.000000
15.079135 -0.610913 -2.086066 6.000000
14.932055 -7.402594 -2.034551 6.000000
18.602772 -22.280254 -2.345525 7.000000
12.787249 13.236959 -1.875966 4.000000
13.433297 5.430132 -1.912698 8.000000
15.086512 -0.547924 -2.086751 6.000000
14.795848 -7.261224 -2.020764 6.000000
15.356141 -18.255396 -1.952871 4.000000
12.909971 13.452990 -1.880778 2.000000
13.367385 5.463295 -1.898594 7.000000
15.127482 -0.499187 -2.094869 6.000000
14.775208 -7.187207 -2.026150 6.000000
15.399115 -18.177298 -1.975372 1.000000
12.832753 13.480430 -1.864273 5.000000
13.366517 5.520201 -1.893629 6.000000
15.163209 -0.442087 -2.104963 6.000000
14.777502 -7.121463 -2.037406 6.000000
15.476994 -18.134047 -2.006153 4.000000
12.970505 13.715923 -1.870917 1.000000
13.301352 5.550442 -1.879591 7.000000
15.011248 -0.382597 -2.083659 6.000000
14.690603 -7.013354 -2.030523 6.000000
15.379699 -17.893181 -2.010319 6.000000
12.980370 13.832362 -1.859930 3.000000
13.158463 5.547530 -1.854656 8.000000
15.007655 -0.324848 -2.082972 6.000000
14.668013 -6.930407 -2.035042 6.000000
15.385095 -17.767303 -2.027292 6.000000
13.196819 14.156809 -1.880611 6.000000
13.032446 5.553433 -1.837373 6.000000
15.112731 -0.271709 -2.097404 6.000000
14.564161 -6.822352 -2.026038 6.000000
15.442342 -17.708128 -2.051467 7.000000
13.163297 14.225025 -1.859352 6.000000
12.885933 5.546894 -1.807124 5.000000
14.989824 -0.214545 -2.080223 6.000000
14.516109 -6.735074 -2.024418 6.000000
15.472844 -17.612370 -2.071670 6.000000
13.323464 14.499313 -1.871773 7.000000
12.768263 5.546500 -1.785781 7.000000
14.970729 -0.156779 -2.077474 6.000000
14.463112 -6.646173 -2.022084 6.000000
15.483278 -17.494507 -2.085016 7.000000
13.335288 14.619370 -1.860042 9.000000
12.669551 5.564182 -1.767721 7.000000
14.976155 -0.101941 -2.078161 6.000000
14.464663 -6.579735 -2.030028 6.000000
15.552729 -17.449867 -2.110828 9.000000
13.359556 14.754224 -1.853436 9.000000
12.637293 5.602716 -1.758582 7.000000
14.946359 -0.044347 -2.076647 6.000000
14.469624 -6.518090 -2.035804 7.000000
15.589073 -17.374306 -2.132576 9.000000
13.409563 14.913754 -1.839342 23.000000
12.638451 5.664044 -1.752069 6.000000
14.872498 0.005191 -2.063730 6.000000
14.431317 -6.443353 -2.035809 7.000000
15.697883 -17.367096 -2.163461 7.000000
11.739058 13.143264 -1.600668 6.000000
12.611393 5.702214 -1.743567 5.000000
14.882284 0.059742 -2.065104 6.000000
14.390365 -6.361914 -2.035104 7.000000
15.716918 -17.266613 -2.178316 7.000000
11.665114 13.157224 -1.584774 9.000000
12.656434 5.773206 -1.745033 5.000000
14.926517 0.117235 -2.071289 6.000000
14.395537 -6.298234 -2.040766 8.000000
15.627154 -17.042099 -2.181630 8.000000
11.639952 13.221530 -1.569021 6.000000
12.656514 5.834733 -1.740848 5.000000
14.881417 0.171429 -2.065104 6.000000
14.362949 -6.221356 -2.041234 7.000000
15.383989 -16.653963 -2.163103 8.000000
11.520385 13.182824 -1.540929 6.000000
12.730334 5.925436 -1.746510 5.000000
14.890553 0.228720 -2.066479 6.000000
14.329992 -6.144804 -2.041640 8.000000
15.375813 -16.528980 -2.181662 8.000000
11.465902 13.213283 -1.515189 5.000000
12.731041 5.985346 -1.739775 5.000000
14.894567 0.283390 -2.067166 6.000000
14.324055 -6.080200 -2.045893 7.000000
15.156211 -16.173634 -2.157697 8.000000
11.382321 13.214498 -1.498267 5.000000
12.671589 6.008784 -1.726909 5.000000
14.893429 0.337979 -2.067166 6.000000
14.303463 -6.009685 -2.053566 7.000000
15.056818 -15.955575 -2.166531 8.000000
11.270072 13.181577 -1.471548 1.000000
12.876163 6.169223 -1.753090 5.000000
14.851694 0.394093 -2.066854 6.000000
14.334592 -5.958111 -2.063007 7.000000
14.942492 -15.718606 -2.160889 8.000000
11.192737 13.184022 -1.449211 3.000000
12.986605 6.275174 -1.758175 7.000000
14.821526 0.447660 -2.054957 6.000000
14.351416 -5.903509 -2.065057 7.000000
14.847034 -15.503996 -2.161557 8.000000
11.065037 13.130849 -1.420792 1.000000
12.977728 6.329661 -1.752431 6.000000
14.899071 0.502063 -2.065938 6.000000
14.362103 -5.846450 -2.077271 7.000000
14.740646 -15.285728 -2.160753 8.000000
11.080844 13.243144 -1.410544 6.000000
13.026518 6.412666 -1.754467 6.000000
14.798146 0.552969 -2.052212 6.000000
14.267510 -5.747076 -2.068728 7.000000
14.632362 -15.062561 -2.155290 8.000000
10.969485 13.208118 -1.384423 6.000000
13.044034 6.480791 -1.749698 6.000000
14.840450 0.611621 -2.058389 6.000000
14.297671 -5.695516 -2.078119 8.000000
14.425003 -14.740618 -2.138602 8.000000
10.870624 13.182433 -1.353736 5.000000
13.058936 6.553689 -1.744864 6.000000
14.833286 0.670981 -2.055111 6.000000
14.244355 -5.613873 -2.070087 8.000000
14.407533 -14.615220 -2.149781 8.000000
10.769454 13.157701 -1.329217 6.000000
13.094380 6.628797 -1.744888 6.000000
14.786457 0.718005 -2.048941 6.000000
14.309985 -5.579230 -2.084828 8.000000
14.334527 -14.439992 -2.149306 7.000000
10.721041 13.192238 -1.313993 6.000000
13.064325 6.679600 -1.734054 7.000000
14.793570 0.780476 -2.047727 6.000000
14.236530 -5.490566 -2.082031 8.000000
14.229006 -14.219074 -2.146211 8.000000
10.592094 13.131616 -1.286308 6.000000
13.157669 6.782457 -1.741561 8.000000
14.805736 0.830361 -2.049781 6.000000
14.228717 -5.424883 -2.085948 8.000000
13.957213 -13.855274 -2.115633 8.000000
10.553262 13.177336 -1.269390 6.000000
13.138204 6.833488 -1.731807 8.000000
14.787605 0.886316 -2.047727 6.000000
14.205766 -5.356581 -2.087791 7.000000
13.882397 -13.680348 -2.117327 8.000000
10.434489 13.127354 -1.240281 6.000000
13.149051 6.900479 -1.728678 8.000000
14.725298 0.936759 -2.036936 6.000000
14.187833 -5.290506 -2.084984 7.000000
13.839932 -13.543603 -2.120727 8.000000
10.392488 13.168622 -1.223083 6.000000
13.102786 6.937568 -1.715437 8.000000
14.791133 0.997985 -2.043921 6.000000
14.225262 -5.242335 -2.098297 7.000000
10.355702 13.211864 -1.206232 6.000000
13.056419 6.974407 -1.702230 6.000000
14.757731 1.050081 -2.039824 6.000000
14.132354 -5.149343 -2.084470 6.000000
10.250681 13.181813 -1.179381 6.000000
13.101519 7.060341 -1.703577 6.000000
14.813413 1.108626 -2.045426 6.000000
14.178060 -5.107211 -2.096479 6.000000
11.816010 -11.311368 -1.834779 37.000000
10.187065 13.194795 -1.159812 6.000000
12.677003 6.897381 -1.641758 6.000000
14.828798 1.167052 -2.048154 6.000000
14.112898 -5.022602 -2.089307 6.000000
11.819742 -11.232210 -1.849128 35.000000
10.087792 13.165688 -1.136544 5.000000
12.659418 6.942320 -1.632244 4.000000
14.824779 1.221424 -2.045558 6.000000
13.923967 -4.897941 -2.071799 7.000000
11.861075 -11.192956 -1.866770 17.000000
10.009266 13.158086 -1.115472 5.000000
14.775918 1.274537 -2.036839 6.000000
13.913765 -4.837118 -2.067629 9.000000
12.031568 -11.270764 -1.898750 7.000000
9.939209 13.156303 -1.095176 6.000000
12.314850 6.871258 -1.576822 5.000000
14.761280 1.327797 -2.035479 6.000000
13.935891 -4.784913 -2.076039 9.000000
9.841427 13.131400 -1.072690 6.000000
14.761600 1.382386 -2.033571 6.000000
13.947271 -4.731746 -2.085624 10.000000
13.268260 -12.239312 -2.117340 7.000000
9.775455 13.138692 -1.050401 6.000000
14.850212 1.448226 -2.043876 6.000000
13.944708 -4.673954 -2.090521 9.000000
13.168292 -12.066517 -2.110793 7.000000
9.727989 13.175455 -1.030392 6.000000
14.707157 1.488712 -2.022296 6.000000
13.938362 -4.612371 -2.092128 10.000000
13.107951 -11.923137 -2.112919 7.000000
9.688472 13.218246 -1.013859 6.000000
14.735819 1.548797 -2.027040 6.000000
13.991768 -4.573215 -2.105479 9.000000
13.011811 -11.752949 -2.106316 7.000000
9.580589 13.162380 -0.990019 6.000000
11.998691 6.986208 -1.498518 5.000000
14.720545 1.601762 -2.023101 6.000000
13.947201 -4.502135 -2.096275 9.000000
12.986902 -11.644300 -2.110804 6.000000
9.498541 13.155527 -0.966857 6.000000
11.952019 7.017817 -1.490998 5.000000
14.680465 1.651867 -2.015784 6.000000
13.981850 -4.454113 -2.109352 10.000000
12.913179 -11.493101 -2.107270 7.000000
9.432792 13.161020 -0.947819 6.000000
11.841549 7.011445 -1.470695 5.000000
14.767861 1.719149 -2.026033 6.000000
13.987584 -4.399535 -2.115607 31.000000
12.812233 -11.319370 -2.102183 6.000000
9.349237 13.136225 -0.924031 5.000000
11.800011 7.045388 -1.454178 4.000000
14.762513 1.773390 -2.018248 6.000000
13.998889 -4.346771 -2.114893 33.000000
12.770727 -11.199627 -2.097653 7.000000
9.326834 13.202053 -0.912214 2.000000
11.843139 7.130149 -1.452946 36.000000
14.682128 1.815746 -2.010742 6.000000
13.989615 -4.290408 -2.116431 19.000000
12.667540 -11.027260 -2.094886 7.000000
9.226952 13.157892 -0.884423 5.000000
11.600988 7.042423 -1.416817 40.000000
14.744571 1.883592 -2.012387 6.000000
13.996190 -4.231030 -2.122655 11.000000
12.594148 -10.882489 -2.087941 7.000000
9.131917 13.134214 -0.860759 5.000000
11.618358 7.111373 -1.412499 59.000000
14.757567 1.940250 -2.012472 6.000000
14.049555 -4.188354 -2.133520 8.000000
12.598675 -10.806002 -2.096825 7.000000
9.080849 13.158526 -0.843480 5.000000
11.589234 7.152070 -1.397723 83.000000
14.755266 1.997613 -2.010544 6.000000
14.106815 -4.149187 -2.145133 5.000000
12.489507 -10.633162 -2.086700 6.000000
9.051252 13.204185 -0.827769 4.000000
11.592920 7.213150 -1.396530 39.000000
14.841442 2.064701 -2.020641 6.000000
14.045185 -4.075188 -2.138690 5.000000
12.455028 -10.525314 -2.088942 5.000000
8.995012 13.225826 -0.804663 4.000000
11.605562 7.280156 -1.386763 45.000000
14.902429 2.131545 -2.027368 6.000000
14.084154 -4.027927 -2.144864 6.000000
12.400935 -10.401933 -2.087820 7.000000
8.926829 13.224607 -0.788729 5.000000
11.583822 7.325819 -1.377698 36.000000
14.821322 2.175408 -2.014744 6.000000
14.064050 -3.966472 -2.149996 5.000000
12.319446 -10.256891 -2.081981 7.000000
8.853419 13.215097 -0.764052 1.000000
11.605141 7.396138 -1.373592 9.000000
14.854275 2.230589 -2.012211 6.000000
14.082576 -3.918682 -2.150723 6.000000
12.321437 -10.182317 -2.087345 5.000000
8.824714 13.277235 -0.749036 2.000000
11.633177 7.474102 -1.370395 1.000000
14.816560 2.283134 -2.005611 6.000000
14.000713 -3.840669 -2.141235 5.000000
8.751309 13.267018 -0.727273 1.000000
14.813679 2.338306 -2.001039 6.000000
14.034398 -3.789399 -2.149227 9.000000
8.421905 -6.856508 -1.439392 32.000000
8.699886 13.289756 -0.710182 1.000000
14.509210 9.472876 -1.689846 6.000000
14.883637 2.405292 -2.008988 6.000000
14.076797 -3.742915 -2.158700 8.000000
8.399935 -6.787581 -1.439048 163.000000
8.776370 13.509263 -0.700551 1.000000
14.487844 9.534844 -1.679194 6.000000
14.762172 2.443862 -1.991187 6.000000
14.026213 -3.679708 -2.154233 7.000000
8.396711 -6.734256 -1.443819 137.000000
14.354718 9.522814 -1.649591 6.000000
14.846996 2.513847 -1.995834 6.000000
14.051082 -3.623393 -2.155702 9.000000
8.405238 -6.690620 -1.446785 89.000000
14.411940 9.637029 -1.644948 6.000000
14.809064 2.563293 -1.986647 6.000000
14.119803 -3.591220 -2.169604 7.000000
8.393721 -6.631340 -1.450115 61.000000
14.379162 9.687917 -1.632844 6.000000
14.911716 2.640073 -1.999074 6.000000
14.132752 -3.536793 -2.174690 7.000000
8.385382 -6.574979 -1.457761 94.000000
14.357319 9.749900 -1.616077 6.000000
14.907162 2.695654 -1.997084 6.000000
14.116076 -3.477692 -2.175336 7.000000
8.408820 -6.543731 -1.463340 100.000000
9.203573 14.728796 -0.648993 1.000000
14.326524 9.805903 -1.604421 5.000000
14.903425 2.751426 -1.987158 6.000000
14.114537 -3.419882 -2.175651 9.000000
8.408214 -6.493918 -1.468530 89.000000
9.152571 14.767341 -0.627954 1.000000
14.353114 9.901550 -1.596107 5.000000
14.902153 2.810404 -1.991105 6.000000
14.131046 -3.369097 -2.181463 7.000000
8.407354 -6.444199 -1.473667 35.000000
11.307992 18.388069 -0.753829 6.000000
14.305371 9.946196 -1.582576 5.000000
14.946668 2.875569 -1.987639 5.000000
14.129436 -3.311428 -2.179235 9.000000
11.212908 18.376902 -0.729192 7.000000
14.239061 9.974002 -1.563787 7.000000
14.941234 2.931354 -1.985629 6.000000
14.098509 -3.244532 -2.177603 7.000000
8.274687 -6.246753 -1.458952 24.000000
14.081680 9.940896 -1.532299 33.000000
15.052092 3.013169 -1.996435 6.000000
14.157225 -3.206050 -2.190112 7.000000
8.185770 -6.132656 -1.446584 49.000000
14.050076 9.995946 -1.520704 84.000000
15.007959 3.061588 -1.983901 6.000000
14.149205 -3.149760 -2.189658 7.000000
8.200499 -6.094669 -1.452317 57.000000
24.846718 41.713856 -1.457986 6.000000
14.051277 10.074571 -1.503535 106.000000
14.997313 3.116715 -1.978554 6.000000
14.112357 -3.087314 -2.182190 19.000000
8.202046 -6.049280 -1.455915 52.000000
24.839018 42.033970 -1.414962 6.000000
14.041103 10.141673 -1.494043 87.000000
15.116559 3.202095 -1.993152 6.000000
13.954191 -2.996614 -2.161034 124.000000
8.231327 -6.024421 -1.464450 30.000000
14.198223 10.334556 -1.499343 6.000000
15.056923 3.247171 -1.981379 6.000000
13.921178 -2.936190 -2.156780 128.000000
11.659749 -8.468195 -2.081707 8.000000
25.227690 43.380337 -1.322841 3.000000
14.173561 10.396289 -1.482213 6.000000
15.089865 3.312201 -1.976335 6.000000
13.898461 -2.875703 -2.151534 109.000000
11.620990 -8.375157 -2.082056 6.000000
25.449169 44.114811 -1.271364 7.000000
14.216535 10.508167 -1.475189 6.000000
15.140886 3.381614 -1.981875 6.000000
13.883950 -2.819675 -2.152733 69.000000
8.463372 -6.052480 -1.517905 9.000000
14.224965 10.591381 -1.461191 4.000000
15.071095 3.426835 -1.963482 5.000000
13.899892 -2.767382 -2.151010 61.000000
8.485900 -6.019477 -1.523353 7.000000
29.938980 52.744995 -1.365742 39.000000
14.318609 10.742903 -1.459119 1.000000
15.181817 3.504999 -1.968358 6.000000
13.948014 -2.723854 -2.161973 72.000000
8.551311 -6.018886 -1.540447 1.000000
29.674658 52.707043 -1.277573 192.000000
18.252811 13.789475 -1.840565 4.000000
15.251304 3.579969 -1.976277 5.000000
13.915044 -2.661988 -2.152733 36.000000
8.564542 -5.981376 -1.544460 22.000000
29.527893 52.877277 -1.194596 1.000000
18.510813 14.096355 -1.843418 5.000000
15.292500 3.648829 -1.972186 6.000000
13.983009 -2.621902 -2.161746 40.000000
8.603043 -5.959251 -1.552865 39.000000
29.336651 52.968315 -1.109758 1.000000
18.726566 14.359016 -1.844771 6.000000
15.356857 3.726565 -1.971112 6.000000
14.003070 -2.570044 -2.160764 36.000000
8.489657 -5.834780 -1.534041 75.000000
29.223179 52.763439 -1.063344 1.000000
19.098305 14.638762 -1.860014 6.000000
15.460775 3.748925 -1.967449 6.000000
14.121627 -2.591804 -2.166241 40.000000
8.505020 -5.849711 -1.527980 16.000000
18.905323 14.381151 -1.844414 6.000000
15.524016 3.704069 -1.962445 4.000000
14.172208 -2.654817 -2.162611 80.000000
8.574716 -5.944059 -1.529520 68.000000
29.698809 52.706894 -1.193314 158.000000
18.595097 14.037869 -1.821390 2.000000
15.629251 3.665807 -1.979642 6.000000
14.143960 -2.705781 -2.149591 124.000000
8.517242 -5.950555 -1.515740 1.000000
29.924738 52.698479 -1.248271 91.000000
14.267608 10.692966 -1.403241 1.000000
15.560380 3.589536 -1.969239 6.000000
14.198153 -2.770129 -2.151614 128.000000
8.509236 -5.991491 -1.503376 4.000000
14.081946 10.473437 -1.393525 1.000000
15.646360 3.549023 -1.975618 6.000000
14.270979 -2.841264 -2.156501 135.000000
8.459821 -6.003197 -1.491130 5.000000
25.503119 44.190506 -1.166753 4.000000
14.119255 10.421028 -1.408839 6.000000
15.552640 3.465029 -1.967737 6.000000
14.319376 -2.905503 -2.160196 105.000000
8.487130 -6.069469 -1.490562 5.000000
25.216806 43.344215 -1.190510 6.000000
14.136655 10.354047 -1.416014 7.000000
15.603341 3.416345 -1.978215 6.000000
14.357289 -2.970638 -2.162392 116.000000
11.855737 -8.544337 -2.072051 8.000000
14.076958 10.231262 -1.418498 125.000000
15.586989 3.352945 -1.971745 6.000000
14.428960 -3.040659 -2.172220 13.000000
11.837526 -8.597310 -2.063943 28.000000
24.875963 42.062954 -1.279660 6.000000
14.065256 10.144182 -1.422703 206.000000
15.676753 3.309326 -1.987157 6.000000
14.621805 -3.139982 -2.192385 8.000000
8.231407 -6.024480 -1.428142 54.000000
24.840231 41.669872 -1.321170 5.000000
14.059051 10.065292 -1.433705 177.000000
15.663804 3.246669 -1.989664 6.000000
14.639570 -3.199973 -2.194121 8.000000
8.210271 -6.055346 -1.419240 54.000000
14.067004 9.993204 -1.436836 164.000000
15.622454 3.178424 -1.980093 6.000000
14.576108 -3.242123 -2.175729 8.000000
8.189211 -6.086280 -1.408556 40.000000
24.576897 40.565300 -1.391107 4.000000
14.062394 9.919928 -1.448120 164.000000
15.647371 3.126653 -1.987512 6.000000
14.583224 -3.302523 -2.176003 8.000000
8.163863 -6.114019 -1.398972 35.000000
11.230998 18.392109 -0.654649 8.000000
14.068607 9.839972 -1.456752 8.000000
15.674745 3.066740 -1.986578 6.000000
14.620721 -3.367397 -2.172729 8.000000
8.201689 -6.189397 -1.400197 4.000000
11.302498 18.364763 -0.685214 6.000000
14.123992 9.801814 -1.473869 6.000000
15.644485 3.006990 -1.992763 6.000000
14.612501 -3.424641 -2.173446 8.000000
24.813381 40.004295 -1.536961 14.000000
14.196589 9.782603 -1.490177 6.000000
15.646506 2.945126 -1.988743 6.000000
14.663908 -3.493436 -2.172239 7.000000
24.929678 39.864853 -1.592611 11.000000
14.155260 9.674175 -1.490973 6.000000
15.647760 2.880371 -1.993058 5.000000
14.674804 -3.555631 -2.173169 9.000000
8.473378 -6.541887 -1.430237 5.000000
9.348854 14.834243 -0.609251 1.000000
14.198003 9.627233 -1.503816 6.000000
15.628273 2.823235 -1.986557 6.000000
14.610276 -3.596740 -2.154830 7.000000
8.407291 -6.540186 -1.413659 39.000000
9.322426 14.678465 -0.628496 1.000000
14.179398 9.546132 -1.510510 6.000000
15.608660 2.757846 -1.991133 5.000000
14.645012 -3.662273 -2.161918 7.000000
8.380330 -6.568657 -1.403710 62.000000
14.216502 9.488399 -1.525426 5.000000
15.589334 2.695548 -1.987394 6.000000
14.694667 -3.734700 -2.160548 7.000000
8.384583 -6.621745 -1.397097 40.000000
14.338326 9.501131 -1.547213 1.000000
15.681918 2.652398 -2.000764 6.000000
14.648057 -3.780063 -2.150331 8.000000
8.403887 -6.687149 -1.394856 5.000000
9.082170 13.969296 -0.654657 1.000000
14.330987 9.420862 -1.548720 13.000000
15.598649 2.576746 -1.991666 6.000000
14.480924 -3.796298 -2.122589 5.000000
8.461516 -6.783804 -1.398916 1.000000
9.034674 13.790663 -0.665052 1.000000
14.351771 9.359371 -1.562324 1.000000
15.657307 2.527518 -1.995148 6.000000
14.482693 -3.853547 -2.114232 6.000000
9.103973 13.785950 -0.686647 1.000000
14.301450 9.252023 -1.565135 1.000000
15.616086 2.462171 -1.999944 6.000000
14.497151 -3.914346 -2.118423 5.000000
8.440372 -6.869093 -1.384403 4.000000
9.035408 13.578805 -0.695007 1.000000
11.648485 7.475324 -1.281536 47.000000
15.606159 2.399229 -1.994678 6.000000
14.521640 -3.980844 -2.113499 6.000000
8.303549 -6.803639 -1.354232 66.000000
8.932130 13.322526 -0.700309 1.000000
11.602364 7.388674 -1.283302 50.000000
15.624313 2.343433 -1.998689 6.000000
14.512432 -4.035566 -2.108936 6.000000
12.889797 -10.640651 -2.093736 7.000000
8.930140 13.214587 -0.713086 5.000000
11.616170 7.337764 -1.289103 39.000000
15.661901 2.290408 -2.005217 6.000000
14.554727 -4.107600 -2.111977 6.000000
12.943720 -10.772824 -2.094578 7.000000
9.076915 13.331235 -0.740830 4.000000
11.608284 7.273396 -1.297321 34.000000
15.719340 2.237194 -2.014272 6.000000
14.568848 -4.169296 -2.110836 9.000000
12.951175 -10.859624 -2.087235 7.000000
9.105998 13.274110 -0.756311 4.000000
11.617375 7.219932 -1.302598 36.000000
15.633737 2.166579 -2.005071 6.000000
14.526340 -4.214794 -2.096138 9.000000
12.977154 -10.954904 -2.082220 7.000000
9.173939 13.268632 -0.777662 4.000000
11.604462 7.153079 -1.312608 37.000000
15.670718 2.113194 -2.011611 6.000000
14.557563 -4.284523 -2.103002 7.000000
13.078085 -11.130323 -2.090357 7.000000
9.228291 13.248145 -0.795292 6.000000
11.625570 7.107423 -1.321641 17.000000
15.712794 2.057470 -2.018794 6.000000
14.561448 -4.343724 -2.100443 9.000000
13.276193 -11.375054 -2.112558 7.000000
9.286029 13.237223 -0.813456 6.000000
11.608198 7.038485 -1.326292 18.000000
15.709340 2.004053 -2.020295 6.000000
14.566632 -4.397926 -2.097870 8.000000
13.378609 -11.548105 -2.119929 6.000000
9.356389 13.229185 -0.835011 6.000000
11.667636 7.016167 -1.334934 10.000000
15.766470 1.944260 -2.029394 6.000000
14.559300 -4.462342 -2.085948 8.000000
13.404976 -11.665095 -2.112636 7.000000
9.410690 13.207924 -0.852766 6.000000
11.733374 6.991718 -1.348861 8.000000
15.709122 1.878761 -2.023919 6.000000
14.590853 -4.530580 -2.087401 7.000000
13.494195 -11.829926 -2.117637 7.000000
9.430009 13.137756 -0.867339 6.000000
11.798507 6.977618 -1.363345 9.000000
15.681066 1.817135 -2.022233 6.000000
14.570117 -4.582760 -2.081393 6.000000
13.517763 -11.934294 -2.108716 7.000000
9.550803 13.203619 -0.888255 6.000000
11.921884 6.991731 -1.384376 5.000000
15.707993 1.759158 -2.022016 6.000000
14.652929 -4.670711 -2.084834 6.000000
13.650003 -12.140359 -2.116883 7.000000
9.604914 13.181288 -0.911844 5.000000
16.388645 9.530762 -1.915701 3.000000
15.713279 1.701459 -2.030292 6.000000
14.702071 -4.745806 -2.091541 6.000000
13.695025 -12.270596 -2.121068 7.000000
9.673273 13.173384 -0.930913 6.000000
16.370884 9.440309 -1.919564 5.000000
15.685236 1.640282 -2.023080 6.000000
14.760628 -4.824517 -2.096853 6.000000
13.721938 -12.385678 -2.109372 6.000000
9.718711 13.138880 -0.945175 6.000000
16.382910 9.367398 -1.926919 3.000000
15.755212 1.586466 -2.034114 6.000000
14.804189 -4.901751 -2.097386 6.000000
13.839541 -12.584186 -2.117992 6.000000
9.819899 13.174405 -0.967579 6.000000
15.721432 1.524880 -2.029018 6.000000
14.810310 -4.964085 -2.095266 8.000000
14.007467 -12.830982 -2.130729 3.000000
9.895077 13.179004 -0.990654 6.000000
15.800630 1.474125 -2.041343 6.000000
14.784012 -5.015618 -2.083038 9.000000
14.074920 -12.987962 -2.131294 8.000000
9.928347 13.127627 -1.006690 6.000000
15.760871 1.414939 -2.038364 6.000000
14.840675 -5.098468 -2.085402 7.000000
14.169195 -13.166829 -2.135430 8.000000
10.013508 13.149368 -1.028273 6.000000
12.696486 7.014621 -1.522016 6.000000
15.819944 1.361811 -2.048162 6.000000
14.850665 -5.162832 -2.083867 7.000000
11.941956 -11.171175 -1.788006 39.000000
10.093423 13.149253 -1.054523 6.000000
12.660354 6.934214 -1.522269 6.000000
15.855163 1.297960 -2.052000 6.000000
14.883422 -5.235441 -2.088340 8.000000
11.861983 -11.185987 -1.768344 37.000000
10.160931 13.146708 -1.068663 6.000000
12.732813 6.913353 -1.538153 10.000000
15.784868 1.239524 -2.045168 6.000000
14.892598 -5.303016 -2.081240 8.000000
11.804305 -11.205783 -1.750906 19.000000
10.227520 13.137828 -1.088345 6.000000
13.225550 7.118248 -1.605119 8.000000
15.809086 1.183142 -2.047730 6.000000
14.902069 -5.368013 -2.076863 8.000000
11.792874 -11.285277 -1.738627 7.000000
10.346997 13.181795 -1.118920 4.000000
13.149924 7.015508 -1.600703 8.000000
15.852725 1.125214 -2.055629 6.000000
14.905926 -5.431206 -2.077344 8.000000
10.418796 13.187752 -1.133984 5.000000
13.148190 6.952797 -1.607883 8.000000
15.900911 1.070076 -2.064182 6.000000
14.901233 -5.491446 -2.068205 7.000000
14.690285 -14.260756 -2.137425 10.000000
10.534410 13.234085 -1.165008 6.000000
13.154978 6.894806 -1.616103 26.000000
15.860366 1.006187 -2.058402 6.000000
14.922188 -5.564340 -2.071237 6.000000
14.884329 -14.555469 -2.158715 9.000000
10.542334 13.149574 -1.178536 6.000000
13.179407 6.846154 -1.623879 8.000000
15.823991 0.945661 -2.056031 6.000000
14.969968 -5.638772 -2.069097 6.000000
14.993273 -14.759590 -2.163046 8.000000
10.653955 13.180039 -1.199952 6.000000
13.238750 6.815481 -1.638622 6.000000
15.827351 0.887657 -2.056031 6.000000
14.920423 -5.688605 -2.056889 6.000000
15.073206 -14.957894 -2.160753 8.000000
10.735426 13.195815 -1.222358 6.000000
13.488646 6.881707 -1.674445 6.000000
15.845497 0.827654 -2.057960 6.000000
14.967272 -5.763388 -2.057434 6.000000
15.150941 -15.129802 -2.156047 8.000000
10.804892 13.182211 -1.245691 6.000000
14.071512 7.114198 -1.754695 6.000000
15.798540 0.767150 -2.054290 6.000000
15.008023 -5.851384 -2.063529 6.000000
15.270227 -15.371840 -2.162688 8.000000
10.872225 13.170319 -1.266127 6.000000
13.945617 6.986490 -1.744060 6.000000
15.830965 0.710574 -2.058154 6.000000
15.057364 -5.934289 -2.058936 6.000000
15.421232 -15.638072 -2.172822 8.000000
10.951450 13.167687 -1.287760 5.000000
13.818720 6.859672 -1.735941 6.000000
15.828264 0.649564 -2.060274 6.000000
15.022688 -5.984328 -2.048576 6.000000
15.508121 -15.841901 -2.169790 8.000000
11.052300 13.185633 -1.311776 1.000000
13.851320 6.812692 -1.750530 6.000000
15.874412 0.593186 -2.071623 6.000000
15.051601 -6.059862 -2.052657 6.000000
15.662441 -16.111666 -2.175483 8.000000
11.217394 13.292807 -1.341399 3.000000
13.823232 6.733083 -1.749136 6.000000
15.921893 0.533748 -2.071882 6.000000
15.050062 -6.120378 -2.043825 6.000000
15.845610 -16.408607 -2.184362 8.000000
11.172273 13.145960 -1.351713 1.000000
13.802251 6.660385 -1.751509 6.000000
15.918786 0.475239 -2.071237 6.000000
15.092761 -6.202305 -2.044019 6.000000
16.020643 -16.712011 -2.200611 7.000000
11.303735 13.202278 -1.380068 2.000000
13.758515 6.577219 -1.750978 6.000000
15.870495 0.415584 -2.067559 6.000000
15.087054 -6.270868 -2.037950 6.000000
16.054005 -16.876051 -2.189468 8.000000
11.369676 13.176544 -1.400273 9.000000
13.709597 6.492210 -1.752443 6.000000
15.881887 0.354864 -2.068851 6.000000
15.115274 -6.347668 -2.036174 6.000000
16.171616 -17.124937 -2.185026 7.000000
11.454825 13.186563 -1.423778 6.000000
13.687501 6.420435 -1.754621 6.000000
15.902909 0.297022 -2.071434 6.000000
15.148824 -6.424055 -2.034954 6.000000
16.054720 -17.114489 -2.156235 7.000000
11.554764 13.203549 -1.445590 6.000000
13.647052 6.340541 -1.754430 6.000000
15.928721 0.236325 -2.074662 6.000000
15.139837 -6.485815 -2.028171 6.000000
16.023567 -17.201220 -2.135279 5.000000
11.582964 13.142919 -1.467999 6.000000
13.664291 6.287762 -1.766978 6.000000
15.938606 0.183608 -2.081518 6.000000
15.175498 -6.567024 -2.033229 6.000000
15.954909 -17.253881 -2.113868 6.000000
11.710884 13.181016 -1.492989 3.000000
13.640936 6.216532 -1.771611 6.000000
16.023499 0.120257 -2.092524 6.000000
15.295486 -6.691973 -2.044015 6.000000
15.826408 -17.253349 -2.081288 7.000000
11.777926 13.172894 -1.511785 1.000000
13.580252 6.131719 -1.768850 6.000000
15.954410 0.064045 -2.083460 6.000000
15.274188 -6.743090 -2.035273 6.000000
15.857228 -17.396343 -2.071815 7.000000
13.529267 6.049100 -1.767179 6.000000
15.939664 0.000000 -2.081518 6.000000
15.325347 -6.839315 -2.033842 6.000000
15.728580 -17.394953 -2.039367 8.000000
12.258905 13.519690 -1.599878 4.000000
13.541421 5.995078 -1.773749 6.000000
15.894592 -0.052709 -2.078465 6.000000
15.342759 -6.911409 -2.033382 6.000000
15.606238 -17.387333 -2.007105 9.000000
14.010914 15.343908 -1.843456 6.000000
13.371493 5.861327 -1.756420 7.000000
15.993830 -0.108868 -2.088639 6.000000
15.393031 -6.995550 -2.034127 6.000000
15.628452 -17.510201 -1.995611 9.000000
13.849970 15.056454 -1.836601 6.000000
13.355614 5.796103 -1.759266 6.000000
15.914002 -0.166657 -2.078280 6.000000
15.458498 -7.093777 -2.037166 6.000000
15.482943 -17.475685 -1.960572 7.000000
13.707443 14.792331 -1.831790 6.000000
13.211741 5.676212 -1.745202 6.000000
16.027224 -0.232190 -2.093172 6.000000
15.503249 -7.189792 -2.034750 6.000000
15.535720 -17.677715 -1.951408 7.000000
13.611827 14.586685 -1.829753 8.000000
13.232595 5.625082 -1.752730 7.000000
16.021358 -0.288045 -2.092524 6.000000
15.552245 -7.275276 -2.035218 6.000000
15.448442 -17.690174 -1.926782 6.000000
13.530889 14.393823 -1.832632 8.000000
13.233979 5.568489 -1.757828 7.000000
15.990333 -0.351702 -2.088639 6.000000
15.587045 -7.367962 -2.031422 6.000000
15.362520 -17.734980 -1.896073 6.000000
13.510345 14.266825 -1.843511 9.000000
13.374619 5.575535 -1.786880 8.000000
16.013058 -0.408130 -2.097468 6.000000
15.660798 -7.469818 -2.035209 6.000000
15.359747 -17.851049 -1.886479 5.000000
13.452454 14.106734 -1.846043 13.000000
13.533658 5.578171 -1.812903 9.000000
16.071657 -0.468573 -2.099646 6.000000
15.692445 -7.555637 -2.033663 6.000000
15.386250 -18.008617 -1.868322 5.000000
13.419742 13.969555 -1.858397 10.000000
13.672583 5.576894 -1.836613 7.000000
16.059002 -0.532732 -2.103960 6.000000
15.711752 -7.642776 -2.033943 7.000000
15.427681 -18.204575 -1.861260 6.000000
13.378595 13.834599 -1.859895 27.000000
13.783681 5.566170 -1.851550 7.000000
16.082918 -0.589734 -2.098779 6.000000
15.772635 -7.737177 -2.029597 6.000000
15.426456 -18.319508 -1.838611 4.000000
13.378158 13.728268 -1.872756 26.000000
13.928814 5.559852 -1.881325 6.000000
16.079914 -0.648647 -2.104397 6.000000
15.802992 -7.824058 -2.027824 6.000000
19.978497 -23.919456 -2.365218 7.000000
13.346600 13.595831 -1.884851 6.000000
14.035849 5.543022 -1.901051 8.000000
16.052540 -0.709290 -2.101156 6.000000
15.899263 -7.944411 -2.037614 6.000000
20.073330 -24.187029 -2.357844 9.000000
13.328478 13.478196 -1.895350 6.000000
14.115205 5.514644 -1.917110 8.000000
16.169052 -0.773827 -2.113890 6.000000
15.870988 -8.003111 -2.028308 6.000000
20.155357 -24.485210 -2.340045 11.000000
13.188228 13.243587 -1.885295 6.000000
14.064672 5.435568 -1.918224 8.000000
16.091839 -0.829257 -2.104178 6.000000
15.952087 -8.120981 -2.029984 6.000000
20.565826 -25.144432 -2.368360 12.000000
13.216814 13.184559 -1.899580 1.000000
14.101149 5.393167 -1.928653 7.000000
16.108337 -0.892136 -2.106768 6.000000
15.993868 -8.216203 -2.029584 6.000000
20.572779 -25.341898 -2.339754 12.000000
13.126800 12.990051 -1.898674 3.000000
14.103183 5.329149 -1.934013 6.000000
16.184517 -0.955868 -2.114297 6.000000
16.048717 -8.318865 -2.027620 6.000000
20.429918 -25.364334 -2.300287 12.000000
12.963343 12.734594 -1.890707 1.000000
14.093799 5.266652 -1.938075 6.000000
16.130508 -1.014846 -2.113473 6.000000
16.137945 -8.440300 -2.033133 6.000000
20.335197 -25.437017 -2.265832 12.000000
12.916698 12.609281 -1.894041 4.000000
