VERSION .7
FIELDS x y z intensity
SIZE 4 4 4 4
TYPE F F F F
COUNT 1 1 1 1
WIDTH 1224
HEIGHT 1
VIEWPOINT 0 0 0 1 0 0 0
POINTS 1224
DATA ascii
78.706230 -12.973286 13.119744 6.000000
21.190662 -14.068382 4.169778 10.000000
8.988845 -14.082526 2.267755 9.000000
51.860462 41.786373 5.288349 25.000000
78.563332 -12.668203 13.074209 5.000000
21.505177 -14.169284 4.208062 12.000000
9.019804 -14.017478 2.250738 13.000000
51.741074 42.003864 5.303543 20.000000
21.925827 -14.331469 4.270679 9.000000
9.040349 -13.947549 2.229544 11.000000
51.634769 42.232475 5.343627 9.000000
22.296408 -14.462864 4.318717 10.000000
9.062148 -13.864251 2.210004 9.000000
51.689476 42.579220 5.388165 15.000000
22.650652 -14.574978 4.357657 9.000000
9.083961 -13.787018 2.188323 8.000000
51.546230 42.779312 5.424843 9.000000
23.061754 -14.725932 4.407231 9.000000
9.129789 -13.746644 2.175489 7.000000
51.960373 43.445614 5.520848 4.000000
23.548119 -14.903767 4.473739 8.000000
9.136829 -13.648433 2.153567 7.000000
23.962437 -15.054931 4.532810 9.000000
9.154965 -13.572794 2.132130 8.000000
51.367065 43.593273 5.550802 25.000000
24.369486 -15.192286 4.579189 9.000000
9.220055 -13.571993 2.128060 7.000000
51.690384 44.178974 5.626268 12.000000
24.868038 -15.376806 4.646552 8.000000
9.222454 -13.458975 2.098756 7.000000
51.635376 44.460491 5.673903 13.000000
70.930672 -9.124180 11.570111 1.000000
25.290545 -15.516287 4.694113 7.000000
9.273293 -13.437386 2.091483 7.000000
51.561657 44.727150 5.695775 6.000000
71.138153 -8.860725 11.598060 1.000000
25.812752 -15.706743 4.769510 9.000000
9.308862 -13.378744 2.073449 9.000000
51.446136 44.958450 5.761220 13.000000
71.407753 -8.666579 11.624634 1.000000
26.307854 -15.876174 4.833719 8.000000
9.296866 -13.267443 2.052347 8.000000
51.369659 45.208832 5.794350 13.000000
26.916971 -16.115856 4.912828 7.000000
9.328176 -13.199063 2.033216 7.000000
51.193886 45.388187 5.829330 14.000000
70.757919 -8.074356 11.470886 1.000000
27.363873 -16.247478 4.972113 7.000000
9.384222 -13.185379 2.024414 7.000000
51.233734 45.759998 5.877080 16.000000
70.685768 -7.778808 11.428572 1.000000
27.912201 -16.441544 5.043912 7.000000
9.406677 -13.110080 2.006944 7.000000
51.089294 45.968727 5.916049 10.000000
71.502167 -7.641377 11.543754 1.000000
28.519871 -16.658991 5.130846 7.000000
9.439496 -13.064139 1.990411 7.000000
50.971199 46.169250 5.956348 17.000000
71.603348 -7.386856 11.555641 1.000000
29.083864 -16.852545 5.209680 8.000000
9.485209 -13.026563 1.978549 7.000000
50.830265 46.365627 5.982952 20.000000
71.502983 -7.124343 11.522495 1.000000
29.705591 -17.067678 5.285316 8.000000
9.421931 -12.840491 1.947055 7.000000
50.168449 46.132252 5.962760 25.000000
30.337158 -17.282963 5.367665 8.000000
9.454261 -12.781366 1.932316 8.000000
50.667160 46.901882 6.076916 14.000000
70.045006 -6.460890 11.241837 1.000000
30.635578 -17.311607 5.397168 19.000000
9.470911 -12.715462 1.913051 8.000000
50.449646 47.045055 6.095735 9.000000
70.159561 -6.224548 11.231453 1.000000
30.771097 -17.239698 5.384674 25.000000
9.494411 -12.649964 1.897218 8.000000
49.867363 46.828571 6.105260 1.000000
30.902861 -17.186186 5.398257 17.000000
9.520545 -12.588416 1.882031 12.000000
49.690994 47.006870 6.116754 13.000000
31.083139 -17.123440 5.392348 22.000000
9.598121 -12.599335 1.880250 7.000000
49.713543 47.374668 6.189191 1.000000
31.239277 -17.060509 5.389485 10.000000
9.696432 -12.632071 1.879153 7.000000
49.642193 47.655071 6.226228 1.000000
70.115387 -5.210473 11.198712 1.000000
31.404625 -17.008762 5.394983 16.000000
9.767970 -12.629164 1.869909 6.000000
49.440601 47.827686 6.284457 1.000000
71.027496 -5.016559 11.328638 6.000000
31.581671 -16.955240 5.401889 28.000000
9.756120 -12.514255 1.847199 7.000000
49.359417 48.067032 6.306490 13.000000
71.261360 -4.783146 11.363205 3.000000
31.731276 -16.893137 5.391695 13.000000
9.785895 -12.466967 1.836588 7.000000
20.873941 20.476990 2.697152 5.000000
87.897141 32.985844 13.010609 28.000000
71.553421 -4.539374 11.381389 12.000000
31.895233 -16.830681 5.396165 19.000000
9.813828 -12.408641 1.822091 7.000000
20.758789 20.513870 2.707382 10.000000
87.536415 33.199528 13.007599 33.000000
71.440666 -4.281897 11.361007 1.000000
32.072304 -16.774124 5.402768 20.000000
9.835266 -12.342500 1.806497 9.000000
87.266167 33.463402 12.985580 22.000000
71.275429 -4.009873 11.319543 1.000000
32.206974 -16.701641 5.402654 15.000000
9.851286 -12.274447 1.787645 7.000000
86.666466 33.580906 12.930241 23.000000
71.288994 -3.761051 11.319543 1.000000
32.389252 -16.645815 5.403471 13.000000
9.868484 -12.203975 1.777088 9.000000
86.245529 33.816620 12.920551 27.000000
71.326958 -3.500949 11.323459 1.000000
32.564262 -16.592319 5.403416 10.000000
9.912091 -12.157757 1.762275 7.000000
32.775822 -16.549080 5.421871 16.000000
9.925823 -12.083895 1.745776 8.000000
32.870602 -16.446022 5.401325 20.000000
9.935821 -12.018884 1.732618 9.000000
33.111206 -16.422142 5.418230 16.000000
9.854302 -11.823305 1.699236 8.000000
84.223412 34.388088 12.769259 23.000000
33.278164 -16.367672 5.423416 25.000000
9.814347 -11.696282 1.674860 8.000000
33.382500 -16.260101 5.416966 10.000000
9.844878 -11.645717 1.664695 18.000000
83.056000 34.623909 12.694473 17.000000
33.567139 -16.212536 5.424886 23.000000
9.863851 -11.585888 1.647619 19.000000
25.672432 27.271519 3.685606 9.000000
82.629395 34.785122 12.679670 9.000000
33.763123 -16.140366 5.432705 15.000000
9.877496 -11.516133 1.637478 15.000000
25.448683 27.233139 3.687495 9.000000
82.020958 34.883430 12.621707 15.000000
33.930008 -16.074881 5.423734 16.000000
9.905250 -11.455116 1.618402 10.000000
81.812119 35.166176 12.657820 32.000000
34.046932 -15.977744 5.433028 24.000000
9.947723 -11.419373 1.610472 10.000000
81.946869 35.546509 12.680929 32.000000
34.232433 -15.926492 5.433991 17.000000
9.928381 -11.325135 1.593598 25.000000
22.959692 25.108845 3.419992 8.000000
82.044945 35.929852 12.747335 21.000000
34.443401 -15.864050 5.444260 21.000000
9.974498 -11.286020 1.583084 28.000000
82.134979 36.328632 12.813910 30.000000
34.624626 -15.793950 5.450161 14.000000
9.996687 -11.227924 1.569453 26.000000
82.318039 36.770924 12.895525 29.000000
34.852680 -15.751237 5.463746 21.000000
9.994579 -11.150881 1.555382 21.000000
82.396568 37.116947 12.958221 25.000000
34.977779 -15.682963 5.462386 10.000000
10.040100 -11.131111 1.549083 24.000000
23.871670 26.840096 3.699300 9.000000
82.494606 37.525429 13.027470 31.000000
35.167976 -15.613684 5.469411 20.000000
10.068174 -11.080310 1.536576 21.000000
23.753006 26.923546 3.710296 9.000000
82.498055 37.875111 13.048813 28.000000
39.926830 -17.543278 6.167939 11.000000
10.073155 -10.996772 1.517437 19.000000
23.795835 27.153065 3.762877 9.000000
82.543449 38.262875 13.142923 15.000000
39.897560 -17.372799 6.162231 9.000000
10.096437 -10.949069 1.510213 14.000000
23.744877 27.286489 3.795387 10.000000
90.909607 42.546478 14.499751 1.000000
40.526691 -17.470324 6.233756 8.000000
10.128361 -10.907046 1.501411 11.000000
23.981504 27.782841 3.870434 5.000000
91.006523 42.979729 14.574916 22.000000
10.118001 -10.816115 1.483544 10.000000
23.893927 27.887371 3.898695 9.000000
91.321533 43.538574 14.722942 12.000000
40.358215 -17.056280 6.157714 8.000000
10.151284 -10.772281 1.474798 23.000000
23.776220 27.946846 3.908336 9.000000
91.026314 43.788441 14.699901 16.000000
38.377735 -16.061625 5.832140 14.000000
10.181303 -10.725105 1.460406 22.000000
23.643141 27.977879 3.927555 9.000000
91.136528 44.253521 14.779909 17.000000
38.373238 -15.894715 5.815173 17.000000
10.183066 -10.648525 1.449858 22.000000
90.884682 44.543617 14.801527 30.000000
38.639301 -15.839254 5.831794 25.000000
10.203441 -10.595539 1.439708 24.000000
17.779305 21.354536 3.013732 7.000000
90.932426 44.961353 14.870940 32.000000
30.718033 -12.467055 4.606055 7.000000
10.243077 -10.558967 1.426871 23.000000
17.646303 21.345882 3.023364 7.000000
90.926155 45.373745 14.933248 22.000000
30.616459 -12.295325 4.584036 10.000000
10.237182 -10.475789 1.410370 22.000000
25.426668 30.988001 4.397053 10.000000
91.067421 45.841980 15.018998 23.000000
37.038597 -14.724474 5.530768 25.000000
10.268870 -10.431454 1.404302 19.000000
25.307840 31.074745 4.424488 10.000000
91.024063 46.239086 15.094317 23.000000
37.035984 -14.566464 5.494052 34.000000
10.305909 -10.396239 1.394083 11.000000
25.163708 31.130096 4.447495 17.000000
91.236603 46.768532 15.194459 21.000000
37.077061 -14.425930 5.478114 35.000000
10.320007 -10.334426 1.380569 12.000000
24.951277 31.088646 4.443190 8.000000
91.384735 47.248005 15.246503 11.000000
37.414677 -14.407121 5.513402 14.000000
10.457179 -10.395308 1.386024 9.000000
91.771881 47.875256 15.377193 27.000000
37.367184 -14.231789 5.484459 24.000000
10.584311 -10.444839 1.389936 9.000000
91.997314 48.402126 15.517364 21.000000
10.706389 -10.491795 1.395872 9.000000
22.534645 28.718847 4.152715 22.000000
10.792036 -10.498463 1.388760 9.000000
22.527565 28.917101 4.189428 8.000000
10.945401 -10.569852 1.398145 13.000000
24.461369 31.637899 4.598876 10.000000
39.884819 -14.540543 5.785097 8.000000
11.045701 -10.588746 1.397911 9.000000
39.938797 -14.394603 5.777688 8.000000
11.200573 -10.658709 1.401674 10.000000
39.909176 -14.218867 5.750763 27.000000
11.332347 -10.708978 1.405247 9.000000
24.094250 31.869869 4.672162 10.000000
11.448330 -10.739422 1.406453 8.000000
24.076641 32.090401 4.719916 9.000000
41.739403 -14.535199 5.975784 13.000000
11.582915 -10.786135 1.409768 12.000000
23.843863 32.012310 4.724415 10.000000
41.657505 -14.335698 5.948666 24.000000
11.729155 -10.842319 1.411482 12.000000
20.073816 27.157932 4.021025 13.000000
41.549759 -14.136600 5.910599 30.000000
11.861104 -10.883944 1.414056 11.000000
18.712818 25.511726 3.789509 9.000000
12.010025 -10.943619 1.418674 10.000000
18.640997 25.610104 3.816381 9.000000
12.154042 -10.993585 1.422271 9.000000
22.035946 30.497461 4.553186 9.000000
40.169197 -13.183658 5.663533 8.000000
12.294885 -11.039318 1.425292 10.000000
40.384132 -13.090437 5.671950 9.000000
12.462450 -11.107539 1.428247 17.000000
17.774460 24.983381 3.753841 9.000000
36.588539 -11.719125 5.126257 5.000000
12.623038 -11.167921 1.433061 10.000000
21.492989 30.434412 4.587981 9.000000
36.995964 -11.700287 5.170404 3.000000
12.750549 -11.197690 1.433919 9.000000
21.436405 30.591627 4.626282 9.000000
37.054512 -11.569579 5.158835 6.000000
12.914045 -11.261671 1.438841 10.000000
19.560537 28.133444 4.267959 7.000000
37.185520 -11.468184 5.164559 6.000000
13.098961 -11.338675 1.445668 9.000000
19.130821 27.721352 4.219167 8.000000
37.582932 -11.440066 5.213895 5.000000
13.257971 -11.391582 1.452456 10.000000
19.019012 27.776567 4.240806 20.000000
37.642494 -11.314777 5.209667 5.000000
13.425329 -11.450114 1.456881 7.000000
18.860075 27.762180 4.245881 17.000000
13.564668 -11.487403 1.458271 8.000000
17.896252 26.542276 4.072441 15.000000
13.744594 -11.553538 1.463587 9.000000
40.373997 -11.668624 5.540340 31.000000
13.913714 -11.608936 1.467505 8.000000
40.400368 -11.508348 5.530395 37.000000
14.110299 -11.685504 1.474056 10.000000
17.828512 27.058905 4.197085 8.000000
23.798542 15.260802 4.518197 3.000000
40.886883 -11.500484 5.591742 8.000000
14.311289 -11.763795 1.484030 9.000000
17.588530 26.898577 4.185484 9.000000
23.285042 15.052242 4.441078 5.000000
14.509388 -11.837785 1.490196 7.000000
17.415380 26.848101 4.190392 9.000000
23.300726 15.177965 4.469083 6.000000
14.686785 -11.897368 1.494182 10.000000
17.280403 26.855093 4.204248 11.000000
23.268393 15.278665 4.483560 7.000000
40.868149 -11.019422 5.550001 6.000000
14.866865 -11.953266 1.497985 9.000000
16.245584 25.441628 4.000866 10.000000
23.269274 15.395757 4.519042 5.000000
76.537743 -20.350815 10.384314 9.000000
15.070731 -12.026501 1.507304 18.000000
16.228016 25.620653 4.035798 8.000000
76.703392 -20.094143 10.354499 6.000000
15.283566 -12.104921 1.510449 10.000000
16.794250 26.730854 4.223385 20.000000
76.965500 -19.861643 10.365874 3.000000
15.485222 -12.172544 1.515584 11.000000
16.683155 26.760946 4.246929 24.000000
76.630997 -19.461794 10.324717 5.000000
15.692892 -12.247404 1.528221 16.000000
16.776226 27.131239 4.318583 9.000000
76.920006 -19.235361 10.340013 10.000000
15.911730 -12.324621 1.534523 22.000000
16.726498 27.273788 4.359921 17.000000
22.877970 15.735355 4.566917 7.000000
76.994560 -18.968681 10.355146 6.000000
16.150904 -12.415432 1.546038 20.000000
16.691805 27.431622 4.392937 10.000000
22.855978 15.843942 4.579074 8.000000
75.665009 -18.375202 10.126619 1.000000
16.371357 -12.489705 1.551905 25.000000
16.563570 27.446913 4.414137 20.000000
22.825558 15.941103 4.609059 9.000000
75.765610 -18.105820 10.131134 1.000000
16.604507 -12.571563 1.558661 22.000000
16.529150 27.618195 4.466260 11.000000
22.764341 16.022802 4.628494 13.000000
75.837669 -17.815496 10.145375 1.000000
16.807934 -12.633521 1.569917 23.000000
16.593033 27.956964 4.534315 8.000000
22.706291 16.100761 4.643070 9.000000
75.970512 -17.581078 10.141451 1.000000
16.574129 28.148520 4.579223 8.000000
22.689945 16.214476 4.661854 15.000000
76.065178 -17.309509 10.131705 1.000000
16.504183 28.266171 4.611793 8.000000
22.648386 16.310507 4.680590 10.000000
17.695314 -12.998501 1.604675 9.000000
16.475750 28.456490 4.656375 8.000000
22.629236 16.416979 4.703498 6.000000
17.807541 -12.980721 1.606660 32.000000
16.376755 28.514589 4.685773 8.000000
77.492378 -16.768602 10.283370 8.000000
18.154686 -13.132145 1.621833 15.000000
14.678484 25.775919 4.247992 7.000000
22.486691 16.560452 4.733473 4.000000
77.415756 -16.455227 10.279176 4.000000
18.362679 -13.185207 1.632326 22.000000
14.881365 26.356361 4.361593 8.000000
77.686020 -16.215305 10.293017 8.000000
18.467443 -13.167837 1.633769 27.000000
14.725162 26.304436 4.365524 8.000000
22.394543 16.741070 4.774321 3.000000
18.533066 -13.102728 1.622963 27.000000
14.352431 25.849894 4.313364 7.000000
22.349379 16.835350 4.802949 7.000000
77.811127 -15.661212 10.322653 4.000000
18.752678 -13.155169 1.633943 28.000000
22.285517 16.915628 4.817599 9.000000
77.964371 -15.409081 10.321679 10.000000
19.096201 -13.291986 1.647374 35.000000
13.734825 25.170542 4.234216 7.000000
22.237972 17.002213 4.850309 7.000000
76.908730 -14.907757 10.188525 1.000000
19.901861 -13.749890 1.708483 17.000000
13.581888 25.108702 4.240870 7.000000
22.297691 17.177734 4.897277 2.000000
76.813797 -14.611337 10.210767 1.000000
13.561300 25.070641 4.259867 9.000000
22.355358 17.222160 4.945471 1.000000
76.916588 -14.630890 10.335637 1.000000
20.153189 -13.830197 1.752045 9.000000
13.744521 25.198771 4.274400 7.000000
22.275190 17.036831 4.909506 4.000000
19.913387 -13.762988 1.752143 10.000000
22.291086 16.919857 4.894275 7.000000
77.926430 -15.415714 10.556773 18.000000
19.046982 -13.277476 1.696881 33.000000
14.483706 26.107800 4.408785 8.000000
22.358561 16.848385 4.891111 8.000000
77.935616 -15.714578 10.579872 14.000000
18.783512 -13.191481 1.689583 21.000000
14.788163 26.427801 4.455746 8.000000
22.331152 16.705835 4.867313 9.000000
77.571075 -15.937163 10.580445 24.000000
18.568977 -13.147568 1.690785 28.000000
14.873648 26.342695 4.434811 8.000000
22.451509 16.655731 4.863852 7.000000
77.727821 -16.252346 10.651821 10.000000
18.487228 -13.191682 1.703677 29.000000
14.639092 25.727625 4.323582 7.000000
22.452856 16.547625 4.847842 6.000000
77.727097 -16.549765 10.688204 15.000000
18.417301 -13.243924 1.721603 30.000000
16.347862 28.498823 4.775424 8.000000
22.525963 16.474442 4.845540 5.000000
77.596291 -16.819445 10.692732 11.000000
18.124187 -13.129367 1.706335 23.000000
16.391920 28.334505 4.734592 8.000000
22.617962 16.420853 4.832871 3.000000
77.544968 -17.091936 10.707926 10.000000
17.813492 -13.004114 1.693175 26.000000
16.529329 28.331944 4.726723 8.000000
22.670685 16.332575 4.826290 13.000000
77.374786 -17.352039 10.735415 8.000000
17.684444 -13.009533 1.700848 10.000000
16.649288 28.287457 4.712390 8.000000
22.702526 16.223465 4.809742 9.000000
77.608337 -17.703419 10.790897 4.000000
17.623909 -13.064824 1.711177 7.000000
16.658829 28.090160 4.665432 8.000000
22.737476 16.134806 4.795763 21.000000
77.270813 -17.924623 10.767129 9.000000
17.419991 -13.003388 1.707007 5.000000
16.646280 27.846987 4.617333 10.000000
22.754057 16.027443 4.782430 9.000000
77.428917 -18.246353 10.840390 2.000000
16.809175 -12.652829 1.666896 25.000000
16.568439 27.487505 4.544909 21.000000
22.786419 15.925607 4.761948 10.000000
16.607542 -12.587545 1.662011 25.000000
16.629574 27.361603 4.511339 20.000000
22.810839 15.824442 4.745503 9.000000
77.039108 -18.751623 10.832963 6.000000
16.381950 -12.520416 1.655316 24.000000
16.724035 27.301844 4.488290 17.000000
22.878851 15.747726 4.732646 12.000000
77.030182 -19.034510 10.883308 14.000000
16.141943 -12.421995 1.649530 17.000000
16.801394 27.203777 4.470883 9.000000
22.938433 15.671015 4.728638 6.000000
76.914818 -19.305397 10.891034 9.000000
15.937713 -12.367014 1.644352 26.000000
16.717323 26.857504 4.401022 8.000000
77.120094 -19.657665 10.944384 5.000000
15.695309 -12.271344 1.634474 18.000000
16.769892 26.723135 4.366596 27.000000
76.778763 -19.856339 10.933921 9.000000
15.503282 -12.199880 1.628859 17.000000
16.948389 26.788994 4.370564 8.000000
40.843388 -10.722682 5.844521 5.000000
15.289349 -12.131227 1.625205 10.000000
16.156643 25.341324 4.122177 22.000000
23.441227 15.527181 4.745596 5.000000
40.798038 -10.870770 5.851205 15.000000
15.041743 -12.024869 1.613713 13.000000
17.217936 26.788826 4.345225 9.000000
23.302263 15.312550 4.691055 7.000000
40.799965 -11.031597 5.864758 24.000000
14.845874 -11.949193 1.606991 9.000000
17.299109 26.709675 4.325183 17.000000
23.385170 15.250416 4.691989 7.000000
40.882423 -11.207175 5.904823 8.000000
14.692246 -11.923042 1.612160 17.000000
17.438755 26.710217 4.318583 9.000000
23.400879 15.138707 4.673975 7.000000
40.921181 -11.379219 5.923963 8.000000
14.458812 -11.821762 1.601140 7.000000
17.641710 26.805927 4.321671 24.000000
23.546934 15.116864 4.677517 1.000000
40.797184 -11.505996 5.919620 8.000000
14.284224 -11.766633 1.593079 8.000000
40.220558 -11.495084 5.864070 21.000000
14.109601 -11.709857 1.594501 8.000000
19.204815 28.731180 4.611119 7.000000
40.021210 -11.596946 5.841164 20.000000
13.925225 -11.635039 1.581208 8.000000
17.855024 26.501083 4.240977 9.000000
13.751871 -11.576049 1.582138 10.000000
18.859478 27.782160 4.432643 8.000000
13.596775 -11.526824 1.578320 9.000000
19.029671 27.812954 4.430703 9.000000
37.635979 -11.348639 5.552617 15.000000
13.398327 -11.451344 1.569908 9.000000
19.168119 27.816919 4.423444 9.000000
37.562935 -11.476974 5.568987 10.000000
13.231304 -11.384736 1.563966 8.000000
19.341612 27.839300 4.414711 8.000000
37.233234 -11.518490 5.532972 5.000000
13.075579 -11.342409 1.563110 10.000000
21.404884 30.569342 4.833551 9.000000
37.024513 -11.602779 5.515148 6.000000
12.868323 -11.245545 1.552272 12.000000
36.640205 -11.629996 5.477904 8.000000
12.775845 -11.243623 1.557822 9.000000
17.856365 25.117062 3.953276 8.000000
36.556065 -11.743906 5.478258 12.000000
12.599817 -11.170921 1.550231 13.000000
17.837219 24.914764 3.908982 9.000000
40.215229 -13.082242 6.048826 8.000000
12.436008 -11.099562 1.540465 9.000000
21.983456 30.469604 4.779786 9.000000
39.773407 -13.092216 5.996665 8.000000
12.275974 -11.037828 1.537267 12.000000
18.854748 25.922781 4.055111 9.000000
39.611469 -13.200022 5.986941 8.000000
12.171953 -11.032983 1.538452 10.000000
18.624872 25.429031 3.976335 25.000000
39.615124 -13.362758 6.024646 8.000000
11.983599 -10.942530 1.531133 11.000000
20.060514 27.179613 4.231596 8.000000
41.583553 -14.172397 6.322918 8.000000
11.849807 -10.888824 1.524070 10.000000
21.566153 29.007105 4.502183 8.000000
41.858925 -14.454056 6.405119 8.000000
11.728342 -10.864367 1.528122 13.000000
21.552219 28.767553 4.451752 8.000000
41.701839 -14.571101 6.397083 10.000000
11.567968 -10.794857 1.517945 10.000000
21.717255 28.746632 4.436433 9.000000
11.444343 -10.758235 1.515187 9.000000
21.815397 28.667929 4.423247 9.000000
39.967258 -14.286746 6.169214 37.000000
11.306500 -10.706988 1.513096 10.000000
24.315044 31.733829 4.880379 10.000000
39.991695 -14.461005 6.196285 3.000000
11.171247 -10.653116 1.508122 9.000000
39.577503 -14.467646 6.147409 8.000000
11.038066 -10.603630 1.506168 14.000000
24.623804 31.653458 4.845929 10.000000
10.934197 -10.581182 1.505321 9.000000
22.541769 28.748585 4.388556 10.000000
10.780769 -10.509498 1.497452 15.000000
22.678392 28.726131 4.377146 9.000000
91.707817 48.290695 16.434322 6.000000
37.673950 -14.220772 5.910440 9.000000
10.681272 -10.489129 1.496879 10.000000
91.237144 47.657085 16.321566 27.000000
37.618679 -14.357654 5.931524 9.000000
10.564496 -10.443497 1.493215 9.000000
91.306091 47.247742 16.264540 26.000000
37.570568 -14.504808 5.947040 10.000000
10.424896 -10.384944 1.489486 12.000000
91.076263 46.746574 16.159267 30.000000
37.356354 -14.564633 5.920745 8.000000
10.340673 -10.369592 1.490105 20.000000
91.029266 46.281708 16.064482 31.000000
37.460327 -14.778678 5.968126 10.000000
10.287553 -10.399482 1.501352 24.000000
25.219568 30.790356 4.640266 10.000000
91.048882 45.872490 16.001699 25.000000
36.965527 -14.732794 5.911649 8.000000
10.252484 -10.440292 1.506971 25.000000
17.658779 21.398972 3.215037 7.000000
90.978310 45.419605 15.923565 27.000000
30.667648 -12.353192 4.911679 10.000000
10.253621 -10.514617 1.520295 25.000000
17.706409 21.297203 3.194780 7.000000
90.937622 45.003433 15.852566 28.000000
30.617373 -12.457333 4.928252 7.000000
10.224464 -10.561890 1.534668 26.000000
90.847389 44.584347 15.774792 33.000000
10.178857 -10.584790 1.535674 22.000000
90.918549 44.226143 15.724098 29.000000
40.990765 -17.012466 6.640694 8.000000
10.170153 -10.653619 1.550637 22.000000
23.872498 28.089800 4.180538 9.000000
91.271919 43.985081 15.721005 1.000000
41.024754 -17.194689 6.671759 8.000000
10.167911 -10.729734 1.566716 25.000000
24.035351 28.072262 4.164880 9.000000
91.285858 43.580242 15.659631 1.000000
40.792988 -17.273598 6.644318 8.000000
10.126613 -10.761143 1.571347 12.000000
24.136255 27.981859 4.144972 9.000000
91.059853 43.043797 15.556394 35.000000
40.366013 -17.267548 6.616382 9.000000
10.113114 -10.833609 1.586453 17.000000
24.261747 27.929630 4.123604 4.000000
91.025002 42.619854 15.487730 31.000000
40.255566 -17.386782 6.608186 8.000000
10.106374 -10.906252 1.602155 21.000000
23.936907 27.371813 4.033669 9.000000
39.758965 -17.345478 6.552545 22.000000
10.069582 -10.939087 1.609940 22.000000
39.871471 -17.560482 6.604483 19.000000
10.053754 -11.006408 1.622052 23.000000
24.018091 27.061739 3.969069 9.000000
35.211361 -15.662381 5.855793 9.000000
10.056707 -11.083226 1.636379 20.000000
24.037512 26.875051 3.929723 9.000000
35.034714 -15.730527 5.835513 16.000000
10.014693 -11.126348 1.647373 21.000000
23.715311 26.357016 3.857985 9.000000
34.790466 -15.759697 5.823965 23.000000
9.993342 -11.176946 1.663193 22.000000
23.663767 26.106653 3.802899 9.000000
34.699158 -15.871864 5.832008 18.000000
9.977791 -11.230358 1.669122 23.000000
22.925930 25.107096 3.651503 9.000000
34.435276 -15.896748 5.810497 22.000000
9.939076 -11.269704 1.680165 10.000000
22.835358 24.815872 3.598060 10.000000
81.797798 35.498814 13.501408 23.000000
34.330875 -16.016047 5.803683 23.000000
9.922425 -11.342281 1.695687 22.000000
22.950672 24.758455 3.589989 9.000000
81.713654 35.157650 13.469221 32.000000
34.112930 -16.052326 5.802747 22.000000
9.912779 -11.415414 1.709194 16.000000
81.848663 34.860771 13.454442 23.000000
33.943260 -16.117447 5.796848 21.000000
9.889264 -11.460867 1.719367 21.000000
82.302170 34.715023 13.477096 19.000000
33.723545 -16.164852 5.769403 14.000000
9.875492 -11.530077 1.735044 20.000000
25.601433 27.034925 3.880532 9.000000
82.793419 34.565342 13.472647 15.000000
33.544991 -16.223505 5.761827 26.000000
9.867969 -11.607131 1.749267 12.000000
25.668684 26.898314 3.855364 19.000000
33.399132 -16.304279 5.760284 18.000000
9.809727 -11.628813 1.757607 8.000000
25.686775 26.739174 3.825120 9.000000
83.992546 34.362259 13.578831 13.000000
33.211666 -16.356569 5.750999 22.000000
9.814076 -11.720865 1.776887 9.000000
84.282738 34.120903 13.572988 21.000000
33.078907 -16.442106 5.751614 19.000000
9.838270 -11.829234 1.793804 7.000000
32.870907 -16.489237 5.739066 13.000000
9.926624 -12.024844 1.831730 7.000000
32.701160 -16.547211 5.732584 22.000000
9.916493 -12.102654 1.846340 7.000000
69.334740 -3.427426 11.679110 1.000000
32.528530 -16.609886 5.726017 14.000000
9.867105 -12.128489 1.856084 7.000000
86.493019 33.583168 13.734246 33.000000
69.529152 -3.680375 11.713950 1.000000
32.358791 -16.665873 5.719363 21.000000
9.865845 -12.218146 1.869818 7.000000
69.731804 -3.947449 11.750450 1.000000
32.208069 -16.737890 5.716511 16.000000
9.854329 -12.295815 1.887322 6.000000
20.792498 20.568710 2.893486 7.000000
32.051437 -16.798847 5.712029 10.000000
9.816915 -12.337133 1.896767 7.000000
20.861698 20.493578 2.877682 7.000000
71.662308 -4.571399 12.068075 5.000000
31.918915 -16.878803 5.705859 22.000000
9.829261 -12.446002 1.919186 7.000000
49.235950 48.013809 6.730975 21.000000
69.771507 -4.695377 11.752348 1.000000
31.744747 -16.928762 5.698125 16.000000
9.773771 -12.469433 1.925680 6.000000
49.485630 47.904690 6.704654 1.000000
70.004669 -4.968876 11.794611 1.000000
31.545921 -16.971527 5.686383 21.000000
9.753741 -12.533745 1.941594 6.000000
69.861931 -5.203898 11.786121 1.000000
31.407980 -17.046043 5.685530 20.000000
9.758892 -12.635645 1.957482 6.000000
69.632896 -5.419090 11.750450 1.000000
31.259914 -17.107214 5.682257 13.000000
9.711680 -12.670238 1.968627 8.000000
49.646221 47.030231 6.512515 10.000000
69.671547 -5.679078 11.760406 1.000000
31.069912 -17.151514 5.671813 15.000000
9.588434 -12.600300 1.963771 10.000000
49.639427 46.679783 6.453136 12.000000
69.887894 -5.966932 11.813295 1.000000
30.901138 -17.199352 5.658259 14.000000
9.523624 -12.610779 1.968353 8.000000
50.558620 47.196194 6.513562 23.000000
69.818619 -6.194299 11.804992 1.000000
30.780207 -17.280111 5.660312 15.000000
9.485440 -12.656408 1.981250 8.000000
50.722805 47.002731 6.475949 8.000000
69.960434 -6.477718 11.807869 1.000000
30.614870 -17.328115 5.653593 26.000000
9.458143 -12.712209 1.996041 8.000000
50.212044 46.188519 6.353048 25.000000
70.083763 -6.723609 11.845017 1.000000
30.309362 -17.302179 5.621346 7.000000
9.440329 -12.785852 2.010612 9.000000
50.640903 46.257710 6.338544 11.000000
29.608791 -17.039566 5.520764 7.000000
9.417606 -12.862816 2.025235 7.000000
51.071568 46.308868 6.322624 10.000000
29.080809 -16.877905 5.433816 8.000000
9.449249 -12.991466 2.052204 8.000000
50.999153 45.903728 6.256561 16.000000
28.513124 -16.681757 5.350424 8.000000
9.387479 -13.016061 2.061507 10.000000
51.194363 45.773041 6.225598 12.000000
70.627296 -7.797326 11.954517 1.000000
27.940800 -16.471529 5.270679 9.000000
9.369833 -13.082818 2.072858 7.000000
51.246639 45.482906 6.151361 1.000000
70.393890 -8.020370 11.919677 1.000000
27.422075 -16.301462 5.184064 8.000000
9.343378 -13.142552 2.088588 7.000000
51.361488 45.249386 6.133154 15.000000
70.376640 -8.279807 11.934534 1.000000
26.820072 -16.070562 5.103239 7.000000
9.303088 -13.187968 2.098965 7.000000
51.446926 44.990818 6.087554 7.000000
70.645889 -8.561603 11.985189 1.000000
26.266077 -15.869731 5.014359 8.000000
9.287962 -13.269513 2.118011 7.000000
51.460190 44.686378 6.022674 20.000000
70.768509 -8.839771 12.024209 1.000000
25.812878 -15.719169 4.949117 7.000000
9.277512 -13.353562 2.137792 7.000000
51.593269 44.439915 5.969415 19.000000
25.318586 -15.557830 4.882259 9.000000
9.225269 -13.382780 2.142814 7.000000
24.871010 -15.390649 4.805252 7.000000
9.208887 -13.464358 2.162045 7.000000
51.466621 43.677765 5.846333 23.000000
72.582802 -9.852282 12.336449 4.000000
24.413528 -15.243419 4.744126 9.000000
9.188817 -13.536175 2.180036 7.000000
51.937263 43.781734 5.847438 20.000000
23.988253 -15.082832 4.680830 8.000000
9.152133 -13.589049 2.194777 7.000000
51.635132 43.204308 5.736370 1.000000
23.515476 -14.906110 4.604199 9.000000
9.134664 -13.670989 2.211353 7.000000
51.473495 42.749294 5.665681 9.000000
23.161303 -14.795189 4.564652 9.000000
9.119107 -13.751379 2.227990 7.000000
51.652084 42.578697 5.621059 6.000000
22.773525 -14.676537 4.504663 9.000000
9.062556 -13.775456 2.235286 9.000000
51.674679 42.295238 5.583943 13.000000
22.356840 -14.518703 4.441802 9.000000
9.067728 -13.888662 2.260299 10.000000
51.747288 42.038887 5.528233 12.000000
21.973612 -14.373652 4.379819 10.000000
9.032060 -13.945423 2.275950 14.000000
51.869831 41.823795 5.466370 18.000000
78.642410 -12.695037 13.402067 1.000000
21.572035 -14.218735 4.318913 9.000000
8.996522 -14.002769 2.285831 18.000000
51.962009 41.584770 5.436597 22.000000
78.627098 -12.988435 13.421783 8.000000
21.279667 -14.138177 4.284476 9.000000
8.976018 -14.078679 2.304972 17.000000
52.229469 41.485695 5.413479 16.000000
20.881882 -13.979201 4.214185 9.000000
8.966066 -14.177434 2.324696 10.000000
52.375565 41.289566 5.377750 19.000000
20.538479 -13.858595 4.168444 10.000000
8.915658 -14.207268 2.336406 10.000000
52.714714 41.244549 5.338230 14.000000
8.899512 -14.297665 2.354882 10.000000
52.828365 41.022205 5.299235 5.000000
78.392097 -14.076716 13.428211 8.000000
8.877397 -14.379343 2.374989 16.000000
78.303444 -14.343119 13.392941 11.000000
19.089071 -13.178505 3.919186 11.000000
8.846969 -14.442599 2.392380 17.000000
54.217659 41.467529 5.324050 1.000000
78.218712 -14.624104 13.373247 1.000000
18.793224 -13.076230 3.872370 10.000000
8.826957 -14.529217 2.407406 9.000000
54.705776 41.523945 5.308765 16.000000
78.344116 -14.930769 13.417829 5.000000
18.588377 -13.030231 3.851737 10.000000
8.795978 -14.592773 2.421936 9.000000
54.698013 41.202946 5.233207 11.000000
78.058815 -15.173098 13.364131 9.000000
18.515789 -13.080821 3.850675 17.000000
8.749185 -14.636209 2.435952 10.000000
55.058567 41.174084 5.229782 6.000000
78.101715 -15.478723 13.366810 6.000000
18.453953 -13.133941 3.847326 12.000000
8.737783 -14.733672 2.456236 10.000000
55.412109 41.107666 5.187778 1.000000
77.885139 -15.718546 13.324796 7.000000
18.179106 -13.034167 3.803504 13.000000
8.718193 -14.824211 2.475176 15.000000
55.754036 41.045372 5.157065 1.000000
77.902016 -16.019327 13.351909 5.000000
17.873911 -12.914797 3.761410 19.000000
8.680701 -14.879076 2.488470 9.000000
56.281452 41.116417 5.142948 7.000000
77.828316 -16.287537 13.306137 6.000000
17.733610 -12.907882 3.737405 24.000000
8.652930 -14.957156 2.502365 9.000000
56.498096 40.957943 5.051037 9.000000
8.644782 -15.064143 2.518296 9.000000
56.595711 41.013641 4.961031 15.000000
8.636616 -15.043830 2.493517 9.000000
56.180557 41.027676 4.913384 16.000000
77.747345 -16.270592 12.978958 3.000000
17.666029 -12.853975 3.648179 10.000000
8.660975 -14.959011 2.463152 9.000000
55.850822 41.086567 4.921383 9.000000
77.727722 -15.983486 12.895200 9.000000
17.888073 -12.915529 3.660487 10.000000
8.684373 -14.873440 2.438954 9.000000
55.595680 41.213772 4.912179 14.000000
77.773026 -15.695919 12.850451 12.000000
18.223816 -13.061408 3.703756 10.000000
8.717725 -14.805666 2.411655 8.000000
55.259766 41.279449 4.907934 9.000000
77.930779 -15.444844 12.824841 7.000000
18.447083 -13.119351 3.719044 20.000000
8.745147 -14.734363 2.389753 10.000000
78.041901 -15.169808 12.791185 7.000000
18.529413 -13.075907 3.709698 15.000000
8.754379 -14.627500 2.362445 9.000000
54.686703 41.464352 4.919382 17.000000
18.589186 -13.021124 3.696275 13.000000
8.780842 -14.550426 2.340065 10.000000
54.350010 41.523670 4.938750 9.000000
18.796429 -13.063858 3.715635 10.000000
8.809210 -14.477219 2.321415 14.000000
53.868786 41.469574 4.920727 2.000000
78.270386 -14.351184 12.717392 6.000000
19.152834 -13.212654 3.760278 28.000000
8.842752 -14.413115 2.298280 16.000000
52.966396 41.084949 4.875543 13.000000
78.256096 -14.052296 12.663927 7.000000
8.880821 -14.362449 2.283124 10.000000
52.766979 41.226086 4.882152 13.000000
20.242466 -13.746439 3.914886 9.000000
8.902995 -14.281026 2.260400 10.000000
52.480293 41.312752 4.904762 9.000000
78.587212 -13.531996 12.644437 7.000000
20.611389 -13.892092 3.963487 10.000000
8.921830 -14.195083 2.240043 9.000000
52.326500 41.503220 4.939733 20.000000
78.584747 -13.249296 12.608006 5.000000
20.934233 -13.998380 4.006661 10.000000
8.961760 -14.148750 2.222780 9.000000
52.055824 41.600266 4.951929 22.000000
78.649918 -12.992205 12.597219 2.000000
21.269798 -14.115573 4.038593 10.000000
8.987712 -14.075334 2.204543 15.000000
51.967205 41.827526 4.980773 17.000000
78.647209 -12.681728 12.546143 1.000000
21.624889 -14.237337 4.077555 10.000000
9.000028 -13.981381 2.180218 14.000000
51.823132 42.025482 5.016826 20.000000
21.992414 -14.364038 4.127503 9.000000
9.019857 -13.899981 2.157959 10.000000
51.660366 42.208290 5.027720 16.000000
22.385359 -14.509464 4.167869 10.000000
9.071474 -13.862666 2.142856 9.000000
51.907444 42.728367 5.102378 15.000000
22.742962 -14.623154 4.214774 9.000000
9.087992 -13.787898 2.127155 7.000000
51.960182 43.092232 5.146753 3.000000
23.178917 -14.789358 4.271228 9.000000
9.111541 -13.703591 2.102257 9.000000
51.815022 43.278000 5.182862 13.000000
23.582027 -14.925228 4.315449 9.000000
9.185144 -13.715426 2.099951 8.000000
51.943851 43.678841 5.245955 11.000000
24.039625 -15.091724 4.378892 8.000000
9.186818 -13.614891 2.074892 7.000000
51.740170 43.832302 5.265387 15.000000
72.482208 -9.851511 11.389380 7.000000
24.493908 -15.257978 4.426133 9.000000
9.215149 -13.549504 2.058439 8.000000
51.861141 44.293598 5.331677 20.000000
70.994881 -9.397080 11.137647 1.000000
24.950420 -15.415710 4.487909 8.000000
9.264865 -13.505696 2.042901 7.000000
51.757915 44.503117 5.360181 16.000000
70.944496 -9.125958 11.098849 1.000000
25.419054 -15.582920 4.546416 7.000000
9.313230 -13.480151 2.032082 7.000000
51.520996 44.613152 5.387646 23.000000
25.917992 -15.758386 4.603627 9.000000
9.332685 -13.407991 2.014523 7.000000
51.393276 44.833210 5.415393 21.000000
97.734344 30.347319 13.236835 16.000000
26.383368 -15.909185 4.664898 7.000000
9.379722 -13.370782 2.002509 7.000000
51.323814 45.104942 5.461460 14.000000
97.668198 30.700985 13.260476 32.000000
27.167059 -16.252710 4.770799 25.000000
9.438266 -13.349894 1.990068 7.000000
51.050655 45.229378 5.487611 18.000000
97.289040 31.011480 13.225795 13.000000
27.492243 -16.310724 4.800257 7.000000
9.487379 -13.310640 1.978053 7.000000
51.003597 45.474495 5.521890 15.000000
71.316803 -7.873448 11.043398 1.000000
28.147060 -16.566652 4.892807 7.000000
9.517997 -13.260340 1.960806 7.000000
51.042046 45.845676 5.580367 7.000000
95.244904 31.075645 13.029705 21.000000
71.591469 -7.650920 11.068862 1.000000
28.594187 -16.689014 4.942141 14.000000
9.514760 -13.153790 1.941572 7.000000
50.808681 45.973640 5.609355 11.000000
95.118401 31.420574 13.010287 31.000000
29.227455 -16.915314 5.016746 8.000000
9.466726 -12.982121 1.907364 9.000000
50.778328 46.285793 5.648840 7.000000
29.729641 -17.067696 5.080457 8.000000
9.416463 -12.823650 1.877396 8.000000
50.236164 46.113678 5.642348 7.000000
30.412537 -17.311848 5.173795 9.000000
9.442043 -12.750879 1.861046 9.000000
50.813866 46.988300 5.775189 10.000000
92.783524 31.748808 12.823468 28.000000
30.699120 -17.333378 5.193362 13.000000
9.494149 -12.732739 1.848934 8.000000
50.558872 47.097446 5.802221 10.000000
92.607742 32.068306 12.797935 29.000000
30.804457 -17.244261 5.175276 21.000000
9.472903 -12.607555 1.824627 8.000000
50.021118 46.940113 5.784328 3.000000
30.946892 -17.175331 5.175976 13.000000
9.526423 -12.587053 1.818086 10.000000
49.828426 47.103931 5.818130 7.000000
31.166954 -17.169613 5.191049 23.000000
9.621650 -12.616510 1.813394 7.000000
49.570545 47.188896 5.855343 6.000000
90.330933 32.378731 12.582083 21.000000
31.324877 -17.093063 5.186800 24.000000
9.692814 -12.613677 1.806831 7.000000
49.384987 47.358501 5.877949 7.000000
90.110687 32.655193 12.601239 23.000000
31.435400 -17.011240 5.169759 15.000000
9.729774 -12.561648 1.793481 7.000000
49.427406 47.748165 5.940039 17.000000
89.683731 32.872841 12.592217 1.000000
70.913513 -5.008508 10.827538 3.000000
31.608150 -16.955244 5.175133 24.000000
9.759921 -12.514625 1.780159 7.000000
49.314095 47.989361 5.983819 4.000000
89.249168 33.085121 12.565045 1.000000
71.343704 -4.788673 10.865066 7.000000
31.753174 -16.897682 5.176858 27.000000
9.794019 -12.463873 1.769630 7.000000
49.289139 48.301205 6.049759 1.000000
71.669991 -4.571889 10.912387 4.000000
31.944876 -16.856874 5.185618 24.000000
9.797402 -12.374550 1.748091 7.000000
20.792234 20.525414 2.576676 7.000000
87.995544 33.338531 12.455242 7.000000
32.088463 -16.768312 5.185060 21.000000
9.820615 -12.306476 1.735443 8.000000
20.808046 20.692156 2.598340 3.000000
87.268181 33.411770 12.401915 10.000000
32.295040 -16.733009 5.183059 15.000000
9.837410 -12.244020 1.717355 7.000000
46.996101 47.078194 5.936805 1.000000
32.410606 -16.642490 5.178807 14.000000
9.864207 -12.185630 1.703150 9.000000
46.720604 47.130104 5.957775 1.000000
32.562042 -16.569719 5.173750 10.000000
9.887374 -12.123117 1.691179 8.000000
49.443619 50.243980 6.378065 6.000000
32.712772 -16.517244 5.176381 17.000000
9.911446 -12.066391 1.677054 8.000000
49.421120 50.590679 6.423929 6.000000
32.931004 -16.461872 5.187308 19.000000
9.930989 -12.000238 1.661908 9.000000
49.208744 50.744030 6.457774 14.000000
33.089111 -16.396793 5.176875 22.000000
9.813440 -11.770100 1.621482 10.000000
33.272175 -16.350306 5.197004 19.000000
9.818679 -11.689012 1.607176 10.000000
82.259735 33.905014 11.934773 11.000000
33.441994 -16.281858 5.187698 16.000000
9.837663 -11.628945 1.592878 17.000000
81.857964 34.074181 11.925176 1.000000
33.629601 -16.228228 5.194694 20.000000
9.861583 -11.570943 1.579144 13.000000
23.346891 24.766457 3.187392 23.000000
81.545982 34.295525 11.929398 4.000000
33.753036 -16.135544 5.191280 22.000000
9.885023 -11.512707 1.568100 12.000000
23.236877 24.840158 3.203337 9.000000
33.955154 -16.072285 5.199471 15.000000
9.903832 -11.445400 1.553422 24.000000
23.268053 25.039406 3.243141 8.000000
34.139938 -16.021391 5.206187 24.000000
9.916480 -11.383507 1.536164 25.000000
23.164845 25.112293 3.259613 8.000000
34.309525 -15.947792 5.196185 17.000000
9.935872 -11.321715 1.522105 28.000000
23.222355 25.360521 3.304990 8.000000
34.515114 -15.897079 5.205371 21.000000
9.951467 -11.256001 1.510217 26.000000
23.052969 25.370441 3.318877 8.000000
34.674965 -15.802292 5.206320 16.000000
9.973499 -11.197945 1.496749 21.000000
23.758207 26.321421 3.445449 9.000000
82.160820 36.649101 12.291571 17.000000
34.854420 -15.744698 5.218596 17.000000
10.009151 -11.167137 1.488897 18.000000
35.018406 -15.686500 5.222102 19.000000
10.024030 -11.101602 1.474503 23.000000
23.964731 26.925795 3.547035 9.000000
82.482903 37.450626 12.424964 24.000000
35.204144 -15.615033 5.227539 14.000000
10.041731 -11.039589 1.463256 19.000000
24.017641 27.175663 3.588060 12.000000
82.685730 37.926331 12.509715 21.000000
39.595242 -17.389339 5.854705 29.000000
10.072728 -10.992454 1.451383 20.000000
23.883410 27.224222 3.608422 9.000000
82.699394 38.265041 12.563321 29.000000
40.052876 -17.423798 5.897818 9.000000
10.081176 -10.924866 1.439240 14.000000
40.646286 -17.505056 5.959981 8.000000
10.094723 -10.859413 1.425035 12.000000
40.348957 -17.210289 5.891950 8.000000
10.117955 -10.804720 1.414893 21.000000
23.942469 27.914431 3.735546 9.000000
38.013248 -16.033974 5.526774 11.000000
10.134585 -10.735775 1.400780 25.000000
23.767851 27.897520 3.742104 9.000000
38.163124 -15.948331 5.533497 19.000000
10.158482 -10.693586 1.391640 23.000000
83.138626 40.334091 12.921039 23.000000
38.389786 -15.885872 5.543527 9.000000
10.187951 -10.646192 1.379944 24.000000
83.213470 40.711845 12.953582 28.000000
10.206672 -10.587792 1.369447 24.000000
83.004631 40.969379 12.976200 28.000000
113.035728 4.065814 17.005152 14.000000
30.580803 -12.392714 4.373361 9.000000
10.249706 -10.554737 1.357072 23.000000
17.665489 21.353907 2.898175 7.000000
112.896553 4.475187 16.986568 1.000000
30.629894 -12.288306 4.362498 9.000000
10.261127 -10.489300 1.343154 20.000000
90.966881 45.751575 14.346714 20.000000
112.722183 4.862424 16.962782 1.000000
37.071224 -14.714972 5.258030 8.000000
10.280700 -10.436181 1.333205 16.000000
25.248558 30.968824 4.227850 10.000000
91.128105 46.211933 14.432607 23.000000
37.168144 -14.595978 5.249973 9.000000
10.294818 -10.374181 1.322381 13.000000
24.882812 30.749657 4.213377 10.000000
91.374458 46.758675 14.553489 17.000000
37.302891 -14.498806 5.254720 8.000000
10.365108 -10.368728 1.316201 14.000000
24.711596 30.768003 4.238285 10.000000
91.431618 47.231800 14.628018 22.000000
10.463443 -10.390647 1.318654 9.000000
24.660044 30.946451 4.270750 10.000000
91.762535 47.829636 14.745761 13.000000
10.603243 -10.448920 1.320731 10.000000
24.554377 31.002138 4.289312 10.000000
91.681938 48.154510 14.757047 1.000000
38.695774 -14.575625 5.392427 8.000000
10.709675 -10.484028 1.319106 9.000000
83.348083 44.167793 13.508800 1.000000
38.949135 -14.492792 5.419584 27.000000
10.816227 -10.510978 1.322170 9.000000
22.473173 28.805779 4.014155 24.000000
83.301590 44.534977 13.578107 1.000000
10.959473 -10.572355 1.321545 8.000000
24.424944 31.533880 4.410599 9.000000
83.333130 44.926567 13.642458 1.000000
11.088427 -10.618568 1.326993 9.000000
24.232710 31.546467 4.426831 10.000000
83.650604 45.494217 13.755569 3.000000
39.840633 -14.335656 5.484148 30.000000
11.205345 -10.655799 1.328369 8.000000
24.033705 31.525915 4.439577 10.000000
83.604225 45.847866 13.808155 1.000000
11.360755 -10.724567 1.333884 9.000000
22.767235 30.081850 4.251672 9.000000
83.433609 46.152874 13.858797 1.000000
39.310467 -13.827979 5.360440 18.000000
11.480813 -10.758598 1.329512 14.000000
21.931671 29.178413 4.133038 9.000000
39.489643 -13.736295 5.378301 8.000000
11.626300 -10.815175 1.336178 9.000000
21.747320 29.176270 4.146068 10.000000
39.545300 -13.593382 5.371641 6.000000
11.743246 -10.843947 1.336613 10.000000
20.090019 27.130295 3.870214 12.000000
11.891891 -10.904550 1.337849 16.000000
18.982933 25.832680 3.697832 9.000000
39.634872 -13.323208 5.349111 8.000000
12.009682 -10.931802 1.338022 10.000000
18.573477 25.470594 3.658534 17.000000
39.755711 -13.186442 5.343372 7.000000
12.186994 -11.011793 1.344613 18.000000
22.039557 30.457642 4.383181 9.000000
12.316833 -11.047381 1.345741 10.000000
12.465883 -11.098893 1.345844 8.000000
17.768492 24.928905 3.607062 16.000000
36.722179 -11.754862 4.877805 7.000000
12.652831 -11.182474 1.349728 10.000000
21.580059 30.512476 4.436566 13.000000
12.815765 -11.247041 1.356923 9.000000
37.004337 -11.539739 4.896770 6.000000
12.943877 -11.275762 1.357058 13.000000
37.222618 -11.458283 4.913158 6.000000
13.121394 -11.346081 1.362161 7.000000
39.530159 -12.010181 5.197244 8.000000
13.265740 -11.386189 1.360525 7.000000
39.562077 -11.884246 5.203830 8.000000
13.411818 -11.430507 1.368312 9.000000
18.930441 27.813511 4.113146 10.000000
13.587743 -11.494733 1.366328 8.000000
17.949162 26.580692 3.943806 9.000000
40.638191 -11.883438 5.296245 24.000000
13.779230 -11.570346 1.371834 8.000000
17.896170 26.702724 3.975401 8.000000
40.627872 -11.726633 5.282038 35.000000
13.944467 -11.622215 1.377661 8.000000
19.076437 28.690613 4.291443 8.000000
40.446304 -11.513802 5.252910 23.000000
14.148875 -11.704967 1.383938 8.000000
18.931667 28.700480 4.300794 7.000000
40.538872 -11.372063 5.251759 9.000000
14.357936 -11.789546 1.390369 9.000000
17.679987 27.007561 4.066449 8.000000
23.437181 15.138994 4.294443 1.000000
14.518721 -11.845400 1.399039 9.000000
17.465862 26.895067 4.062591 9.000000
23.378166 15.216787 4.308288 1.000000
14.702579 -11.897419 1.398866 10.000000
17.322651 26.889797 4.074868 8.000000
23.502752 15.420813 4.351682 5.000000
76.859253 -20.695051 9.900182 4.000000
14.913835 -11.978179 1.404709 9.000000
17.216459 26.930983 4.094657 8.000000
23.236683 15.362534 4.327257 3.000000
76.686867 -20.347481 9.854243 7.000000
15.102488 -12.038903 1.408145 10.000000
16.186602 25.525692 3.893396 8.000000
23.326332 15.544968 4.369565 1.000000
76.709793 -20.052904 9.833626 16.000000
15.295705 -12.101508 1.411749 11.000000
16.838638 26.770378 4.096252 26.000000
76.790588 -19.787918 9.821017 11.000000
15.544497 -12.205977 1.420171 15.000000
16.753691 26.842773 4.126436 14.000000
76.917175 -19.520184 9.813927 10.000000
15.721327 -12.256355 1.421918 12.000000
16.824940 27.157011 4.188827 15.000000
76.959312 -19.230919 9.810245 10.000000
15.955677 -12.345299 1.435473 17.000000
16.755369 27.288797 4.227174 9.000000
77.027634 -18.962572 9.796400 9.000000
16.171513 -12.417809 1.440057 14.000000
16.710417 27.440634 4.264001 9.000000
75.685181 -18.338139 9.603254 1.000000
16.419838 -12.513093 1.447213 19.000000
16.666807 27.585323 4.300316 10.000000
75.888664 -18.093227 9.606772 1.000000
16.645216 -12.588679 1.452021 13.000000
16.550919 27.621738 4.325112 10.000000
77.307266 -18.146490 9.792345 6.000000
16.872746 -12.668416 1.464302 10.000000
16.579254 27.878294 4.379706 9.000000
77.258881 -17.836618 9.763821 3.000000
17.411137 -12.982590 1.495856 7.000000
16.558073 28.076401 4.430233 8.000000
77.236740 -17.547758 9.767256 10.000000
17.603912 -13.016703 1.500238 8.000000
16.623508 28.413563 4.497659 8.000000
22.596096 16.260874 4.498932 5.000000
77.636383 -17.339561 9.795596 6.000000
17.692354 -12.982069 1.492166 9.000000
16.626581 28.682358 4.559081 8.000000
22.581242 16.370131 4.522311 7.000000
77.541122 -17.020149 9.761576 11.000000
17.897724 -13.032115 1.493803 38.000000
16.361868 28.431189 4.534301 9.000000
22.513599 16.435263 4.529641 1.000000
77.659943 -16.762300 9.755032 12.000000
18.200541 -13.150805 1.507171 19.000000
15.003833 26.293856 4.211560 8.000000
22.431236 16.507538 4.550738 9.000000
77.716011 -16.476521 9.754422 10.000000
18.461620 -13.241607 1.516987 31.000000
14.930294 26.389206 4.239618 8.000000
77.690079 -16.173706 9.729604 10.000000
18.469074 -13.154418 1.510032 26.000000
14.519183 25.883463 4.176198 7.000000
77.807602 -15.915007 9.751375 10.000000
18.542253 -13.104369 1.500137 25.000000
14.376065 25.839304 4.192533 7.000000
77.912399 -15.639151 9.771338 11.000000
18.819126 -13.196884 1.514584 22.000000
15.269609 27.683685 4.505198 8.000000
77.828506 -15.339890 9.768097 5.000000
19.219791 -13.373034 1.538771 53.000000
13.772297 25.186914 4.116199 7.000000
77.151703 -14.912943 9.690150 1.000000
19.972931 -13.793842 1.586695 26.000000
13.620887 25.128372 4.134090 7.000000
22.316683 17.167553 4.726852 7.000000
77.094360 -14.622883 9.690383 1.000000
13.586498 25.064930 4.143974 7.000000
22.218309 17.091877 4.741235 8.000000
76.856773 -14.577817 9.771429 1.000000
20.274708 -13.897980 1.632658 8.000000
13.748518 25.153856 4.151261 7.000000
22.278494 17.014721 4.736343 6.000000
77.554237 -15.004791 9.937046 2.000000
19.955666 -13.787064 1.632286 19.000000
15.196445 27.562412 4.541093 6.000000
22.373766 16.964155 4.738939 1.000000
77.626717 -15.314193 9.981516 13.000000
19.224489 -13.386264 1.592910 38.000000
14.425629 25.949705 4.267791 7.000000
77.660759 -15.616844 10.007233 19.000000
18.839565 -13.221028 1.581164 19.000000
14.526937 25.907885 4.248479 7.000000
77.510384 -15.882402 10.037381 19.000000
18.570391 -13.133976 1.574569 25.000000
14.879028 26.320024 4.308400 8.000000
77.026901 -16.063700 10.023835 24.000000
18.484673 -13.175256 1.587308 38.000000
15.045165 26.387682 4.312247 7.000000
22.399799 16.484404 4.664051 7.000000
77.101631 -16.374393 10.055285 18.000000
18.417633 -13.224667 1.597437 25.000000
16.347605 28.440842 4.633708 8.000000
22.509829 16.438534 4.659380 4.000000
77.132889 -16.676722 10.109261 21.000000
18.190350 -13.162781 1.597651 20.000000
16.691326 28.794050 4.683417 8.000000
22.663559 16.429806 4.674280 7.000000
77.311707 -17.012226 10.154842 9.000000
17.859232 -13.023176 1.584383 17.000000
16.448215 28.147749 4.570199 8.000000
22.680248 16.315424 4.660345 10.000000
