VERSION .7
FIELDS x y z intensity
SIZE 4 4 4 4
TYPE F F F F
COUNT 1 1 1 1
WIDTH 1221
HEIGHT 1
VIEWPOINT 0 0 0 1 0 0 0
POINTS 1221
DATA ascii
12.120095 -14.593542 1.686370 7.000000
42.863140 44.000244 4.478578 12.000000
79.664757 32.008877 9.281332 6.000000
51.143677 -25.276779 6.560440 10.000000
12.270516 -14.664968 1.679629 7.000000
42.718056 44.158657 4.511839 9.000000
79.098152 32.102348 9.258466 20.000000
50.798790 -24.875076 6.504460 10.000000
12.402251 -14.717717 1.683849 31.000000
73.996719 77.055305 7.920227 10.000000
78.804291 32.287865 9.266628 30.000000
50.799999 -24.656199 6.453616 10.000000
12.521345 -14.749002 1.679058 18.000000
73.566795 77.117874 7.938947 10.000000
78.446602 32.477608 9.238503 24.000000
50.780548 -24.439028 6.420886 10.000000
12.658524 -14.810755 1.673728 10.000000
73.208244 77.361443 8.008477 10.000000
78.051643 32.633705 9.265115 24.000000
50.683922 -24.142424 6.366588 10.000000
12.836358 -14.902586 1.675832 3.000000
42.496414 45.222439 4.709626 12.000000
77.731659 32.835140 9.271164 25.000000
50.626118 -23.898436 6.329017 9.000000
42.341129 45.357662 4.741737 17.000000
17.298923 7.378616 2.066326 1.000000
33.674225 -15.759828 4.190078 7.000000
13.167793 -15.073270 1.677176 4.000000
42.314651 45.663685 4.801202 1.000000
17.312178 7.459383 2.077821 1.000000
33.629398 -15.588850 4.164260 7.000000
13.246572 -15.051747 1.669600 4.000000
42.121983 45.823364 4.843887 14.000000
17.156462 7.466964 2.069014 2.000000
33.654198 -15.443634 4.146870 10.000000
13.427573 -15.139799 1.667293 8.000000
42.093899 46.114864 4.902996 8.000000
13.530035 -15.143156 1.662409 16.000000
42.176735 46.514462 4.963664 6.000000
13.674266 -15.202812 1.659557 21.000000
41.853443 46.531933 5.002521 11.000000
10.638509 -11.740874 1.274762 5.000000
41.261662 46.148659 4.980754 1.000000
16.173983 7.309631 1.987737 9.000000
10.684551 -11.713387 1.267263 1.000000
40.996586 46.175568 4.989878 8.000000
16.282061 7.430461 2.010679 9.000000
10.638300 -11.581228 1.245926 7.000000
41.150959 46.693031 5.073201 1.000000
16.186392 7.458603 2.008527 6.000000
10.756415 -11.615871 1.243167 16.000000
41.068485 46.945206 5.139008 5.000000
16.190836 7.529279 2.021796 1.000000
28.228584 -12.122122 3.364531 7.000000
10.738300 -11.511389 1.225132 17.000000
40.746712 46.956429 5.165990 8.000000
16.023085 7.522819 2.010537 1.000000
60.733177 -25.792217 7.203007 17.000000
10.871010 -11.572402 1.227293 7.000000
60.832268 -25.609020 7.158558 17.000000
14.691560 -15.535889 1.637776 17.000000
40.694153 47.545818 5.277233 5.000000
73.306747 35.059803 9.258325 26.000000
61.115864 -25.440079 7.156476 17.000000
14.885314 -15.614740 1.637226 9.000000
40.659145 47.858891 5.339561 5.000000
73.495903 35.450214 9.325864 29.000000
26.545309 -10.946608 3.093965 40.000000
10.840145 -11.296103 1.174434 8.000000
40.384026 47.872719 5.358376 8.000000
73.595993 35.847477 9.399387 9.000000
26.662601 -10.886235 3.093019 99.000000
10.882504 -11.249499 1.163133 7.000000
40.349796 48.189407 5.421436 9.000000
73.786568 36.275505 9.469724 29.000000
26.846218 -10.846576 3.099463 99.000000
15.398195 -15.817732 1.628833 9.000000
40.224598 48.399174 5.472677 1.000000
73.725784 36.581764 9.508179 29.000000
27.015209 -10.788908 3.103678 33.000000
10.820371 -11.026277 1.131763 9.000000
73.921844 37.001163 9.593926 29.000000
19.661839 -7.780704 2.252324 8.000000
10.850608 -10.976324 1.122586 9.000000
73.986649 37.373344 9.649376 25.000000
27.339546 -10.703243 3.116950 44.000000
10.901432 -10.954837 1.115945 9.000000
40.919579 50.333580 5.777920 1.000000
74.107216 37.775806 9.712523 29.000000
27.560434 -10.673389 3.127220 33.000000
10.866155 -10.843420 1.094987 8.000000
74.219276 38.127151 9.772383 30.000000
27.709976 -10.620219 3.129488 16.000000
10.860168 -10.758292 1.082359 7.000000
40.491001 50.541035 5.859476 7.000000
74.343178 38.568771 9.853461 28.000000
27.911964 -10.580468 3.142632 10.000000
16.496227 -16.210796 1.621341 9.000000
40.454781 50.876854 5.926933 1.000000
74.337029 38.895504 9.900273 30.000000
28.137833 -10.548302 3.153083 10.000000
16.688242 -16.279690 1.622071 9.000000
39.652279 50.244545 5.870096 1.000000
74.348991 39.249538 9.950715 28.000000
28.287411 -10.491903 3.155074 9.000000
16.836285 -16.315495 1.610635 9.000000
39.418205 50.308056 5.917651 1.000000
74.484871 39.671032 10.033104 28.000000
57.888592 -21.230055 6.447958 13.000000
17.080446 -16.436880 1.620181 9.000000
39.261570 50.488224 5.966913 8.000000
46.336891 24.887289 6.271858 9.000000
28.776537 -10.434006 3.184811 9.000000
13.029186 -12.446610 1.218922 11.000000
39.368721 51.010738 6.056952 14.000000
46.128979 24.993895 6.283937 9.000000
28.781057 -10.322116 3.170516 184.000000
12.960009 -12.281404 1.198437 7.000000
39.203129 51.182930 6.105707 8.000000
74.448288 40.674843 10.191064 28.000000
28.913494 -10.250165 3.170122 192.000000
12.929231 -12.162605 1.179013 7.000000
39.184227 51.492561 6.173509 11.000000
74.618607 41.089790 10.263140 31.000000
29.106283 -10.198579 3.181700 188.000000
12.993340 -12.146197 1.172019 7.000000
38.969257 51.638905 6.206433 1.000000
74.825806 41.596207 10.360001 26.000000
29.246149 -10.133104 3.182184 191.000000
12.947082 -12.014337 1.148387 8.000000
74.884827 41.971863 10.418799 27.000000
29.424259 -10.074176 3.197525 169.000000
13.101418 -12.068490 1.151902 7.000000
75.163979 42.456486 10.523037 25.000000
75.645607 7.044064 9.382139 20.000000
29.580360 -10.006645 3.193959 134.000000
13.175613 -12.047867 1.142019 13.000000
39.010616 52.874058 6.465848 4.000000
75.169685 42.841263 10.577441 25.000000
75.661179 7.351988 9.387655 27.000000
29.757690 -9.951009 3.198269 129.000000
13.057550 -11.852327 1.118742 29.000000
38.647114 52.746616 6.480652 16.000000
75.151489 43.161678 10.641021 26.000000
75.392830 7.578366 9.370852 24.000000
29.908382 -9.879672 3.199442 94.000000
13.082946 -11.788209 1.104865 27.000000
38.505981 52.979488 6.537226 1.000000
75.462219 43.743919 10.756159 31.000000
75.198677 7.850625 9.363796 11.000000
30.123560 -9.828442 3.224173 95.000000
13.188064 -11.791490 1.100612 23.000000
75.434357 44.080276 10.805016 29.000000
76.205406 8.238187 9.492851 26.000000
30.281851 -9.763265 3.226227 38.000000
13.089464 -11.625456 1.079958 21.000000
75.622299 44.527168 10.884130 28.000000
61.036800 -19.455856 6.484653 15.000000
13.136292 -11.581200 1.068040 15.000000
75.676208 44.951111 10.963450 31.000000
61.187748 -19.233734 6.469818 15.000000
13.182825 -11.536628 1.059172 10.000000
75.870888 45.407795 11.060426 28.000000
30.910486 -9.597961 3.259118 26.000000
13.248183 -11.508354 1.048732 13.000000
75.884277 45.830536 11.120541 19.000000
30.908489 -9.473273 3.243826 193.000000
13.262305 -11.431566 1.040234 19.000000
75.917191 46.176525 11.193828 10.000000
31.072121 -9.398981 3.251639 219.000000
13.349843 -11.430079 1.034887 17.000000
75.871841 46.530762 11.275339 12.000000
31.245701 -9.326626 3.254708 202.000000
13.133420 -11.161615 1.005876 7.000000
75.991295 47.006504 11.367372 12.000000
31.415916 -9.258124 3.274826 207.000000
13.087057 -11.032042 0.986935 9.000000
75.699448 47.173771 11.394514 1.000000
31.579727 -9.180737 3.276778 52.000000
13.158409 -11.017756 0.980540 24.000000
75.581459 47.485722 11.434545 1.000000
32.056904 -9.198224 3.317060 4.000000
13.525425 -11.240993 0.995574 16.000000
75.644806 47.894611 11.517003 1.000000
32.025555 -9.074393 3.304818 5.000000
13.553431 -11.184510 0.985525 17.000000
32.211403 -8.987525 3.308458 4.000000
13.683427 -11.207734 0.985791 19.000000
76.918793 49.475834 11.878174 22.000000
32.311848 -8.888032 3.309500 6.000000
13.752059 -11.179981 0.975366 7.000000
77.106110 49.996796 11.984249 22.000000
32.267029 -8.766758 3.307966 5.000000
13.641809 -11.007552 0.955472 21.000000
77.232361 50.462467 12.047553 24.000000
13.892886 -11.126321 0.960848 9.000000
77.375198 50.961433 12.164680 27.000000
67.320053 -17.761587 6.851203 1.000000
13.910517 -11.056999 0.949927 20.000000
77.459282 51.424854 12.256974 20.000000
68.490433 -17.814892 6.951472 9.000000
14.023886 -11.067451 0.945644 22.000000
77.406326 51.779903 12.359814 21.000000
68.564903 -17.566212 6.952449 11.000000
13.993858 -10.960760 0.934682 25.000000
15.688067 25.008921 3.379292 8.000000
77.251740 52.087337 12.415177 8.000000
68.687897 -17.329697 6.945951 7.000000
14.105284 -10.964857 0.930054 23.000000
15.508142 24.924568 3.386146 10.000000
76.942879 52.270699 12.427836 23.000000
68.711647 -17.055330 6.929204 8.000000
14.050749 -10.840080 0.917621 9.000000
15.438062 25.006113 3.410674 10.000000
76.962112 52.697060 12.511769 15.000000
14.189884 -10.864692 0.914718 7.000000
15.410264 25.147266 3.454242 7.000000
69.009224 -16.618612 6.934835 6.000000
15.344337 25.266794 3.477864 7.000000
69.140610 -16.395123 6.929726 5.000000
12.056244 20.009544 2.773222 7.000000
82.007294 57.464794 13.628036 9.000000
69.017258 -16.098917 6.898915 14.000000
11.991375 20.052008 2.790123 7.000000
68.989662 -15.826089 6.877841 9.000000
14.493702 24.458773 3.415309 8.000000
69.009331 -15.577239 6.886805 8.000000
16.681749 -12.298847 1.010015 146.000000
14.360202 24.407999 3.421961 8.000000
113.359871 23.022121 14.941320 8.000000
69.130287 -15.338474 6.880743 6.000000
16.855978 -12.332193 1.010513 103.000000
14.230297 24.410885 3.444354 9.000000
113.693604 23.503428 15.057838 10.000000
69.272392 -15.103824 6.901822 8.000000
17.046984 -12.376269 1.008182 61.000000
14.210567 24.573790 3.485463 12.000000
113.351814 23.866312 15.044613 22.000000
68.254189 -14.619971 6.770395 1.000000
17.167206 -12.372272 1.009030 42.000000
14.313888 24.963139 3.558714 7.000000
113.473419 24.305880 15.133712 22.000000
68.303650 -14.381386 6.782578 1.000000
17.200676 -12.300858 0.997244 87.000000
14.416286 25.336054 3.625706 7.000000
113.477867 24.742176 15.166916 2.000000
69.814270 -14.432426 6.914724 3.000000
17.005751 -12.067498 0.972429 40.000000
14.487535 25.679785 3.693403 7.000000
69.594757 -14.121268 6.875299 8.000000
17.021553 -11.985153 0.963532 127.000000
14.415607 25.762009 3.724138 7.000000
51.194614 38.396107 9.084814 1.000000
69.705879 -13.890657 6.893967 4.000000
17.094166 -11.942806 0.961511 93.000000
14.362499 25.889318 3.766408 8.000000
51.073673 38.584694 9.144190 16.000000
17.261246 -11.965629 0.961088 64.000000
14.170324 25.765070 3.766830 7.000000
50.998985 38.822689 9.190480 15.000000
17.356543 -11.942205 0.960383 73.000000
50.840832 38.997444 9.256164 14.000000
17.260210 -11.782948 0.945346 39.000000
14.910480 27.347755 4.045470 8.000000
50.796486 38.963432 9.327950 8.000000
17.308884 -11.816176 0.970005 78.000000
14.172874 25.769709 3.804035 7.000000
50.881191 38.733021 9.305976 10.000000
17.359390 -11.944166 0.993711 59.000000
14.304590 25.795546 3.799495 8.000000
51.054211 38.583988 9.290119 14.000000
17.224566 -11.953560 1.003402 68.000000
14.412779 25.778063 3.783349 9.000000
51.159576 38.369827 9.249454 1.000000
69.670898 -13.896331 7.128629 10.000000
17.212908 -12.030235 1.019736 78.000000
14.574240 25.844009 3.779789 1.000000
69.506149 -14.128553 7.129526 10.000000
17.074356 -12.026790 1.025094 126.000000
14.592213 25.676504 3.746634 6.000000
68.256767 -14.135297 7.043507 1.000000
17.053856 -12.106112 1.044816 105.000000
14.378294 25.075462 3.651584 6.000000
17.219961 -12.319192 1.072570 64.000000
14.290392 24.711828 3.580927 9.000000
17.319746 -12.495990 1.093113 38.000000
14.302547 24.534822 3.547388 9.000000
113.265457 23.414919 15.617340 25.000000
69.267349 -15.128056 7.251781 13.000000
17.043161 -12.391672 1.089578 80.000000
14.358111 24.423952 3.523877 8.000000
69.202866 -15.379927 7.288393 10.000000
16.819633 -12.323641 1.096414 145.000000
14.429353 24.350180 3.500415 8.000000
69.120537 -15.627700 7.298204 4.000000
12.038452 20.162676 2.887527 7.000000
81.629608 57.668739 14.206536 1.000000
69.030396 -15.860799 7.306981 10.000000
17.000555 -12.639544 1.139887 99.000000
12.080029 20.064861 2.863245 8.000000
81.757317 57.310909 14.138779 1.000000
69.106163 -16.145092 7.333734 8.000000
17.105469 -12.815161 1.161287 108.000000
68.941154 -16.373247 7.360043 19.000000
17.021708 -12.850081 1.177458 91.000000
67.591042 -16.314537 7.259044 1.000000
15.382384 24.925659 3.513366 11.000000
68.810074 -16.863176 7.383740 9.000000
14.010178 -10.746503 0.993367 26.000000
15.507544 24.943012 3.512642 10.000000
76.712990 52.153667 12.970892 4.000000
68.768173 -17.120335 7.423439 8.000000
14.153746 -10.927424 1.015368 23.000000
15.632125 24.939077 3.494083 15.000000
68.548180 -17.332626 7.431451 10.000000
14.014537 -10.902165 1.020677 26.000000
77.120537 51.627701 12.910950 6.000000
68.634529 -17.622353 7.485279 11.000000
14.138979 -11.090361 1.045561 29.000000
77.212105 51.280174 12.878238 19.000000
68.667557 -17.886559 7.508169 3.000000
14.054688 -11.099724 1.051454 25.000000
76.972603 50.734806 12.775874 1.000000
67.114929 -17.745060 7.357716 1.000000
13.876829 -11.049996 1.050778 9.000000
77.246529 50.510216 12.741278 25.000000
67.350731 -18.071774 7.403087 1.000000
13.913663 -11.162903 1.066032 10.000000
77.062302 50.006611 12.633007 24.000000
32.080788 -8.728183 3.541334 4.000000
13.693366 -11.060997 1.067374 10.000000
77.022003 49.580235 12.580237 30.000000
32.248074 -8.900768 3.581094 6.000000
76.847122 49.089108 12.458753 28.000000
32.042282 -8.970485 3.567742 7.000000
13.699806 -11.233140 1.092888 16.000000
76.672661 48.582893 12.385380 24.000000
32.065376 -9.103817 3.585774 7.000000
13.594653 -11.226506 1.096886 23.000000
76.507515 48.104794 12.283305 25.000000
31.569387 -9.082199 3.539633 4.000000
13.572152 -11.291847 1.107683 9.000000
76.432312 47.667515 12.195066 26.000000
31.520977 -9.193496 3.543757 172.000000
13.258355 -11.121138 1.100869 8.000000
76.327782 47.214645 12.118793 25.000000
31.352406 -9.269152 3.540146 210.000000
13.118029 -11.077746 1.101288 7.000000
75.150970 46.124775 11.890642 7.000000
31.160940 -9.330949 3.539416 206.000000
13.354003 -11.369166 1.137216 9.000000
75.117416 45.725990 11.811856 13.000000
31.002277 -9.407393 3.531008 199.000000
13.289255 -11.390269 1.144116 9.000000
75.152840 45.388779 11.761242 1.000000
76.031494 9.295086 10.247512 34.000000
30.876139 -9.492841 3.531991 169.000000
13.228084 -11.422205 1.151636 14.000000
75.336716 45.123817 11.717255 8.000000
75.820351 8.987349 10.241676 29.000000
13.168311 -11.459148 1.165555 11.000000
75.386490 44.796825 11.669452 7.000000
76.071190 8.734470 10.257561 34.000000
60.857632 -19.188337 7.010983 15.000000
13.182030 -11.556260 1.179731 10.000000
75.200989 44.314453 11.569008 15.000000
61.330193 -19.584757 7.085018 16.000000
13.086930 -11.557994 1.181126 24.000000
75.165245 43.923023 11.507742 6.000000
76.398239 8.218566 10.252515 10.000000
61.183437 -19.773502 7.098712 15.000000
13.069948 -11.628540 1.195701 26.000000
38.517803 53.015209 6.922215 1.000000
75.058235 43.509739 11.452631 14.000000
76.612000 7.971141 10.291088 8.000000
61.397488 -20.091516 7.143456 16.000000
13.034404 -11.674585 1.208259 22.000000
38.684208 52.855263 6.884245 14.000000
75.093460 43.163219 11.387651 23.000000
75.920746 7.618048 10.194414 34.000000
61.328121 -20.317968 7.189661 16.000000
13.001615 -11.739619 1.221866 22.000000
75.031784 42.780018 11.324915 19.000000
59.777405 -20.047655 7.027574 15.000000
12.908821 -11.729660 1.225780 12.000000
74.997284 42.396873 11.265591 26.000000
59.667088 -20.242634 7.045137 15.000000
12.799049 -11.715846 1.228557 8.000000
74.834267 41.960690 11.173344 22.000000
59.816914 -20.538244 7.082845 15.000000
12.982190 -11.979620 1.263137 9.000000
39.099922 51.868511 6.655157 12.000000
74.743942 41.550697 11.106688 27.000000
12.971139 -12.049307 1.275260 10.000000
39.166862 51.544373 6.575733 1.000000
74.670639 41.152420 11.027918 28.000000
12.878898 -12.051860 1.282904 7.000000
39.448479 51.559162 6.559932 2.000000
74.556129 40.750660 10.959776 31.000000
28.986368 -10.293087 3.471996 5.000000
39.353760 51.046585 6.478933 12.000000
46.361382 25.119816 6.792203 4.000000
28.820982 -10.364829 3.478798 7.000000
12.888659 -12.235156 1.317512 7.000000
39.442333 50.757229 6.416056 9.000000
74.466423 40.012253 10.859225 17.000000
28.728025 -10.444792 3.477362 7.000000
12.903613 -12.348207 1.336635 7.000000
39.607048 50.621826 6.370192 7.000000
74.423317 39.638248 10.801763 27.000000
57.845371 -21.271490 7.011239 13.000000
17.020185 -16.396063 1.781121 15.000000
39.869530 50.537964 6.311662 1.000000
74.241676 39.209461 10.710789 25.000000
57.895092 -21.530993 7.048625 14.000000
16.795961 -16.310560 1.780932 9.000000
74.269150 38.909538 10.666336 21.000000
29.039574 1.771049 3.871570 1.000000
16.608917 -16.230618 1.770574 9.000000
40.434334 50.542568 6.278038 13.000000
74.093208 38.471920 10.591133 12.000000
28.932060 1.658080 3.856400 1.000000
60.420921 -22.939690 7.432119 16.000000
16.420315 -16.164391 1.776998 9.000000
40.584572 50.350933 6.227098 5.000000
73.965706 38.078510 10.524338 29.000000
28.843910 1.546984 3.843868 1.000000
60.477757 -23.215237 7.472439 16.000000
10.901999 -10.811046 1.194872 6.000000
73.932823 37.686913 10.453905 30.000000
60.601166 -23.529982 7.498795 9.000000
16.060028 -16.043221 1.778590 9.000000
73.771706 37.280933 10.412659 28.000000
60.219582 -23.636177 7.496573 15.000000
15.871693 -15.982887 1.780646 10.000000
73.714714 36.913578 10.326985 30.000000
19.728535 -7.823031 2.459336 8.000000
15.689376 -15.909986 1.774261 10.000000
73.719955 36.610943 10.281474 29.000000
60.038593 -24.038038 7.539998 16.000000
15.520348 -15.843325 1.780555 10.000000
40.198391 48.059689 5.823354 11.000000
73.668907 36.233627 10.211221 29.000000
59.849556 -24.241566 7.528418 16.000000
10.822913 -11.129445 1.257227 7.000000
40.374928 47.929787 5.780530 8.000000
73.485405 35.841225 10.169255 27.000000
101.601463 3.263957 13.527410 1.000000
59.893887 -24.491035 7.578512 16.000000
15.132298 -15.675427 1.775965 9.000000
40.527157 47.754181 5.733131 12.000000
73.418419 35.476044 10.113023 29.000000
101.682106 2.893521 13.536643 1.000000
14.976624 -15.622935 1.779295 10.000000
40.542709 47.419113 5.666790 17.000000
73.164574 35.038891 10.032396 27.000000
14.846479 -15.601241 1.781968 17.000000
40.692806 47.243000 5.619642 20.000000
73.010284 34.636604 9.950810 28.000000
61.008953 -25.721014 7.824662 17.000000
14.651475 -15.509760 1.780371 16.000000
40.767380 46.996815 5.585359 17.000000
72.936272 34.290115 9.895790 16.000000
28.283543 -12.040622 3.643735 4.000000
10.681128 -11.390170 1.313957 23.000000
40.824570 46.715725 5.515125 10.000000
16.169590 7.529699 2.183766 6.000000
28.260855 -12.153509 3.657417 7.000000
10.669390 -11.461555 1.325930 9.000000
40.975014 46.542492 5.468737 12.000000
16.222916 7.475434 2.180569 6.000000
10.638192 -11.516394 1.338563 1.000000
41.083572 46.338661 5.418036 7.000000
16.233471 7.418559 2.172521 6.000000
41.481289 46.443211 5.404198 1.000000
16.186924 7.318882 2.156050 5.000000
33.581554 -14.874284 4.392583 7.000000
41.836803 46.529762 5.397374 6.000000
16.234438 7.275620 2.152852 1.000000
33.395916 -14.945710 4.388730 25.000000
13.706272 -15.153073 1.783998 10.000000
41.944778 46.307350 5.367400 8.000000
16.979164 7.545412 2.241875 1.000000
33.357677 -15.047553 4.415470 27.000000
13.609872 -15.157803 1.793001 15.000000
42.081821 46.133961 5.320384 7.000000
17.066486 7.509434 2.243153 1.000000
33.237656 -15.140266 4.419835 31.000000
13.492603 -15.127811 1.794848 8.000000
42.078457 45.792049 5.244043 14.000000
17.003590 7.407490 2.224735 1.000000
33.174175 -15.251403 4.431378 31.000000
13.423028 -15.161306 1.807221 6.000000
42.302986 45.731079 5.220248 7.000000
17.207830 7.425108 2.241417 1.000000
33.226105 -15.423045 4.445836 21.000000
13.287635 -15.119675 1.810607 4.000000
42.468922 45.542339 5.163402 6.000000
17.153463 7.327191 2.224219 1.000000
33.197628 -15.550907 4.462248 20.000000
12.982244 -14.876584 1.783007 2.000000
42.439522 45.177692 5.106984 16.000000
77.749695 32.890743 10.036645 29.000000
33.318474 -15.756684 4.499279 12.000000
13.040923 -15.054854 1.812652 3.000000
73.161095 77.338646 8.696520 10.000000
78.028671 32.672108 10.027187 22.000000
30.437471 -14.530972 4.129347 7.000000
12.913412 -15.018528 1.816510 3.000000
73.413422 77.091690 8.639968 10.000000
78.516747 32.538757 10.014350 29.000000
30.331610 -14.610660 4.133808 10.000000
12.627522 -14.790156 1.793815 30.000000
73.785133 76.861824 8.572463 10.000000
78.818192 32.341766 10.038338 31.000000
30.258701 -14.712420 4.143116 7.000000
12.469013 -14.713363 1.799317 16.000000
42.717518 44.173527 4.900964 12.000000
79.175720 32.149925 10.023437 18.000000
51.185200 -25.119696 7.041201 10.000000
12.347300 -14.678482 1.796259 10.000000
42.764004 43.944492 4.858126 17.000000
79.850578 32.083538 10.093917 27.000000
29.913719 -14.810274 4.139859 7.000000
12.222423 -14.638608 1.799316 10.000000
42.986469 43.850384 4.821970 19.000000
80.702354 32.099052 10.125900 16.000000
29.671522 -14.826019 4.125590 17.000000
12.087848 -14.580583 1.800328 7.000000
43.040085 43.584370 4.777764 10.000000
81.137024 31.928011 10.134839 24.000000
29.561991 -14.900470 4.117568 35.000000
12.059226 -14.655049 1.810738 7.000000
42.811634 43.036385 4.692228 22.000000
81.330849 31.660522 10.113610 16.000000
29.558962 -15.035058 4.136549 14.000000
12.077042 -14.786828 1.834989 1.000000
43.254280 43.163780 4.669731 13.000000
81.675896 31.466982 10.111836 10.000000
12.099774 -14.920666 1.859882 6.000000
43.305096 42.883892 4.614611 9.000000
29.059704 -15.043821 4.110646 9.000000
12.123176 -15.072802 1.886396 6.000000
43.231964 42.528450 4.559831 1.000000
29.033878 -15.165643 4.126443 33.000000
12.041243 -15.073009 1.895012 7.000000
28.939983 -15.245415 4.132236 45.000000
12.046476 -15.187978 1.917832 7.000000
43.037567 41.720871 4.443829 11.000000
76.947083 28.372021 9.372987 16.000000
60.620117 -4.111407 8.085446 1.000000
28.772495 -15.292167 4.133631 40.000000
11.257456 -14.300539 1.813382 7.000000
76.887123 28.030224 9.309699 9.000000
60.433018 -4.321291 8.051787 1.000000
28.706238 -15.392151 4.143743 29.000000
11.121680 -14.235101 1.809456 9.000000
77.043625 27.782990 9.287893 1.000000
60.565842 -4.543338 8.071548 1.000000
28.804403 -15.574483 4.171543 33.000000
11.004260 -14.186605 1.807894 8.000000
43.286930 41.063404 4.297804 11.000000
77.466225 27.614954 9.297499 1.000000
60.637722 -4.772293 8.083405 1.000000
29.041925 -15.840748 4.226057 9.000000
10.899830 -14.158829 1.811852 10.000000
43.406097 40.875240 4.263353 17.000000
78.219803 27.560888 9.361097 13.000000
60.550133 -4.978127 8.084787 1.000000
10.780659 -14.110721 1.813153 9.000000
43.656158 40.809856 4.231263 8.000000
77.915108 27.148161 9.284067 1.000000
33.503960 -18.586840 4.928568 8.000000
10.661436 -14.056108 1.813788 11.000000
33.362728 -18.653440 4.930428 8.000000
10.567208 -14.038445 1.818897 10.000000
44.307178 40.828255 4.181396 1.000000
61.545292 -5.731053 8.214483 4.000000
44.270424 40.495350 4.132327 12.000000
60.729607 -5.879690 8.108435 9.000000
31.188242 -17.746199 4.660468 25.000000
60.490311 -6.069726 8.090063 1.000000
31.113205 -17.847557 4.658536 15.000000
45.270130 40.804348 4.122803 21.000000
60.876827 -6.333965 8.144807 9.000000
30.932474 -17.894882 4.672981 28.000000
9.955053 -13.631784 1.794995 9.000000
45.703541 40.892395 4.116341 18.000000
61.123962 -6.575430 8.191812 3.000000
30.908367 -18.025227 4.678815 26.000000
9.863084 -13.605308 1.795863 9.000000
45.866974 40.736923 4.063812 15.000000
61.112141 -6.800828 8.171669 7.000000
21.785978 -12.812444 3.309469 9.000000
9.769053 -13.580067 1.796652 11.000000
46.194363 40.740139 4.037008 14.000000
61.018898 -6.995381 8.173167 1.000000
21.684193 -12.854665 3.314229 10.000000
9.663610 -13.537883 1.798120 10.000000
46.367477 40.591660 4.006704 7.000000
60.930119 -7.200772 8.164594 1.000000
21.712524 -12.979241 3.334791 6.000000
9.575335 -13.513726 1.802160 10.000000
46.683239 40.566818 3.988595 13.000000
61.258430 -7.489033 8.223512 1.000000
32.640610 -19.666771 5.044032 7.000000
9.556459 -13.592423 1.819710 15.000000
61.082241 -7.673161 8.192294 1.000000
32.364971 -19.662739 5.012540 13.000000
9.502719 -13.616763 1.827316 10.000000
93.830254 28.186129 10.608598 12.000000
60.961689 -7.874268 8.179763 1.000000
32.467197 -19.880337 5.059373 7.000000
9.420899 -13.605506 1.832853 9.000000
47.668888 40.512051 3.902955 1.000000
69.491951 20.610842 7.823092 17.000000
26.182039 -16.151424 4.099208 17.000000
9.339290 -13.593833 1.838313 9.000000
47.727055 40.261147 3.862789 17.000000
69.697159 20.394081 7.824903 17.000000
61.275578 -8.361027 8.240683 1.000000
26.081507 -16.234308 4.110011 21.000000
9.249065 -13.563707 1.841467 10.000000
48.052486 40.249420 3.844789 9.000000
69.887383 20.171957 7.825063 25.000000
61.611202 -8.636960 8.301072 2.000000
25.917906 -16.258272 4.109456 29.000000
9.134534 -13.501800 1.840029 10.000000
48.372417 40.245197 3.804571 5.000000
70.267281 20.029421 7.834321 21.000000
61.842117 -8.889551 8.325215 1.000000
25.821959 -16.317657 4.102800 23.000000
9.065066 -13.505512 1.844620 9.000000
69.215988 19.468771 7.671405 25.000000
61.519829 -9.073487 8.286251 1.000000
25.675255 -16.350641 4.104761 28.000000
8.953806 -13.440906 1.842937 16.000000
70.056717 19.402115 7.743060 25.000000
61.463089 -9.295419 8.272100 1.000000
25.547834 -16.401419 4.099368 19.000000
8.851912 -13.394087 1.840573 19.000000
49.117542 39.930981 3.716426 16.000000
70.545326 19.285784 7.764136 13.000000
61.903934 -9.583236 8.347010 1.000000
25.438702 -16.457035 4.107203 20.000000
8.842535 -13.481975 1.859802 8.000000
49.368202 39.863579 3.680919 18.000000
70.501617 18.996399 7.738723 25.000000
61.852268 -9.807504 8.355959 1.000000
25.289862 -16.492542 4.103638 18.000000
8.767795 -13.475460 1.868676 7.000000
49.623329 39.741570 3.643486 16.000000
71.010506 18.841360 7.747685 25.000000
62.079830 -10.065858 8.369054 1.000000
25.167797 -16.551022 4.099468 25.000000
8.707042 -13.489991 1.874774 7.000000
49.805805 39.588951 3.601644 17.000000
70.677231 18.502277 7.665910 12.000000
63.380756 -10.515348 8.560984 3.000000
25.057287 -16.597639 4.106441 26.000000
8.758291 -13.673918 1.907567 3.000000
50.269516 39.657749 3.591008 10.000000
61.874275 -10.487468 8.351246 1.000000
24.947464 -16.663065 4.104231 20.000000
8.507863 -13.390744 1.872122 1.000000
50.382572 39.476589 3.556095 10.000000
69.397774 17.624790 7.475019 12.000000
62.039085 -10.749467 8.389936 1.000000
24.783422 -16.672611 4.102251 18.000000
50.597366 39.360619 3.505425 1.000000
68.992180 17.265646 7.412247 11.000000
62.090549 -10.992940 8.413490 1.000000
24.667665 -16.726393 4.103811 18.000000
8.315665 -13.297515 1.872928 3.000000
24.551279 -16.772875 4.099452 16.000000
8.276820 -13.343944 1.883522 1.000000
71.309158 17.291029 7.569685 25.000000
24.422600 -16.816586 4.104052 25.000000
50.778454 38.612835 3.354355 7.000000
71.303322 17.013151 7.523607 7.000000
24.294569 -16.853743 4.092399 22.000000
50.932991 38.436539 3.321733 11.000000
71.277672 16.744278 7.488861 1.000000
24.215227 -16.930502 4.099971 19.000000
51.951134 38.906857 3.322020 19.000000
113.876373 26.311369 11.892492 23.000000
24.066319 -16.951771 4.089990 24.000000
7.819408 -13.018826 1.859300 13.000000
53.125282 39.483093 3.341495 4.000000
113.657936 25.822451 11.798060 10.000000
23.949295 -16.994728 4.090608 22.000000
7.755634 -13.015362 1.862980 9.000000
79.755844 58.822571 4.950900 10.000000
113.530502 25.356270 11.754595 10.000000
69.523727 -14.094224 9.414745 13.000000
23.833319 -17.044113 4.091868 11.000000
7.656726 -12.957137 1.861283 9.000000
74.062424 54.205502 4.504824 8.000000
113.502335 24.913574 11.680682 10.000000
69.451439 -14.332143 9.399079 11.000000
23.704218 -17.077160 4.090310 22.000000
7.593391 -12.952979 1.864849 9.000000
74.074448 53.798485 4.397435 10.000000
113.370857 24.470226 11.596953 10.000000
69.448563 -14.597134 9.393263 7.000000
23.589951 -17.126526 4.076210 23.000000
7.515615 -12.928684 1.862674 10.000000
69.316994 -14.834969 9.344995 9.000000
23.513464 -17.196651 4.078524 22.000000
7.432612 -12.889244 1.863792 14.000000
74.504349 53.674953 4.169765 1.000000
69.369904 -14.846294 9.201012 9.000000
23.460337 -17.157799 4.007260 16.000000
7.443593 -12.903082 1.844859 10.000000
74.024185 53.742252 4.153889 15.000000
69.298920 -14.565681 9.096497 1.000000
23.602625 -17.129436 3.989698 15.000000
7.516920 -12.920548 1.832743 9.000000
74.008911 54.126671 4.179645 1.000000
113.698273 24.935781 11.167092 15.000000
69.349144 -14.323652 9.058784 8.000000
23.708830 -17.074200 3.965881 27.000000
7.598256 -12.956095 1.822913 9.000000
79.832581 58.836147 4.538028 14.000000
106.053497 23.647469 10.405151 18.000000
69.520706 -14.093610 9.011477 7.000000
23.823498 -17.030806 3.949069 22.000000
7.691628 -12.995477 1.816739 10.000000
105.997009 24.043022 10.389041 28.000000
69.501122 -13.837242 8.964921 9.000000
23.981527 -17.011305 3.938781 22.000000
7.766004 -13.022424 1.810675 13.000000
51.780724 38.751030 3.004756 3.000000
71.526939 16.500147 7.016421 6.000000
24.067320 -16.946190 3.922216 18.000000
7.857594 -13.056578 1.803611 7.000000
50.973419 38.411228 2.976448 18.000000
71.402245 16.734098 6.996960 8.000000
24.180824 -16.893887 3.904401 24.000000
7.930274 -13.084129 1.797313 7.000000
50.773022 38.566761 2.995677 12.000000
69.516197 16.561094 6.805456 22.000000
24.305367 -16.848669 3.898758 25.000000
8.126441 -13.297586 1.819685 5.000000
50.892246 38.952301 3.033535 4.000000
69.710701 16.864792 6.817588 18.000000
24.443869 -16.818657 3.890461 21.000000
8.201607 -13.300293 1.807961 6.000000
50.583515 38.982693 3.056336 1.000000
69.829781 17.164762 6.860668 17.000000
24.573660 -16.775589 3.874898 24.000000
8.320176 -13.398175 1.810865 5.000000
50.498199 39.212788 3.093398 10.000000
24.699425 -16.735344 3.869608 18.000000
8.406802 -13.427606 1.807790 5.000000
50.286419 39.344624 3.111578 16.000000
71.162270 18.033257 7.004083 11.000000
24.775179 -16.654505 3.850697 20.000000
8.482869 -13.428948 1.795693 6.000000
50.230793 39.598766 3.150666 12.000000
71.551254 18.411180 7.074988 26.000000
24.924372 -16.622490 3.848444 15.000000
8.573688 -13.478749 1.794651 5.000000
49.841095 39.574429 3.157138 11.000000
71.354462 18.639650 7.049248 26.000000
63.356995 -10.522769 7.908584 5.000000
25.071888 -16.594721 3.835586 20.000000
8.679730 -13.525263 1.788429 7.000000
49.647629 39.718376 3.187457 12.000000
70.896530 18.771387 7.023036 8.000000
63.469982 -10.302631 7.906528 1.000000
25.195852 -16.544287 3.834555 22.000000
8.719813 -13.489102 1.776110 7.000000
49.306450 39.742683 3.197045 10.000000
70.907478 19.039400 7.030662 21.000000
63.344742 -10.044155 7.852200 1.000000
25.322741 -16.501389 3.818277 23.000000
8.770038 -13.458345 1.762092 7.000000
49.175095 39.935020 3.220167 10.000000
25.447218 -16.449945 3.811812 22.000000
8.817032 -13.417543 1.746992 23.000000
69.564064 19.213396 6.923626 16.000000
25.600334 -16.416201 3.814926 27.000000
8.897817 -13.443134 1.742769 8.000000
69.508713 19.472584 6.912460 25.000000
25.710512 -16.360485 3.795801 22.000000
9.000054 -13.484814 1.735465 9.000000
48.348560 40.139748 3.282272 3.000000
69.523399 19.778028 6.947224 25.000000
62.729923 -9.028345 7.680597 5.000000
25.839678 -16.309927 3.784358 18.000000
9.088946 -13.510493 1.731549 10.000000
48.104481 40.235859 3.297644 18.000000
69.997772 20.150890 6.988087 25.000000
25.965418 -16.262825 3.778149 17.000000
9.179169 -13.547388 1.725728 16.000000
47.775909 40.259560 3.318017 23.000000
69.317947 20.230595 6.965734 20.000000
26.098190 -16.213112 3.772465 16.000000
9.277114 -13.584455 1.723159 9.000000
69.119255 20.447817 6.953251 21.000000
62.241039 -8.271561 7.587096 1.000000
26.272640 -16.188332 3.778146 10.000000
9.350696 -13.590098 1.713452 9.000000
68.785263 20.636568 6.952874 24.000000
62.381771 -8.068767 7.567358 1.000000
32.912624 -20.121502 4.688717 62.000000
9.468410 -13.643570 1.710324 13.000000
68.369972 20.759352 6.905229 10.000000
33.201172 -20.131113 4.691775 10.000000
9.542182 -13.642844 1.696989 10.000000
46.638924 40.471199 3.419949 14.000000
62.303860 -7.605803 7.517772 1.000000
9.548104 -13.560410 1.684609 9.000000
46.493137 40.644367 3.441782 13.000000
62.402687 -7.407933 7.526691 1.000000
21.631966 -12.915716 3.022090 8.000000
9.613153 -13.547039 1.669740 11.000000
46.136448 40.631836 3.458669 12.000000
21.642265 -12.804298 3.002969 9.000000
9.709723 -13.577410 1.666089 12.000000
45.880478 40.691654 3.493058 16.000000
83.838165 26.788420 8.567812 5.000000
62.075542 -6.897072 7.447609 1.000000
21.743397 -12.761876 3.001876 6.000000
9.803369 -13.597708 1.658413 9.000000
45.740826 40.868298 3.526028 18.000000
62.138603 -6.673610 7.463253 1.000000
9.878150 -13.606091 1.654532 10.000000
45.278160 40.754330 3.523189 14.000000
60.539391 -6.288176 7.246948 1.000000
10.014184 -13.687659 1.650973 17.000000
78.999870 26.187910 8.145844 17.000000
60.699486 -6.101416 7.252853 1.000000
33.447693 -19.147924 4.520681 26.000000
10.126987 -13.735910 1.649233 8.000000
44.274158 40.413692 3.540423 16.000000
78.848656 26.443615 8.169030 3.000000
60.326092 -5.840623 7.205630 1.000000
33.611691 -19.094099 4.520585 25.000000
10.386248 -13.985094 1.671220 9.000000
44.242142 40.668488 3.570243 1.000000
61.986279 -5.783030 7.368419 5.000000
33.753433 -19.011320 4.502833 15.000000
10.489005 -14.015842 1.664061 11.000000
62.536228 -5.603214 7.431302 8.000000
33.771851 -18.851250 4.475078 22.000000
10.609938 -14.069642 1.662641 9.000000
43.575073 40.677090 3.614607 1.000000
62.504856 -5.380536 7.391990 1.000000
29.135399 -16.123436 3.841070 7.000000
10.728023 -14.113178 1.657035 9.000000
43.383850 40.797180 3.652855 19.000000
77.826279 27.361164 8.176017 2.000000
28.884087 -15.852912 3.783139 30.000000
10.834871 -14.145822 1.652972 8.000000
77.261360 27.481148 8.127197 9.000000
28.864635 -15.717910 3.750499 31.000000
10.949316 -14.197462 1.650616 9.000000
76.558327 27.532511 8.091983 14.000000
28.900272 -15.593740 3.729903 31.000000
11.074918 -14.246866 1.645412 7.000000
43.360378 41.639256 3.782187 1.000000
76.848328 27.955317 8.147824 19.000000
28.755859 -15.392919 3.693126 37.000000
11.178052 -14.281548 1.640924 5.000000
43.037285 41.662357 3.800051 16.000000
77.319679 28.448105 8.208799 4.000000
61.040863 -4.150645 7.165561 1.000000
28.844893 -15.291927 3.685105 35.000000
12.895994 -16.340885 1.865157 4.000000
77.223839 28.719290 8.267313 6.000000
60.723625 -3.905536 7.126593 1.000000
28.908594 -15.196665 3.669127 33.000000
11.416666 -14.363004 1.631028 1.000000
43.275936 42.467796 3.931565 11.000000
29.000490 -15.109569 3.662178 32.000000
11.561237 -14.446278 1.635065 1.000000
43.282234 42.786507 3.967692 13.000000
29.102095 -15.027143 3.644878 40.000000
11.549166 -14.323265 1.612978 1.000000
43.250423 43.069633 4.022016 14.000000
29.371426 -15.049529 3.661008 34.000000
12.051800 -14.835026 1.655404 7.000000
42.952915 43.088066 4.051670 18.000000
81.411392 31.626448 8.840740 29.000000
29.361626 -14.908893 3.635498 9.000000
12.022220 -14.693513 1.630933 7.000000
43.092556 43.531002 4.100627 18.000000
81.118973 31.855528 8.821607 23.000000
12.054532 -14.623317 1.614707 12.000000
43.007626 43.764881 4.150813 11.000000
12.148884 -14.617820 1.606107 8.000000
42.961880 44.070816 4.206605 4.000000
79.341171 31.814548 8.713101 8.000000
12.306088 -14.702266 1.606616 24.000000
42.820904 44.218620 4.239517 7.000000
79.066429 32.009140 8.724625 24.000000
50.932701 -24.940651 6.160823 10.000000
12.416319 -14.734412 1.604460 18.000000
74.053902 77.007179 7.433277 10.000000
78.788216 32.249165 8.737554 31.000000
50.919163 -24.692080 6.117693 10.000000
12.537571 -14.757669 1.595445 16.000000
73.543694 77.039795 7.485077 10.000000
78.510391 32.471920 8.749854 28.000000
51.007168 -24.526167 6.098475 10.000000
12.707189 -14.857190 1.593576 5.000000
73.514519 77.576538 7.585981 14.000000
77.910782 32.558838 8.726059 23.000000
50.775215 -24.175037 6.039742 10.000000
10.324475 -11.977916 1.277876 10.000000
42.448334 45.123909 4.429893 16.000000
77.688454 32.784939 8.743672 28.000000
50.654041 -23.889997 5.995099 16.000000
10.358941 -11.929207 1.268395 7.000000
42.397915 45.386723 4.473826 16.000000
17.316074 7.382359 1.951920 1.000000
50.658314 -23.686975 5.966531 10.000000
10.429573 -11.922000 1.257774 6.000000
42.246098 45.557796 4.518999 11.000000
17.324814 7.461244 1.962630 1.000000
10.348540 -11.742247 1.231808 7.000000
42.053047 45.684315 4.559810 8.000000
17.051765 7.414319 1.941179 2.000000
13.453918 -15.158841 1.584461 8.000000
42.072071 46.042511 4.612974 9.000000
13.538060 -15.152138 1.574173 12.000000
42.046844 46.338692 4.660858 13.000000
13.672494 -15.200842 1.565987 10.000000
41.924038 46.545021 4.721097 10.000000
10.568354 -11.663449 1.200022 11.000000
41.591057 46.484402 4.744729 1.000000
16.326193 7.374990 1.898714 4.000000
10.616286 -11.634470 1.189787 1.000000
41.044102 46.212837 4.745025 15.000000
16.207977 7.393235 1.894393 1.000000
41.092476 46.593868 4.791205 1.000000
16.238878 7.469049 1.900738 1.000000
28.197437 -12.219653 3.175775 6.000000
10.583964 -11.429641 1.152137 12.000000
16.217176 7.538086 1.908038 1.000000
28.233912 -12.112739 3.164023 7.000000
10.680755 -11.449700 1.147107 9.000000
72.452888 33.985687 8.566631 25.000000
10.772144 -11.467156 1.147095 7.000000
72.596489 34.378227 8.655175 28.000000
60.944569 -25.631256 6.762360 17.000000
14.734793 -15.559834 1.543603 10.000000
40.595650 47.397232 4.988179 9.000000
73.316292 35.048645 8.770597 29.000000
60.998947 -25.391411 6.734718 17.000000
40.545284 47.691120 5.047418 1.000000
73.428047 35.417484 8.827491 29.000000
102.265549 2.927987 11.837377 4.000000
26.555002 -10.945182 2.917495 144.000000
40.677803 48.169773 5.117000 3.000000
26.697687 -10.889689 2.913515 171.000000
15.231283 -15.744935 1.531852 9.000000
40.375832 48.152168 5.144288 1.000000
73.677620 36.174053 8.945618 29.000000
99.936813 3.577191 11.588176 1.000000
26.866587 -10.843898 2.927590 174.000000
15.422451 -15.831589 1.533882 9.000000
40.204815 48.341034 5.202423 9.000000
73.672028 36.523045 9.005468 6.000000
100.250580 3.956380 11.626163 6.000000
26.992998 -10.785501 2.926994 27.000000
10.757474 -10.962183 1.055137 10.000000
74.112274 37.047966 9.103520 20.000000
100.161728 4.303098 11.617529 4.000000
27.269253 -10.780148 2.942307 53.000000
10.843687 -10.969323 1.048824 7.000000
73.920845 37.307724 9.141417 24.000000
27.369768 -10.704059 2.938538 106.000000
10.905454 -10.951230 1.040070 7.000000
74.514313 37.950558 9.231947 2.000000
27.554573 -10.660061 2.933334 115.000000
10.873722 -10.835832 1.022303 6.000000
40.608986 50.291332 5.518860 7.000000
74.236374 38.152309 9.273760 30.000000
102.527504 5.516798 11.916320 31.000000
27.717075 -10.611847 2.946672 107.000000
16.334824 -16.170300 1.518596 9.000000
40.483269 50.459145 5.557412 1.000000
74.317696 38.489727 9.313766 30.000000
102.520660 5.893351 11.881628 20.000000
27.910788 -10.568881 2.947347 112.000000
16.537081 -16.250942 1.515595 10.000000
40.366997 50.693764 5.612496 6.000000
74.314156 38.833988 9.360731 30.000000
102.073105 6.225177 11.832205 1.000000
28.094755 -10.520969 2.952109 118.000000
16.714958 -16.305752 1.514131 10.000000
74.331062 39.190323 9.410589 26.000000
28.253592 -10.468143 2.954322 141.000000
16.886675 -16.352900 1.503648 10.000000
39.398624 50.228870 5.629944 1.000000
74.514084 39.619846 9.495957 29.000000
57.739616 -21.152555 6.007695 13.000000
17.134655 -16.477531 1.512267 9.000000
39.382812 50.571236 5.697974 8.000000
28.760994 -10.417012 2.988533 40.000000
39.170383 50.680557 5.739151 1.000000
84.507614 6.354159 9.835445 25.000000
28.789278 -10.313723 2.971549 211.000000
13.040174 -12.357371 1.117687 7.000000
39.260750 51.184101 5.825239 6.000000
74.543152 40.676010 9.690300 12.000000
84.583138 6.686546 9.877168 34.000000
28.958239 -10.254651 2.985089 211.000000
13.093073 -12.316733 1.108896 7.000000
39.302620 51.610744 5.903806 4.000000
75.079681 41.326614 9.794825 25.000000
84.255341 6.941854 9.826568 1.000000
29.115673 -10.201869 2.981508 204.000000
38.996616 51.600201 5.931741 6.000000
75.110062 41.685612 9.848089 21.000000
29.273195 -10.131031 2.982720 214.000000
12.922024 -11.982694 1.065509 8.000000
38.957092 51.942596 6.000360 14.000000
75.051949 42.013905 9.906225 30.000000
29.475941 -10.080377 2.988619 212.000000
12.922335 -11.895189 1.049627 17.000000
38.837425 52.199409 6.070024 7.000000
75.085999 42.412437 9.962643 28.000000
29.630573 -10.012107 3.000556 238.000000
13.022122 -11.890832 1.041492 19.000000
38.756252 52.452610 6.130418 1.000000
75.069878 42.732323 10.025087 24.000000
75.643417 7.323608 8.887271 20.000000
29.788578 -9.949779 3.007490 211.000000
13.109946 -11.891542 1.036057 7.000000
38.614182 52.663097 6.184433 1.000000
75.215523 43.180996 10.096288 28.000000
75.858177 7.625143 8.915727 22.000000
29.972370 -9.889206 3.011248 210.000000
13.317060 -11.990735 1.039529 9.000000
38.585739 53.011372 6.255664 6.000000
75.339134 43.602329 10.179447 25.000000
75.680008 7.887522 8.911585 2.000000
30.169821 -9.831884 3.021856 244.000000
13.214244 -11.814897 1.015862 19.000000
75.434280 44.027264 10.275852 31.000000
30.309195 -9.760402 3.021169 214.000000
13.160651 -11.680467 1.002282 9.000000
75.573891 44.463142 10.331468 30.000000
30.454872 -9.684260 3.020877 110.000000
13.140347 -11.576624 0.982166 9.000000
75.768738 44.952423 10.427329 26.000000
60.796104 -19.087311 6.012280 15.000000
13.314604 -11.643745 0.982704 8.000000
75.869881 45.389206 10.526667 23.000000
74.678528 8.865220 8.834309 10.000000
30.836529 -9.569097 3.040662 44.000000
13.270737 -11.519820 0.970190 9.000000
76.029373 45.845753 10.618082 19.000000
74.974236 9.179114 8.886576 14.000000
30.935940 -9.469875 3.035464 208.000000
13.311379 -11.473866 0.957922 15.000000
76.112167 46.276924 10.684801 22.000000
74.631348 9.401665 8.849770 19.000000
31.090593 -9.392725 3.035803 214.000000
13.266467 -11.350670 0.942521 22.000000
76.173943 46.679451 10.763737 25.000000
31.268938 -9.333562 3.055924 228.000000
13.525277 -11.486512 0.948593 16.000000
76.369141 47.184959 10.863374 28.000000
31.434517 -9.251681 3.057073 202.000000
13.407449 -11.302123 0.925141 30.000000
76.243034 47.494038 10.901937 16.000000
31.559565 -9.162929 3.060163 13.000000
13.326610 -11.150681 0.907613 17.000000
76.488083 48.018097 11.008864 15.000000
63.726154 -18.273180 6.161604 17.000000
13.529209 -11.236155 0.906289 18.000000
76.474442 48.401199 11.080456 15.000000
63.611061 -17.976135 6.120485 17.000000
13.560767 -11.182610 0.902707 15.000000
76.503494 48.794430 11.173579 1.000000
63.741215 -17.784876 6.138949 10.000000
13.602146 -11.133228 0.890436 23.000000
76.552071 49.221058 11.223073 1.000000
63.799461 -17.549341 6.103380 17.000000
13.604461 -11.052103 0.878729 15.000000
76.462837 49.560730 11.317282 1.000000
64.009567 -17.355030 6.094007 17.000000
13.722984 -11.065146 0.874506 11.000000
76.388252 49.891918 11.380462 20.000000
64.294807 -17.191664 6.127126 17.000000
13.927445 -11.146020 0.878684 24.000000
76.343407 50.224575 11.430927 1.000000
67.670952 -17.828905 6.430276 19.000000
13.726107 -10.902601 0.854254 13.000000
67.675354 -17.565060 6.399923 19.000000
13.888141 -10.948527 0.846366 15.000000
77.628548 51.908947 11.780691 31.000000
67.660156 -17.309252 6.380441 19.000000
13.859644 -10.847832 0.836159 22.000000
77.656578 52.301182 11.861007 13.000000
67.869072 -17.097912 6.381873 19.000000
15.607075 25.054317 3.284869 7.000000
77.565575 52.673939 11.961055 1.000000
67.921623 -16.846649 6.380965 19.000000
15.470430 25.019451 3.294346 15.000000
77.170372 52.819878 11.979651 1.000000
67.908539 -16.591991 6.361954 19.000000
15.338458 25.010489 3.306483 8.000000
77.115074 53.178268 12.049666 1.000000
68.023232 -16.356047 6.354728 19.000000
22.953007 -17.428595 1.313752 21.000000
15.309422 25.169678 3.351334 8.000000
77.135025 53.570312 12.147129 21.000000
113.911560 21.441458 14.088471 2.000000
68.028336 -16.093754 6.361954 19.000000
23.081875 -17.399757 1.307533 30.000000
12.104339 20.057676 2.681599 7.000000
113.834663 21.859293 14.109305 17.000000
68.051224 -15.848537 6.346587 19.000000
12.011923 20.070459 2.693949 7.000000
113.657829 22.236984 14.117435 22.000000
68.011787 -15.576778 6.337541 19.000000
113.320084 22.602455 14.147085 15.000000
69.041084 -15.546419 6.415648 7.000000
16.641556 -12.260248 0.906093 102.000000
14.309768 24.302860 3.298099 8.000000
113.457771 23.062624 14.195242 17.000000
16.852097 -12.320325 0.904140 39.000000
14.219139 24.352650 3.322709 10.000000
113.490784 23.482155 14.230074 16.000000
69.284126 -15.081051 6.403086 2.000000
17.034996 -12.358488 0.900477 50.000000
14.150302 24.430201 3.346516 10.000000
113.751160 23.971128 14.294236 1.000000
17.206240 -12.386721 0.896002 49.000000
14.019350 24.409964 3.366579 8.000000
113.640045 24.362314 14.352652 19.000000
68.138191 -14.309293 6.311820 1.000000
17.024139 -12.161140 0.876876 106.000000
113.775406 24.827852 14.401778 13.000000
69.232460 -14.286953 6.396087 3.000000
17.029936 -12.075725 0.871348 102.000000
14.148995 25.049053 3.491608 7.000000
113.845360 25.259754 14.483704 2.000000
68.278961 -13.829472 6.303273 1.000000
17.025419 -11.978989 0.857946 70.000000
14.576672 26.028519 3.652370 8.000000
52.153069 39.072296 8.857098 8.000000
113.972191 25.726549 14.532445 18.000000
17.061264 -11.910958 0.850271 108.000000
15.017118 27.047050 3.809467 8.000000
51.166405 38.612686 8.746557 10.000000
113.941956 26.138054 14.602297 2.000000
17.314621 -11.993683 0.849654 100.000000
15.025995 27.287041 3.868977 8.000000
51.005394 38.785400 8.811635 9.000000
114.161636 26.629265 14.705201 27.000000
62.437080 -11.944395 5.762888 1.000000
17.255529 -11.859398 0.844616 38.000000
14.814583 27.138046 3.873008 8.000000
62.578190 -11.745107 5.805707 1.000000
17.342344 -11.830144 0.843169 37.000000
14.860496 27.233454 3.913755 8.000000
114.300453 27.040548 15.004720 16.000000
62.496761 -11.729824 5.887687 1.000000
15.021005 27.289248 3.913091 8.000000
51.039135 38.811058 8.942925 10.000000
114.097328 26.614262 14.987788 3.000000
17.227629 -11.853506 0.876457 99.000000
14.525215 26.171856 3.738887 8.000000
51.093788 38.571888 8.906075 12.000000
114.254402 26.209728 15.016497 14.000000
17.257320 -11.967368 0.898553 45.000000
14.515670 25.930210 3.690873 7.000000
52.215038 39.118725 9.064859 9.000000
114.091339 25.753445 14.962411 14.000000
69.544815 -13.845942 6.640516 4.000000
17.094086 -11.947189 0.906915 95.000000
14.094857 24.973560 3.546441 7.000000
53.418850 39.730228 9.226029 3.000000
113.959694 25.285122 14.953599 18.000000
69.429222 -14.075066 6.671549 12.000000
17.004608 -11.977661 0.922677 88.000000
14.057401 24.695297 3.494079 3.000000
113.610641 24.771126 14.895784 19.000000
69.573608 -14.370014 6.727968 8.000000
16.984636 -12.056973 0.934912 88.000000
14.117254 24.600311 3.472516 7.000000
113.553261 24.343710 14.897629 13.000000
17.118536 -12.246633 0.959472 113.000000
14.186159 24.511833 3.447277 8.000000
113.416161 23.879860 14.847500 16.000000
67.991959 -14.563801 6.634148 1.000000
17.145777 -12.361376 0.982016 39.000000
14.220315 24.374201 3.414890 10.000000
113.190331 23.419987 14.827647 20.000000
69.211113 -15.090462 6.770932 10.000000
17.039326 -12.379795 0.989564 54.000000
14.356073 24.400982 3.405938 8.000000
113.253632 23.000547 14.804297 2.000000
69.135109 -15.326885 6.806108 11.000000
16.832228 -12.323840 0.991100 65.000000
14.532444 24.494898 3.411331 7.000000
68.912239 -15.542683 6.802173 9.000000
16.730410 -12.334723 1.002053 138.000000
12.009960 20.083088 2.782021 7.000000
69.103561 -15.852218 6.864216 10.000000
12.109879 20.082699 2.775645 7.000000
69.005051 -16.096071 6.872728 14.000000
15.298996 25.172323 3.465595 8.000000
68.864960 -16.317062 6.876874 13.000000
23.087317 -17.422825 1.450027 10.000000
15.384944 25.105947 3.438148 8.000000
76.924316 53.046722 12.583962 2.000000
68.810860 -16.570843 6.914902 7.000000
14.234163 -10.823909 0.905867 7.000000
15.428516 24.971146 3.406639 9.000000
76.874657 52.597771 12.527666 5.000000
68.674820 -16.804621 6.932289 8.000000
14.181871 -10.866410 0.920699 10.000000
15.534907 24.948166 3.395286 10.000000
