VERSION .7
FIELDS x y z intensity
SIZE 4 4 4 4
TYPE F F F F
COUNT 1 1 1 1
WIDTH 1223
HEIGHT 1
VIEWPOINT 0 0 0 1 0 0 0
POINTS 1223
DATA ascii
5.426404 -9.201186 0.248007 5.000000
12.455910 2.561363 -0.851319 1.000000
12.730559 -2.771056 -0.543785 4.000000
17.286474 -12.587036 -0.250064 18.000000
12.281552 -21.000525 0.577573 19.000000
12.943696 2.612258 -0.895573 1.000000
12.632153 -2.798168 -0.549064 1.000000
17.255991 -12.671149 -0.246620 12.000000
12.243083 -21.103445 0.596267 26.000000
12.687898 2.560633 -0.900572 1.000000
12.542928 -2.780700 -0.567672 1.000000
17.241747 -12.656059 -0.279986 13.000000
12.275999 -21.160181 0.572238 38.000000
12.595063 2.589977 -0.899161 1.000000
12.586808 -2.742067 -0.578211 6.000000
17.287729 -12.592569 -0.306117 11.000000
12.264378 -20.971157 0.534342 91.000000
12.248487 2.565536 -0.877279 1.000000
12.601160 -2.696854 -0.589681 4.000000
17.325394 -12.523070 -0.328360 16.000000
12.276901 -20.825415 0.502168 18.000000
12.190221 2.600008 -0.873783 1.000000
12.727964 -2.675243 -0.601976 1.000000
17.352465 -12.450651 -0.350418 23.000000
12.312580 -20.712036 0.471069 23.000000
11.975599 2.600157 -0.863375 1.000000
17.385155 -12.386981 -0.376335 10.000000
5.614439 -9.369906 0.196387 33.000000
11.737236 2.593487 -0.844761 1.000000
17.399710 -12.296899 -0.390504 16.000000
5.538648 -9.170661 0.183263 23.000000
17.448410 -12.235671 -0.412913 14.000000
5.515144 -9.056569 0.166576 30.000000
11.425861 2.614773 -0.821684 1.000000
13.450817 -2.621884 -0.663044 1.000000
17.480446 -12.171864 -0.427590 16.000000
5.525905 -9.003343 0.153042 23.000000
11.212166 2.609153 -0.806999 6.000000
13.489426 -2.578126 -0.671684 1.000000
17.530788 -12.107233 -0.450001 9.000000
5.546860 -8.967123 0.141710 21.000000
11.178532 2.644553 -0.801241 1.000000
13.832455 -2.591172 -0.690749 1.000000
9.851316 -6.750390 -0.258494 1.000000
5.685592 -9.116542 0.133147 26.000000
11.086185 2.665651 -0.797316 1.000000
14.307999 -2.626009 -0.724192 1.000000
9.875762 -6.714081 -0.271000 1.000000
11.037847 2.696861 -0.790560 1.000000
9.868813 -6.661612 -0.278519 3.000000
5.900677 -9.312344 0.113527 30.000000
10.935908 2.714467 -0.783966 1.000000
9.918993 -6.640187 -0.291720 1.000000
5.979547 -9.357150 0.098846 38.000000
10.949852 2.762606 -0.781760 1.000000
20.000004 -3.443817 -1.020965 1.000000
10.015759 -6.656975 -0.300216 1.000000
5.911559 -9.187024 0.087711 31.000000
10.920456 2.797802 -0.778411 2.000000
19.933174 -3.357132 -1.027529 1.000000
17.663738 -11.647090 -0.542957 17.000000
5.964292 -9.194741 0.074602 27.000000
10.895908 2.834110 -0.773448 1.000000
20.304852 -3.343244 -1.049651 1.000000
17.699785 -11.582414 -0.557596 17.000000
5.659914 -8.659147 0.059583 36.000000
10.904739 2.879120 -0.774818 3.000000
20.143875 -3.240952 -1.051419 1.000000
17.733316 -11.511751 -0.575783 21.000000
5.640634 -8.564225 0.048325 32.000000
10.851008 2.907519 -0.767813 1.000000
19.780363 -3.108134 -1.038852 1.000000
17.741257 -11.424696 -0.596792 16.000000
5.696903 -8.581026 0.035954 58.000000
10.830651 2.944653 -0.767131 6.000000
19.890154 -3.050727 -1.047545 1.000000
17.776215 -11.350884 -0.611234 18.000000
5.735180 -8.573582 0.025204 73.000000
10.829662 2.987053 -0.763891 1.000000
19.836460 -2.968118 -1.054668 1.000000
17.808981 -11.280134 -0.621982 23.000000
5.822483 -8.635437 0.012724 27.000000
10.799425 3.021350 -0.762535 1.000000
20.212639 -2.948705 -1.077662 1.000000
17.837265 -11.215343 -0.643752 19.000000
5.813259 -8.557162 0.001806 17.000000
10.850386 3.080579 -0.763007 1.000000
19.995733 -2.842254 -1.069070 1.000000
17.873722 -11.147064 -0.654629 15.000000
5.971699 -8.721447 -0.007379 40.000000
10.834484 3.119021 -0.758734 1.000000
19.723734 -2.729877 -1.060956 1.000000
17.914066 -11.081238 -0.669335 13.000000
6.073077 -8.803427 -0.020533 37.000000
10.823233 3.158784 -0.754799 9.000000
19.827440 -2.670204 -1.069502 1.000000
17.930838 -11.005258 -0.686901 14.000000
6.329186 -9.106505 -0.032905 21.000000
10.783130 3.190015 -0.748869 4.000000
19.827005 -2.596194 -1.072458 1.000000
17.932224 -10.915827 -0.700089 15.000000
6.325205 -9.029975 -0.044257 32.000000
10.823932 3.245276 -0.752524 1.000000
20.098324 -2.556830 -1.097259 1.000000
17.954575 -10.839441 -0.714064 18.000000
6.319180 -8.954691 -0.055473 35.000000
10.802669 3.282102 -0.747919 1.000000
17.993860 -10.773369 -0.725045 16.000000
6.349016 -8.927333 -0.068832 27.000000
10.776262 3.317270 -0.746927 6.000000
21.569046 -2.579589 -1.184067 1.000000
18.025839 -10.698705 -0.746651 14.000000
10.788095 3.364249 -0.744635 6.000000
21.642206 -2.507917 -1.199013 1.000000
18.073795 -10.646278 -0.758168 46.000000
10.766423 3.400839 -0.740036 23.000000
18.077831 -10.559600 -0.767686 27.000000
22.256083 19.822479 -1.911652 6.000000
10.763035 3.445274 -0.736746 3.000000
26.448881 -2.877939 -1.459504 20.000000
18.115944 -10.492999 -0.782302 22.000000
6.192176 -8.448154 -0.106036 35.000000
22.061945 19.795052 -1.875225 7.000000
10.764818 3.489395 -0.733771 2.000000
26.304573 -2.764722 -1.464863 4.000000
18.184011 -10.443604 -0.801908 21.000000
6.307669 -8.543020 -0.120477 30.000000
21.908768 19.803038 -1.847663 10.000000
10.742839 3.525834 -0.727204 1.000000
26.721811 -2.709591 -1.487535 4.000000
18.562817 -10.575166 -0.831917 9.000000
6.120998 -8.226923 -0.127075 37.000000
21.755573 19.796049 -1.814502 8.000000
10.786906 3.584145 -0.727088 5.000000
26.930052 -2.631024 -1.503318 1.000000
19.001280 -10.732902 -0.861243 9.000000
6.257549 -8.349439 -0.138411 75.000000
21.598953 19.798731 -1.792080 8.000000
10.787886 3.628429 -0.728045 1.000000
19.515224 -10.929051 -0.894446 14.000000
6.245822 -8.270452 -0.150145 48.000000
21.362823 19.740677 -1.753572 10.000000
10.812664 3.680931 -0.724618 1.000000
19.973909 -11.089954 -0.929576 17.000000
21.196032 19.717260 -1.719885 7.000000
10.827406 3.730289 -0.726517 1.000000
32.442055 -2.809786 -1.831985 13.000000
20.543259 -11.307764 -0.974636 27.000000
21.059130 19.741283 -1.694692 7.000000
10.828036 3.774960 -0.723464 1.000000
32.392437 -2.685911 -1.828615 75.000000
21.088413 -11.507327 -1.011093 26.000000
5.969661 -7.732203 -0.170510 37.000000
20.881865 19.705616 -1.665564 7.000000
10.839229 3.819221 -0.721027 1.000000
32.416679 -2.568327 -1.835133 112.000000
21.665865 -11.719576 -1.053941 17.000000
20.702368 19.693939 -1.632522 9.000000
10.824163 3.862828 -0.715010 1.000000
32.439842 -2.450552 -1.853012 216.000000
22.309223 -11.967113 -1.096478 24.000000
20.558645 19.687500 -1.601407 14.000000
10.833637 3.911032 -0.712541 1.000000
32.478882 -2.328115 -1.854718 155.000000
23.079802 -12.271749 -1.154988 16.000000
6.446008 -8.164991 -0.214275 33.000000
20.375963 19.656231 -1.567995 9.000000
10.843019 3.959400 -0.708041 1.000000
32.751167 -2.227008 -1.869788 6.000000
23.809019 -12.547761 -1.203290 27.000000
6.393460 -8.040562 -0.220562 28.000000
20.240456 19.676111 -1.538661 9.000000
10.852075 4.007845 -0.705534 1.000000
6.667003 -0.401932 -0.381606 5.000000
24.593647 -12.846319 -1.255114 34.000000
6.444618 -8.044198 -0.232107 20.000000
20.054531 19.625139 -1.509820 9.000000
10.861032 4.056453 -0.700985 1.000000
6.588623 -0.372975 -0.378195 6.000000
25.553514 -13.228713 -1.321748 7.000000
6.306164 -7.815315 -0.234905 24.000000
19.940731 19.657366 -1.482162 9.000000
10.889060 4.110290 -0.699638 1.000000
6.599916 -0.349352 -0.378767 5.000000
26.156694 -13.419640 -1.365819 26.000000
6.347219 -7.807467 -0.245910 31.000000
19.770254 19.632710 -1.450447 10.000000
10.869487 4.148479 -0.695277 1.000000
6.660866 -0.330432 -0.382200 1.000000
26.178350 -13.309772 -1.379804 28.000000
6.410494 -7.826518 -0.256082 36.000000
19.547245 19.554071 -1.415143 9.000000
10.969255 4.237083 -0.700681 1.000000
6.437676 -0.293459 -0.370451 1.000000
26.792761 -13.498800 -1.425315 8.000000
6.513936 -7.896418 -0.269839 155.000000
19.465662 19.608879 -1.390009 7.000000
29.392815 -14.673938 -1.578001 9.000000
6.657690 -8.010687 -0.283672 24.000000
19.373306 19.659437 -1.369233 7.000000
6.753769 -0.258273 -0.390888 1.000000
6.669343 -7.967963 -0.295686 35.000000
19.186703 19.613348 -1.337114 5.000000
22.540539 -11.052254 -1.240984 7.000000
6.840097 -8.111377 -0.311203 14.000000
18.948484 19.512390 -1.301697 6.000000
6.356275 -0.196423 -0.368903 1.000000
22.791422 -11.071836 -1.265854 6.000000
18.835968 19.532488 -1.274911 6.000000
6.451787 -0.174580 -0.374404 1.000000
23.186722 -11.159016 -1.299036 6.000000
18.685575 19.519205 -1.245934 6.000000
40.016880 16.461094 -2.457065 9.000000
6.452384 -0.150932 -0.374404 1.000000
23.519833 -11.213346 -1.329065 6.000000
6.776787 -7.862073 -0.333447 16.000000
18.459961 19.425560 -1.207508 6.000000
39.957073 16.607983 -2.441961 3.000000
6.517727 -0.130837 -0.378169 1.000000
23.840082 -11.258975 -1.358662 6.000000
6.820376 -7.857016 -0.343329 20.000000
18.403040 19.501537 -1.184784 7.000000
6.573063 -0.107848 -0.381354 1.000000
24.283073 -11.359522 -1.395601 6.000000
6.839017 -7.820405 -0.353714 28.000000
18.212612 19.442007 -1.153812 7.000000
6.473590 -0.082484 -0.375563 1.000000
24.695372 -11.442261 -1.431167 6.000000
6.890551 -7.821298 -0.364002 64.000000
18.053463 19.414246 -1.125052 5.000000
25.008739 -11.476304 -1.461328 6.000000
17.935274 19.429466 -1.103624 1.000000
25.590359 -11.629850 -1.517413 6.000000
17.743084 19.356396 -1.072995 5.000000
6.703515 -0.011700 -0.392393 1.000000
25.841513 -11.629904 -1.544649 6.000000
18.324944 20.138851 -1.088839 12.000000
26.312592 -11.737139 -1.580559 6.000000
23.414679 25.904448 -1.365840 7.000000
26.802643 -11.849325 -1.623017 6.000000
7.261886 -7.955568 -0.426981 6.000000
23.431692 26.105881 -1.341482 6.000000
27.315756 -11.945317 -1.666830 6.000000
23.286917 26.136663 -1.301958 1.000000
27.702803 -12.005298 -1.698581 6.000000
40.941345 46.292053 -2.244475 5.000000
28.240896 -12.104064 -1.744720 6.000000
7.179735 -7.696630 -0.446671 48.000000
29.097597 -12.345204 -1.811444 7.000000
7.053690 -7.506165 -0.446120 37.000000
29.657646 34.021164 -1.552430 3.000000
5.981541 2.828739 -0.331714 1.000000
27.277840 -11.455345 -1.711074 9.000000
6.997179 -7.394137 -0.449812 18.000000
28.622892 33.054825 -1.473434 1.000000
27.356598 -11.381851 -1.724015 8.000000
7.006727 -7.350078 -0.457570 27.000000
28.312841 32.928337 -1.417854 1.000000
30.411180 -12.522167 -1.930889 7.000000
7.016040 -7.306043 -0.465284 22.000000
6.564928 0.228105 -0.382211 1.000000
30.511118 -12.420307 -1.951361 7.000000
26.083551 30.800234 -1.240189 1.000000
31.694696 -12.766895 -2.036021 7.000000
7.273179 -7.466127 -0.497013 175.000000
25.936916 30.833832 -1.202879 8.000000
6.528170 0.274753 -0.380178 1.000000
32.403404 -12.927648 -2.097114 7.000000
7.373645 -7.513961 -0.511202 31.000000
25.542513 30.591877 -1.154971 10.000000
32.904831 -12.988101 -2.138864 4.000000
7.246343 -7.330300 -0.509527 255.000000
25.420380 30.662525 -1.112538 13.000000
6.421351 0.317427 -0.372957 1.000000
33.615955 -13.126595 -2.200911 6.000000
25.320036 30.792227 -1.071768 10.000000
30.911297 -11.927676 -2.032289 13.000000
7.527800 -7.506807 -0.544128 68.000000
25.427933 31.144417 -1.045819 8.000000
30.944481 -11.810361 -2.049019 8.000000
7.615249 -7.538548 -0.557824 96.000000
6.487224 0.393366 -0.375876 1.000000
7.628233 -7.496243 -0.566118 21.000000
6.610488 0.422847 -0.381937 1.000000
7.725317 -7.538821 -0.584592 21.000000
7.673787 -7.433819 -0.584238 1.000000
52.984894 66.802383 -1.890245 29.000000
34.256203 -12.502103 -2.319825 9.000000
16.272038 -15.647995 -1.254244 6.000000
17.486254 -6.316132 -1.189257 6.000000
16.270708 -15.532335 -1.269436 7.000000
17.551186 -6.266960 -1.198635 6.000000
16.323093 -15.468394 -1.288780 6.000000
20.931557 26.975075 -0.661552 8.000000
6.367939 0.524659 -0.366179 1.000000
17.771257 -6.272196 -1.218693 6.000000
16.419786 -15.451595 -1.311889 6.000000
20.826857 27.044224 -0.625613 8.000000
6.385931 0.549713 -0.366205 1.000000
17.873608 -6.234745 -1.234090 7.000000
16.446287 -15.363265 -1.329206 7.000000
20.708363 27.085413 -0.595127 8.000000
16.498140 -15.298854 -1.344620 7.000000
20.645636 27.209480 -0.554446 8.000000
9.069761 -8.348842 -0.747495 34.000000
20.562393 27.316963 -0.519209 8.000000
9.085080 -8.301636 -0.757024 25.000000
6.486530 0.655447 -0.369066 1.000000
9.151916 -8.301361 -0.770877 19.000000
23.806196 32.090157 -0.537008 9.000000
11.807369 -3.875216 -0.834117 1.000000
9.239758 -8.322437 -0.784540 1.000000
23.721037 32.209728 -0.495723 16.000000
6.491541 0.704061 -0.368492 1.000000
11.759522 -3.811826 -0.834079 1.000000
16.567888 -14.813402 -1.421619 6.000000
23.670719 32.377495 -0.455024 10.000000
6.499030 0.728983 -0.365631 1.000000
11.683143 -3.739803 -0.827684 1.000000
16.624870 -14.755063 -1.441337 8.000000
6.620355 0.767172 -0.371445 1.000000
11.653410 -3.683252 -0.833187 1.000000
16.662914 -14.680000 -1.459423 7.000000
26.451340 36.729706 -0.418706 3.000000
11.623696 -3.627056 -0.834377 2.000000
16.719591 -14.621439 -1.475257 6.000000
26.395271 36.936581 -0.372414 13.000000
11.584193 -3.568190 -0.834848 5.000000
16.715580 -14.510158 -1.489603 7.000000
11.611233 -3.529976 -0.840115 1.000000
16.786554 -14.464220 -1.510620 8.000000
27.241488 38.703251 -0.297381 19.000000
11.586337 -3.473864 -0.839464 1.000000
16.759245 -14.333995 -1.515025 8.000000
27.152205 38.863922 -0.248237 9.000000
11.555663 -3.418556 -0.840555 7.000000
16.815563 -14.280829 -1.538814 7.000000
34.327568 49.519886 -0.252395 1.000000
11.567832 -3.376097 -0.844761 8.000000
16.855526 -14.208761 -1.553161 7.000000
34.330372 49.895016 -0.179700 1.000000
21.068718 2.904788 -1.166727 1.000000
11.570401 -3.330876 -0.846164 1.000000
16.845665 -14.095156 -1.559040 8.000000
34.409515 50.404659 -0.127821 9.000000
20.969555 2.969475 -1.150708 1.000000
11.567994 -3.284318 -0.847211 4.000000
16.846285 -13.991021 -1.573548 8.000000
34.079159 50.296883 -0.063622 17.000000
20.997322 3.055693 -1.156582 1.000000
11.579526 -3.241778 -0.853507 4.000000
16.992798 -14.007783 -1.597882 8.000000
33.948044 50.481949 0.000000 1.000000
20.932257 3.124612 -1.142507 4.000000
11.591330 -3.199315 -0.853507 6.000000
16.969610 -13.884521 -1.610142 7.000000
34.073570 51.071850 0.064293 13.000000
20.866575 3.193035 -1.135857 3.000000
11.563902 -3.146177 -0.859042 2.000000
16.980803 -13.790086 -1.621752 8.000000
34.060658 51.440525 0.129214 4.000000
20.864792 3.271070 -1.132709 1.000000
11.575606 -3.101674 -0.863225 3.000000
17.037888 -13.733120 -1.641589 8.000000
33.885517 51.585773 0.193899 8.000000
5.260739 3.434668 -0.170005 1.000000
20.798630 3.338848 -1.126087 1.000000
11.615829 -3.066866 -0.865380 2.000000
17.044609 -13.635780 -1.648904 7.000000
33.800709 51.850182 0.248462 7.000000
5.277439 3.473226 -0.166541 1.000000
21.086987 3.464465 -1.138638 2.000000
11.583407 -3.012934 -0.864236 3.000000
17.077948 -13.560097 -1.662622 7.000000
33.666420 52.020454 0.324446 1.000000
5.348716 3.546954 -0.163576 1.000000
20.923313 3.508870 -1.119283 4.000000
11.603740 -2.972859 -0.869138 4.000000
17.149879 -13.515023 -1.683958 8.000000
20.866213 3.577973 -1.113217 4.000000
11.638736 -2.936409 -0.870947 7.000000
17.147558 -13.411605 -1.690358 7.000000
21.388832 33.586678 0.291893 6.000000
21.005806 3.681213 -1.113912 3.000000
11.644284 -2.892455 -0.874773 7.000000
9.253448 -7.182885 -0.917805 28.000000
21.131905 33.453217 0.331497 8.000000
20.869488 3.736215 -1.103692 1.000000
11.640126 -2.846168 -0.875774 8.000000
9.259203 -7.133121 -0.928093 31.000000
21.120987 33.695862 0.381759 10.000000
21.008488 3.840621 -1.100568 2.000000
11.665217 -2.804878 -0.881055 7.000000
9.308656 -7.117005 -0.936603 25.000000
20.946108 33.651329 0.422020 8.000000
11.699381 -2.767773 -0.887083 7.000000
9.365917 -7.106541 -0.947998 3.000000
20.888004 33.833767 0.471929 7.000000
11.719312 -2.727170 -0.885719 8.000000
17.329889 -13.049527 -1.760675 8.000000
19.445457 31.744539 0.480828 109.000000
11.753231 -2.689690 -0.891763 1.000000
17.352661 -12.967284 -1.773372 7.000000
19.292366 31.755333 0.518835 140.000000
61.848518 43.371181 -1.503200 1.000000
11.792046 -2.653127 -0.896085 1.000000
17.415085 -12.914730 -1.790141 7.000000
22.159447 36.763142 0.644348 69.000000
11.884459 -2.628193 -0.902370 1.000000
17.432945 -12.829209 -1.806150 7.000000
21.994642 36.779499 0.695654 255.000000
61.563061 43.831497 -1.371900 9.000000
12.991737 2.671547 -0.660300 37.000000
11.986735 -2.602575 -0.913675 1.000000
17.410936 -12.714901 -1.806607 7.000000
21.846556 36.837719 0.740099 226.000000
61.451496 44.092361 -1.320187 1.000000
12.903766 2.702789 -0.654021 1.000000
12.054553 -2.571072 -0.920283 1.000000
9.710549 -7.037017 -1.013342 7.000000
21.757992 36.982006 0.786415 11.000000
12.097899 -2.533994 -0.925047 1.000000
9.719374 -6.989224 -1.022105 10.000000
61.031116 44.455723 -1.186138 19.000000
12.137464 2.635302 -0.605279 1.000000
12.185247 -2.505705 -0.931017 1.000000
9.728415 -6.941773 -1.024576 12.000000
12.259802 2.708955 -0.603085 1.000000
12.271524 -2.481061 -0.939173 1.000000
5.958854 -4.212862 -0.632048 7.000000
37.156033 27.473951 -0.661393 9.000000
12.069604 2.713363 -0.592050 1.000000
12.525608 -2.480137 -0.962331 1.000000
6.010592 -4.216483 -0.641056 4.000000
59.939259 44.661076 -0.991559 13.000000
11.870096 2.714254 -0.574228 1.000000
12.749703 -2.478291 -0.976598 3.000000
59.963879 45.022156 -0.916153 14.000000
12.941118 -2.461629 -0.985871 4.000000
23.539013 42.031933 1.227835 19.000000
59.795124 45.222698 -0.837461 13.000000
13.154893 -2.457119 -1.003879 2.000000
6.138749 -4.204863 -0.660145 1.000000
59.637592 45.448116 -0.759053 7.000000
13.306216 -2.434946 -1.012365 2.000000
6.022117 -4.092627 -0.648547 1.000000
23.419975 42.163933 1.330383 19.000000
59.789299 45.547241 -0.682167 12.000000
6.069106 -4.140063 -0.645338 1.000000
23.645721 42.222473 1.292565 8.000000
59.760311 45.196369 -0.706188 4.000000
13.171803 -2.460277 -0.974601 3.000000
23.618948 41.814438 1.240777 1.000000
59.909256 44.964794 -0.745221 23.000000
13.020967 -2.481527 -0.959455 4.000000
60.029343 44.711906 -0.770801 18.000000
12.008805 2.743767 -0.537827 1.000000
12.869868 -2.503980 -0.942122 2.000000
6.028845 -4.210475 -0.623960 6.000000
37.133469 27.457268 -0.507820 10.000000
12.233041 2.747862 -0.551800 1.000000
12.762928 -2.531758 -0.932684 4.000000
5.972983 -4.204116 -0.614633 7.000000
12.364781 2.729887 -0.561716 1.000000
12.597764 -2.547020 -0.912272 4.000000
9.742401 -6.900558 -0.994126 8.000000
61.179520 44.547482 -0.898226 16.000000
12.447143 -2.564089 -0.895352 1.000000
9.750194 -6.959882 -0.986992 1.000000
21.773386 36.993397 0.906655 11.000000
92.035080 66.499962 -1.426937 219.000000
13.045057 2.775192 -0.589302 1.000000
12.413408 -2.604604 -0.891381 1.000000
17.460009 -12.560157 -1.756971 8.000000
21.869701 36.862080 0.860398 233.000000
92.338943 66.230156 -1.507400 17.000000
12.980750 2.716549 -0.588306 6.000000
12.204244 -2.607453 -0.870475 1.000000
17.383055 -12.601737 -1.731232 7.000000
21.996124 36.781975 0.815418 255.000000
61.627808 43.861385 -1.056239 1.000000
12.096960 -2.633141 -0.859196 1.000000
17.426264 -12.730758 -1.725007 7.000000
22.136311 36.710266 0.778200 91.000000
61.992031 43.779194 -1.086221 1.000000
11.995133 -2.657060 -0.846186 1.000000
17.420589 -12.824803 -1.713889 8.000000
19.328005 31.801485 0.649579 158.000000
61.639812 43.192730 -1.116686 23.000000
11.946671 -2.692298 -0.839163 1.000000
17.362890 -12.880720 -1.690066 8.000000
19.452614 31.743782 0.610854 133.000000
21.399012 4.151795 -0.978407 1.000000
11.820170 -2.709352 -0.828842 1.000000
17.372400 -12.986761 -1.680379 8.000000
19.595152 31.727257 0.572788 80.000000
21.547667 4.090952 -0.992117 1.000000
11.805585 -2.751590 -0.824270 1.000000
17.309689 -13.039051 -1.663706 7.000000
20.976852 33.700722 0.568155 9.000000
103.128830 70.613785 -2.094381 10.000000
21.718412 4.048799 -0.995491 1.000000
11.844381 -2.806442 -0.821289 1.000000
9.356339 -7.101849 -0.889400 23.000000
21.116482 33.649509 0.526983 9.000000
103.427208 70.289055 -2.182772 10.000000
11.751842 -2.830046 -0.811347 1.000000
9.299055 -7.112237 -0.878207 28.000000
21.214270 33.570625 0.499060 9.000000
11.780797 -2.880563 -0.811909 1.000000
9.260100 -7.131238 -0.868551 13.000000
21.416365 33.591080 0.451961 8.000000
61.239063 40.965034 -1.363223 12.000000
11.722288 -2.911831 -0.800137 1.000000
9.235932 -7.171873 -0.858718 3.000000
26.027988 40.511646 0.504269 9.000000
61.592091 40.875217 -1.419363 1.000000
11.715612 -2.960155 -0.796250 1.000000
17.167227 -13.431820 -1.585404 8.000000
29.754179 19.596920 -0.708974 1.000000
11.709651 -3.004349 -0.794469 1.000000
17.126581 -13.501509 -1.570904 7.000000
46.432449 71.145782 0.711751 1.000000
29.716579 19.416367 -0.731170 6.000000
11.636062 -3.030967 -0.786009 1.000000
17.058521 -13.549527 -1.550098 7.000000
46.763256 71.109085 0.638737 1.000000
29.682459 19.239208 -0.740943 8.000000
11.740909 -3.104274 -0.789597 1.000000
17.083992 -13.672179 -1.533927 7.000000
29.777670 19.146296 -0.760108 8.000000
11.701764 -3.135478 -0.785537 1.000000
17.017576 -13.716747 -1.516920 7.000000
34.194214 51.194595 0.343842 1.000000
29.683733 18.939770 -0.780611 5.000000
11.747121 -3.198228 -0.785169 1.000000
16.975750 -13.785981 -1.502346 8.000000
34.370636 51.052605 0.279281 1.000000
11.812231 -3.264724 -0.781762 1.000000
16.934038 -13.855415 -1.480119 8.000000
34.399120 50.750031 0.224712 1.000000
21.190683 3.068727 -0.998516 1.000000
11.796797 -3.302604 -0.777168 1.000000
16.953424 -13.975326 -1.467021 8.000000
34.429890 50.396717 0.159789 1.000000
21.345037 3.011247 -1.009033 1.000000
11.770473 -3.341805 -0.771947 1.000000
16.902872 -14.038018 -1.451682 8.000000
34.589180 50.214836 0.095779 1.000000
21.281536 2.922776 -1.009275 1.000000
11.800376 -3.401542 -0.770494 1.000000
16.890537 -14.132701 -1.435760 7.000000
34.547638 49.781658 0.031727 2.000000
11.883885 -3.472840 -0.772434 1.000000
16.869905 -14.220883 -1.422958 7.000000
27.178650 38.858421 -0.024829 8.000000
11.789992 -3.492355 -0.762849 1.000000
16.814808 -14.280188 -1.403386 6.000000
27.231482 38.674694 -0.066043 16.000000
11.917101 -3.573035 -0.769656 1.000000
16.785847 -14.361819 -1.389868 7.000000
12.124092 -3.683581 -0.775011 1.000000
16.737968 -14.427446 -1.367042 8.000000
26.344318 36.851681 -0.142314 1.000000
6.877147 0.788416 -0.328864 2.000000
11.948591 -3.678149 -0.760269 1.000000
16.744932 -14.535637 -1.352323 7.000000
26.673229 36.996952 -0.191050 2.000000
6.929572 0.768705 -0.332454 3.000000
12.176950 -3.802025 -0.771295 1.000000
16.650925 -14.561389 -1.333533 7.000000
6.813161 0.730522 -0.326738 1.000000
12.016080 -3.797880 -0.761940 1.000000
16.620605 -14.642725 -1.319874 7.000000
11.982353 -3.840193 -0.749753 1.000000
16.705978 -14.827049 -1.307488 7.000000
23.783619 32.259315 -0.286804 7.000000
19.744852 -6.407873 -1.229653 6.000000
16.573887 -14.818765 -1.289711 8.000000
19.645769 -6.455400 -1.217704 7.000000
9.246857 -8.328830 -0.708848 18.000000
19.506235 -6.481299 -1.203181 4.000000
9.139084 -8.292630 -0.692108 26.000000
20.590082 27.323961 -0.340378 8.000000
9.066212 -8.284394 -0.680174 32.000000
20.617298 27.152447 -0.374887 8.000000
9.039892 -8.321347 -0.669729 25.000000
20.702635 27.068130 -0.404460 8.000000
9.045549 -8.382137 -0.663569 1.000000
20.804489 26.995678 -0.440210 8.000000
16.379089 -15.300493 -1.182505 7.000000
20.965794 27.009466 -0.471469 8.000000
6.723460 0.499639 -0.328559 1.000000
34.257977 -12.084303 -2.056427 10.000000
16.385317 -15.419158 -1.171275 7.000000
6.635519 0.468656 -0.325339 1.000000
34.195988 -12.203551 -2.029949 30.000000
16.333052 -15.483243 -1.151896 7.000000
52.853065 67.091949 -1.341719 1.000000
34.016254 -12.293571 -2.003196 33.000000
53.178516 66.998451 -1.433337 9.000000
34.223843 -12.497063 -2.017850 7.000000
7.674284 -7.379971 -0.526313 29.000000
34.024872 -12.579431 -1.983678 11.000000
7.590118 -7.352767 -0.513142 36.000000
6.611767 0.368498 -0.325030 1.000000
7.591968 -7.408690 -0.507676 35.000000
6.817608 0.354909 -0.333888 1.000000
7.445254 -7.316431 -0.490441 45.000000
30.980694 -11.830377 -1.772806 10.000000
7.401060 -7.326517 -0.476544 30.000000
25.442280 30.918888 -0.845732 5.000000
30.905382 -11.931592 -1.753592 9.000000
7.380495 -7.354777 -0.469499 36.000000
25.525032 30.777826 -0.893423 10.000000
6.571438 0.269680 -0.325119 1.000000
33.656883 -13.135806 -1.912432 6.000000
25.720490 30.783188 -0.931333 10.000000
6.607315 0.246898 -0.326848 1.000000
32.963814 -13.004733 -1.857141 7.000000
7.408576 -7.497028 -0.458345 33.000000
25.930128 30.814842 -0.977221 1.000000
6.598193 0.222343 -0.326354 1.000000
32.383732 -12.913249 -1.802709 5.000000
7.505098 -7.647916 -0.456597 74.000000
31.721071 -12.783956 -1.750463 7.000000
7.100813 -7.289188 -0.424727 38.000000
28.309607 33.146290 -1.133838 1.000000
6.639525 0.175022 -0.329488 1.000000
31.073355 -12.655502 -1.705526 6.000000
7.098615 -7.340568 -0.417276 10.000000
28.359159 32.970566 -1.176780 4.000000
5.991638 2.824562 -0.281104 1.000000
30.394936 -12.509274 -1.653540 7.000000
7.256602 -7.556547 -0.418953 7.000000
28.610052 33.016705 -1.220315 1.000000
6.155801 2.874422 -0.289497 5.000000
6.555863 0.124734 -0.322988 1.000000
27.297186 -11.351543 -1.471753 9.000000
7.232554 -7.586972 -0.410006 34.000000
29.620893 33.931149 -1.297455 6.000000
27.407803 -11.515551 -1.469579 8.000000
7.043535 -7.443123 -0.391878 19.000000
6.801288 0.079536 -0.335041 1.000000
29.044033 -12.328461 -1.543164 7.000000
7.002754 -7.454568 -0.382189 169.000000
54.318726 61.331409 -2.488790 1.000000
6.836500 0.053695 -0.336763 1.000000
28.246634 -12.112359 -1.487015 7.000000
7.140562 -7.654636 -0.380189 38.000000
54.534435 61.122143 -2.588566 1.000000
6.621799 0.027737 -0.328497 1.000000
27.697952 -11.997454 -1.460436 6.000000
7.173748 -7.746943 -0.376084 3.000000
6.831598 0.003577 -0.338902 1.000000
27.329628 -11.957066 -1.427660 6.000000
18.322926 20.271269 -0.906463 7.000000
26.770084 -11.829345 -1.385327 6.000000
7.145511 -7.828077 -0.359010 5.000000
18.362806 20.166313 -0.933367 8.000000
26.270855 -11.713024 -1.341370 6.000000
7.167353 -7.910037 -0.350371 10.000000
25.909163 -11.665788 -1.320106 6.000000
6.866415 -7.623250 -0.329594 35.000000
25.539484 -11.612109 -1.288710 6.000000
25.007118 -11.480844 -1.249524 6.000000
6.822684 -7.689980 -0.310500 53.000000
25.654404 27.376560 -1.415078 9.000000
24.639174 -11.421447 -1.218973 6.000000
7.052278 -8.007688 -0.312963 28.000000
25.642803 27.144962 -1.454105 9.000000
40.094898 16.829645 -2.111496 7.000000
6.839426 -0.167152 -0.341785 1.000000
24.199598 -11.325621 -1.185254 6.000000
25.669823 26.993679 -1.483110 9.000000
40.058781 16.642059 -2.121546 178.000000
6.858735 -0.192780 -0.342783 1.000000
23.973307 -11.327012 -1.162286 6.000000
25.788420 26.920116 -1.516837 8.000000
40.243179 16.545971 -2.150923 9.000000
6.833025 -0.217124 -0.341536 1.000000
7.109249 -8.250689 -0.292801 37.000000
25.909050 26.857735 -1.551029 6.000000
34.602833 -16.660656 -1.643215 17.000000
19.050442 19.603685 -1.160031 6.000000
33.270779 -16.169777 -1.563359 10.000000
6.674582 -7.853710 -0.255494 40.000000
19.173712 19.572716 -1.186698 6.000000
31.783537 -15.584353 -1.489833 14.000000
6.588346 -7.815603 -0.246251 36.000000
19.300999 19.579226 -1.214801 5.000000
7.003763 -0.325389 -0.349044 1.000000
30.450840 -15.069587 -1.412122 10.000000
6.441926 -7.690809 -0.232920 16.000000
19.530258 19.667084 -1.248921 7.000000
6.778142 -0.339808 -0.336672 1.000000
29.426626 -14.697234 -1.338361 10.000000
6.484626 -7.805224 -0.224963 255.000000
19.664810 19.644228 -1.276779 9.000000
6.906503 -0.371625 -0.343113 1.000000
6.419291 -7.781687 -0.214830 30.000000
19.803495 19.651997 -1.305944 9.000000
6.800328 -0.392104 -0.337911 7.000000
26.201788 -13.327444 -1.175547 31.000000
6.340195 -7.743446 -0.202647 20.000000
19.988544 19.697626 -1.338150 10.000000
6.888626 -0.422533 -0.341166 6.000000
26.122194 -13.407699 -1.158774 30.000000
6.308261 -7.756780 -0.195464 27.000000
20.081354 19.644527 -1.359191 8.000000
25.328079 -13.117614 -1.110715 29.000000
6.278556 -7.781100 -0.184994 31.000000
20.273821 19.687910 -1.401934 8.000000
24.549696 -12.828815 -1.064110 24.000000
6.237574 -7.788550 -0.177658 76.000000
20.427645 19.692326 -1.432393 8.000000
32.743248 -2.237952 -1.628116 1.000000
23.751801 -12.522904 -1.012735 32.000000
6.356699 -7.994329 -0.171146 19.000000
20.574718 19.689129 -1.457569 8.000000
32.590382 -2.347543 -1.620932 8.000000
23.064001 -12.263348 -0.980662 29.000000
6.289964 -7.964476 -0.161201 22.000000
20.783554 19.750450 -1.492557 7.000000
32.501881 -2.460944 -1.616968 25.000000
22.314856 -11.970136 -0.937391 10.000000
6.145349 -7.843091 -0.147828 38.000000
21.003563 19.813530 -1.533453 7.000000
32.488285 -2.568295 -1.622409 43.000000
21.673307 -11.718714 -0.899150 15.000000
21.096924 19.755970 -1.560267 7.000000
32.463718 -2.686117 -1.621662 46.000000
21.060600 -11.496922 -0.867252 23.000000
6.026402 -7.802881 -0.130784 78.000000
21.197439 19.704771 -1.587680 6.000000
32.409161 -2.801239 -1.613748 23.000000
20.519724 -11.299477 -0.834398 19.000000
21.437262 19.781734 -1.625734 7.000000
11.040061 3.754044 -0.668277 1.000000
32.437725 -2.934940 -1.610045 94.000000
19.915287 -11.061954 -0.791558 30.000000
21.593458 19.786758 -1.657971 7.000000
10.949313 3.678470 -0.668032 1.000000
32.570934 -3.067389 -1.617204 9.000000
19.521730 -10.937171 -0.769683 9.000000
6.332063 -8.387691 -0.108224 40.000000
21.757292 19.790670 -1.685570 7.000000
10.886702 3.613084 -0.667417 1.000000
19.005398 -10.735228 -0.731728 9.000000
6.061519 -8.090817 -0.093519 34.000000
22.006657 19.884541 -1.730934 9.000000
10.827662 3.551580 -0.671016 1.000000
26.875147 -2.720400 -1.325857 3.000000
18.557228 -10.563403 -0.712087 8.000000
6.033133 -8.105872 -0.084654 39.000000
22.155787 19.858320 -1.762434 9.000000
10.827361 3.503404 -0.674106 1.000000
26.666327 -2.798038 -1.316052 5.000000
18.203119 -10.458804 -0.685432 27.000000
6.021378 -8.158251 -0.074329 30.000000
22.342857 19.878796 -1.797698 10.000000
10.849413 3.466662 -0.678674 1.000000
26.540466 -2.892591 -1.315074 8.000000
18.147778 -10.515667 -0.670137 15.000000
6.125871 -8.360753 -0.068743 25.000000
10.890149 3.435740 -0.688430 1.000000
26.446070 -2.975750 -1.306247 8.000000
18.095646 -10.565770 -0.665841 19.000000
6.218755 -8.546828 -0.060878 15.000000
10.839314 3.380221 -0.688482 1.000000
21.682739 -2.520284 -1.071422 1.000000
18.070015 -10.639805 -0.655338 24.000000
10.808471 3.327185 -0.689706 1.000000
21.693378 -2.602140 -1.068589 1.000000
18.069962 -10.729158 -0.642072 21.000000
10.821509 3.283700 -0.693654 1.000000
18.015532 -10.782074 -0.630468 23.000000
10.852127 3.249602 -0.702787 1.000000
18.001755 -10.863638 -0.624029 22.000000
6.280439 -8.896497 -0.022808 21.000000
10.838917 3.206518 -0.701239 4.000000
17.983532 -10.942759 -0.610075 24.000000
6.272311 -8.951138 -0.011446 32.000000
10.841884 3.160121 -0.704562 1.000000
20.589163 -2.776446 -1.008823 1.000000
17.947832 -11.011376 -0.599195 24.000000
6.282280 -9.035650 0.000000 18.000000
10.847033 3.122633 -0.712131 1.000000
20.618248 -2.857351 -1.014396 1.000000
17.890530 -11.066678 -0.591282 17.000000
6.066103 -8.790035 0.007456 22.000000
10.844839 3.074914 -0.715121 6.000000
20.484030 -2.915309 -1.008312 1.000000
17.886066 -11.150429 -0.577692 24.000000
6.013820 -8.789541 0.020447 30.000000
10.851276 3.031772 -0.722671 1.000000
20.008522 -2.922494 -0.988964 1.000000
17.845333 -11.216068 -0.566656 20.000000
5.786462 -8.520917 0.028763 26.000000
10.866883 2.993238 -0.726925 3.000000
20.200344 -3.026171 -0.995413 1.000000
17.812716 -11.286856 -0.559564 18.000000
5.774932 -8.564914 0.036058 29.000000
10.891980 2.957244 -0.731830 5.000000
20.105371 -3.087329 -0.987725 1.000000
17.780136 -11.357758 -0.537735 16.000000
5.692142 -8.506032 0.046445 32.000000
10.868636 2.908176 -0.735457 1.000000
19.995083 -3.145449 -0.986408 2.000000
17.742746 -11.425655 -0.530496 14.000000
5.699381 -8.591265 0.057582 29.000000
10.887619 2.874600 -0.740040 1.000000
20.254942 -3.262448 -0.992632 1.000000
17.732414 -11.506766 -0.516618 16.000000
5.661336 -8.592392 0.064654 41.000000
10.926801 2.842146 -0.745948 1.000000
20.341574 -3.352937 -0.993867 1.000000
17.711260 -11.585508 -0.506148 23.000000
5.722774 -8.755317 0.076675 22.000000
10.917434 2.797028 -0.750531 1.000000
20.136915 -3.395060 -0.988041 1.000000
17.668823 -11.650442 -0.498760 21.000000
5.958787 -9.186255 0.089822 29.000000
10.965798 2.766629 -0.761084 1.000000
20.305651 -3.503745 -1.000578 1.000000
9.987040 -6.637886 -0.278413 1.000000
5.926631 -9.206915 0.101289 34.000000
11.000767 2.728528 -0.766719 1.000000
14.248272 -2.512355 -0.700014 1.000000
9.930741 -6.650562 -0.269141 1.000000
5.919714 -9.270653 0.109430 32.000000
11.000141 2.687648 -0.771974 1.000000
14.313473 -2.572821 -0.706176 1.000000
9.852514 -6.650610 -0.263528 1.000000
5.900633 -9.312274 0.121224 30.000000
11.058156 2.658911 -0.779344 1.000000
14.058462 -2.580211 -0.691556 1.000000
9.844754 -6.698026 -0.255659 1.000000
6.023374 -9.583492 0.134345 21.000000
11.183792 2.645797 -0.795572 1.000000
14.038174 -2.634781 -0.691073 1.000000
9.865561 -6.765212 -0.252664 1.000000
5.648515 -9.057092 0.137868 32.000000
11.227286 2.612671 -0.800000 1.000000
13.440828 -2.568838 -0.659689 1.000000
17.520702 -12.104785 -0.434923 10.000000
5.546834 -8.967080 0.145391 24.000000
11.425861 2.614773 -0.821684 1.000000
13.328270 -2.597996 -0.657003 1.000000
17.484549 -12.174720 -0.427690 20.000000
5.518059 -8.990560 0.152824 17.000000
17.427711 -12.230233 -0.416242 22.000000
5.515159 -9.056594 0.164725 24.000000
11.809414 2.609436 -0.862685 1.000000
17.395130 -12.302770 -0.409097 14.000000
5.551635 -9.192164 0.176194 20.000000
11.818751 2.566103 -0.864796 1.000000
12.868482 -2.655567 -0.635739 1.000000
17.380808 -12.383884 -0.394870 10.000000
5.611938 -9.365733 0.188675 5.000000
12.066623 2.573646 -0.888730 1.000000
12.824451 -2.695524 -0.634048 1.000000
17.359777 -12.465080 -0.387965 11.000000
12.291411 -20.684645 0.436790 31.000000
12.260839 2.568123 -0.911126 1.000000
12.599501 -2.696499 -0.625664 6.000000
17.318186 -12.531671 -0.376863 13.000000
12.272209 -20.817457 0.464002 38.000000
12.347852 2.539142 -0.923531 1.000000
12.574893 -2.739471 -0.624937 3.000000
17.292440 -12.609865 -0.369833 22.000000
12.219448 -20.894333 0.485893 38.000000
12.576674 2.535902 -0.951167 1.000000
12.368945 -2.744394 -0.621871 1.000000
17.266304 -12.688002 -0.366526 14.000000
12.207857 -21.051191 0.501244 38.000000
12.658111 2.552323 -0.979990 1.000000
12.353242 -2.740910 -0.643221 1.000000
17.261789 -12.684684 -0.400089 10.000000
12.210622 -21.055958 0.475858 35.000000
12.359763 2.541591 -0.962070 1.000000
12.426075 -2.709322 -0.657620 1.000000
17.279423 -12.600371 -0.429296 19.000000
12.203633 -20.875650 0.438968 54.000000
12.232764 2.562243 -0.959492 1.000000
12.547764 -2.687717 -0.672517 1.000000
17.294645 -12.519235 -0.447225 10.000000
12.270208 -20.814064 0.404870 29.000000
11.965199 2.552014 -0.934937 1.000000
12.654905 -2.662194 -0.684522 1.000000
17.340025 -12.455483 -0.469583 19.000000
12.304690 -20.706991 0.378389 31.000000
11.804735 2.563059 -0.923126 1.000000
12.722901 -2.627840 -0.694496 1.000000
17.387056 -12.397489 -0.492056 10.000000
11.624725 2.568626 -0.911870 1.000000
17.399305 -12.310278 -0.513454 10.000000
5.510552 -9.124141 0.139535 20.000000
17.435827 -12.240471 -0.528086 12.000000
5.500857 -9.036658 0.125563 33.000000
11.420603 2.613569 -0.895314 1.000000
17.465761 -12.170693 -0.546292 12.000000
5.529829 -9.013264 0.112585 27.000000
11.226429 2.612472 -0.880837 1.000000
17.501551 -12.100580 -0.568317 9.000000
5.562887 -8.993032 0.101511 10.000000
11.134598 2.634159 -0.870366 1.000000
13.557323 -2.542083 -0.768767 1.000000
9.920578 -6.805485 -0.329738 1.000000
5.631328 -9.033043 0.091036 25.000000
11.018517 2.649380 -0.858067 5.000000
13.595877 -2.497763 -0.772849 1.000000
9.824272 -6.689108 -0.334063 1.000000
5.662873 -9.013408 0.079889 223.000000
11.047333 2.699178 -0.863072 1.000000
9.848427 -6.652856 -0.346509 1.000000
5.760128 -9.094041 0.067638 17.000000
10.984428 2.726511 -0.854959 9.000000
14.448919 -2.545134 -0.833100 1.000000
9.939019 -6.661132 -0.355105 1.000000
5.910243 -9.259382 0.055600 8.000000
10.944872 2.761350 -0.852699 1.000000
14.403605 -2.482757 -0.837635 1.000000
17.655941 -11.743910 -0.651576 9.000000
5.920918 -9.205098 0.043936 24.000000
10.901156 2.792858 -0.846135 1.000000
19.196932 -3.236580 -1.119101 1.000000
17.656769 -11.651339 -0.664809 27.000000
5.780542 -8.914873 0.031525 61.000000
10.842593 2.820243 -0.842386 2.000000
19.902931 -3.280635 -1.163081 2.000000
17.702944 -11.588897 -0.687124 26.000000
5.625669 -8.610037 0.017951 27.000000
10.870893 2.870184 -0.843423 1.000000
19.465765 -3.135336 -1.147213 4.000000
17.724041 -11.510128 -0.697378 24.000000
5.680442 -8.627944 0.007212 15.000000
10.816955 2.898394 -0.840057 1.000000
19.516376 -3.070143 -1.152985 4.000000
17.734083 -11.428837 -0.718317 14.000000
5.825384 -8.777876 -0.005516 65.000000
10.816164 2.940714 -0.836892 9.000000
19.408892 -2.980379 -1.149421 5.000000
17.771217 -11.360799 -0.732873 12.000000
5.864321 -8.769947 -0.016572 28.000000
10.810401 2.981741 -0.833350 7.000000
19.335567 -2.896621 -1.147866 7.000000
17.803581 -11.281069 -0.747066 13.000000
6.016575 -8.926660 -0.028183 22.000000
10.832765 3.032716 -0.832017 3.000000
19.300024 -2.825890 -1.155442 6.000000
17.836103 -11.218955 -0.765277 27.000000
5.881946 -8.661523 -0.040202 12.000000
10.783202 3.061505 -0.829067 3.000000
19.423294 -2.771262 -1.172515 4.000000
17.861982 -11.148405 -0.779433 24.000000
5.909295 -8.636773 -0.051141 28.000000
10.824897 3.116261 -0.829192 8.000000
19.646641 -2.722702 -1.188803 3.000000
17.898125 -11.080017 -0.790270 16.000000
6.014682 -8.722034 -0.061022 24.000000
10.803829 3.153121 -0.828457 1.000000
19.740833 -2.658541 -1.197365 2.000000
17.933643 -11.011289 -0.812120 30.000000
6.344586 -9.132065 -0.077632 38.000000
10.797257 3.194194 -0.824894 1.000000
20.017467 -2.621134 -1.217090 1.000000
17.939379 -10.924474 -0.821576 15.000000
6.340683 -9.055433 -0.088754 27.000000
10.800082 3.238126 -0.822054 1.000000
20.168982 -2.572973 -1.236461 1.000000
17.970249 -10.853185 -0.835841 13.000000
6.478822 -9.184316 -0.103971 22.000000
10.822391 3.286030 -0.820651 1.000000
20.163631 -2.497219 -1.232005 1.000000
18.011805 -10.792656 -0.850699 18.000000
6.639852 -9.339727 -0.116007 15.000000
10.780652 3.320681 -0.816512 1.000000
21.043646 -2.527930 -1.303764 2.000000
18.033415 -10.715975 -0.868196 24.000000
6.681059 -9.328564 -0.130177 18.000000
10.789034 3.362475 -0.812038 1.000000
21.474583 -2.499888 -1.322311 2.000000
18.072044 -10.649497 -0.882840 23.000000
6.647839 -9.210677 -0.138785 8.000000
10.785094 3.408807 -0.810781 1.000000
21.592010 -2.433381 -1.340404 2.000000
18.106243 -10.580434 -0.893611 30.000000
6.409372 -8.815272 -0.144579 39.000000
10.763297 3.445359 -0.806121 1.000000
21.808916 -2.376909 -1.357163 1.000000
18.135712 -10.508677 -0.907818 22.000000
6.284940 -8.577854 -0.152200 36.000000
20.517948 18.409702 -1.874451 7.000000
10.785295 3.491872 -0.804654 1.000000
22.234135 -2.340825 -1.386998 3.000000
18.163206 -10.440089 -0.918355 14.000000
6.282072 -8.511461 -0.164337 39.000000
20.266254 18.318392 -1.838420 7.000000
10.762945 3.528271 -0.803946 1.000000
26.502413 -2.692017 -1.652633 8.000000
18.504423 -10.546177 -0.952270 11.000000
6.189361 -8.324871 -0.170206 35.000000
20.288225 18.467339 -1.822201 7.000000
10.769274 3.574112 -0.799421 1.000000
26.755178 -2.618654 -1.672495 7.000000
19.007668 -10.740887 -0.991408 10.000000
6.234708 -8.321987 -0.181505 100.000000
20.957029 19.217041 -1.863662 7.000000
10.788197 3.628533 -0.797908 1.000000
32.538021 -3.058560 -2.038964 7.000000
19.473484 -10.910140 -1.025324 24.000000
6.206385 -8.224199 -0.190637 29.000000
21.052095 19.446733 -1.863372 7.000000
10.789895 3.671078 -0.794979 1.000000
19.997198 -11.107452 -1.070753 15.000000
6.212134 -8.169372 -0.202435 43.000000
21.153543 19.684624 -1.853404 9.000000
10.767195 3.707443 -0.790308 1.000000
20.509945 -11.294091 -1.104175 19.000000
5.994309 -7.826066 -0.201331 23.000000
21.016897 19.701694 -1.822504 9.000000
10.763346 3.750300 -0.785032 1.000000
32.444286 -2.690211 -2.048227 8.000000
21.113823 -11.530759 -1.155553 36.000000
6.093043 -7.894862 -0.215863 36.000000
20.804193 19.646053 -1.785222 10.000000
10.806238 3.809718 -0.785155 1.000000
32.478447 -2.573221 -2.055483 22.000000
21.739336 -11.769131 -1.204717 24.000000
6.086676 -7.829951 -0.225058 34.000000
20.653433 19.640522 -1.753190 10.000000
10.806557 3.854419 -0.782176 1.000000
32.422970 -2.449278 -2.051390 102.000000
22.380215 -12.010226 -1.251116 21.000000
6.235418 -7.960904 -0.238307 23.000000
20.535553 19.672256 -1.724383 10.000000
10.816203 3.902605 -0.777856 1.000000
32.511009 -2.336122 -2.062116 29.000000
23.150967 -12.314771 -1.305435 22.000000
6.468771 -8.196766 -0.257017 113.000000
20.313332 19.602657 -1.691965 7.000000
10.792454 3.938801 -0.777181 1.000000
6.543226 -0.419691 -0.418256 1.000000
23.861933 -12.580971 -1.366515 31.000000
6.556266 -8.248264 -0.270388 33.000000
20.156506 19.594501 -1.660255 9.000000
10.837769 4.004713 -0.775518 1.000000
6.470010 -0.391189 -0.413481 7.000000
24.712713 -12.914002 -1.427155 7.000000
6.356421 -7.934111 -0.273317 16.000000
20.007118 19.592419 -1.629333 7.000000
10.815335 4.037235 -0.770819 1.000000
6.431410 -0.366328 -0.412059 7.000000
25.601431 -13.259186 -1.495843 9.000000
6.335475 -7.854445 -0.280108 25.000000
19.836199 19.554321 -1.601175 8.000000
10.880191 4.106942 -0.770393 1.000000
6.452641 -0.343815 -0.413336 8.000000
26.133112 -13.424829 -1.539724 27.000000
6.389281 -7.862009 -0.290059 255.000000
19.701941 19.571705 -1.567216 7.000000
10.888621 4.155783 -0.767977 1.000000
26.208323 -13.330768 -1.556428 26.000000
6.463973 -7.897431 -0.302892 33.000000
19.549488 19.563141 -1.546256 7.000000
10.961881 4.229838 -0.772173 1.000000
6.584877 -7.985254 -0.318033 18.000000
19.383665 19.539915 -1.514702 6.000000
10.942032 4.268320 -0.765695 1.000000
6.564600 -7.904292 -0.326489 30.000000
19.298826 19.597534 -1.489601 7.000000
22.169449 -10.976089 -1.357073 6.000000
6.513169 -7.784140 -0.331377 71.000000
19.126495 19.544977 -1.452312 7.000000
35.065449 13.975510 -2.414582 8.000000
22.500444 -11.037466 -1.383624 6.000000
6.618805 -7.851736 -0.342462 142.000000
18.909641 19.479193 -1.418015 7.000000
35.111580 14.143246 -2.414679 8.000000
22.907831 -11.133328 -1.428452 6.000000
6.516536 -7.675884 -0.348098 10.000000
18.811251 19.520487 -1.392272 6.000000
23.217672 -11.178902 -1.458743 6.000000
6.537889 -7.644073 -0.358286 255.000000
18.643707 19.482275 -1.361303 7.000000
23.573187 -11.243834 -1.492200 6.000000
6.613241 -7.677753 -0.369799 39.000000
18.514515 19.489780 -1.333559 6.000000
23.830168 -11.259381 -1.519690 6.000000
6.644397 -7.656990 -0.378828 7.000000
18.320326 19.413885 -1.300851 6.000000
18.239574 19.470789 -1.276839 6.000000
24.807253 -11.499360 -1.605313 6.000000
6.916418 -7.856186 -0.411247 89.000000
18.053362 19.420933 -1.241185 5.000000
25.025372 -11.489224 -1.631160 6.000000
6.901830 -7.781921 -0.417772 6.000000
17.935081 19.422455 -1.223602 6.000000
6.620923 -0.035823 -0.430483 1.000000
25.506987 -11.597333 -1.679401 6.000000
7.181524 -8.040566 -0.446194 10.000000
17.807114 19.426247 -1.196676 7.000000
25.821568 -11.626347 -1.712178 6.000000
7.067004 -7.854214 -0.446523 4.000000
17.585358 19.319283 -1.158885 5.000000
6.351581 0.009977 -0.412965 1.000000
26.424288 -11.792492 -1.764747 5.000000
7.132989 -7.874874 -0.458329 29.000000
17.475122 19.353678 -1.124813 7.000000
7.131228 -7.815169 -0.465622 23.000000
17.414804 19.402304 -1.106396 6.000000
27.377577 -11.978045 -1.843440 6.000000
17.241243 19.344349 -1.077000 5.000000
27.649462 -11.987915 -1.880181 6.000000
17.078276 19.303478 -1.044196 1.000000
28.274323 -12.124232 -1.935518 7.000000
7.170182 -7.689078 -0.492126 23.000000
16.872835 19.212708 -1.013584 1.000000
29.006628 -12.312583 -1.999110 7.000000
7.107791 -7.569028 -0.495108 12.000000
25.957689 29.787331 -1.524750 4.000000
27.229197 -11.440508 -1.884060 9.000000
7.104297 -7.509957 -0.501987 9.000000
25.767897 29.768265 -1.491865 89.000000
6.528758 0.178944 -0.424644 1.000000
27.311495 -11.357493 -1.902413 6.000000
6.993603 -7.338875 -0.502903 12.000000
25.665306 29.891396 -1.458431 5.000000
30.258862 -12.453272 -2.121725 10.000000
6.839077 -7.126742 -0.498640 6.000000
25.607763 30.014647 -1.426036 1.000000
31.130936 -12.691625 -2.191696 7.000000
7.159849 -7.406476 -0.529058 35.000000
25.840839 30.513632 -1.403308 6.000000
31.125034 -12.543746 -2.205364 7.000000
7.151786 -7.344077 -0.535439 92.000000
25.639574 30.501959 -1.363625 10.000000
6.470623 0.273462 -0.419945 1.000000
16.124819 -6.436413 -1.150136 6.000000
7.325179 -7.467179 -0.555522 42.000000
25.556265 30.619207 -1.323057 10.000000
16.154791 -6.373314 -1.156528 6.000000
7.263137 -7.352419 -0.557912 150.000000
25.396770 30.655823 -1.285831 13.000000
16.193859 -6.326749 -1.166961 6.000000
7.388294 -7.424489 -0.574599 73.000000
25.306324 30.764610 -1.244923 12.000000
16.246668 -6.272326 -1.175049 9.000000
7.386824 -7.368797 -0.581514 10.000000
25.301804 30.989933 -1.201356 10.000000
16.341356 -6.246694 -1.189595 7.000000
7.580132 -7.506405 -0.603901 11.000000
25.360935 31.284639 -1.174166 10.000000
16.480402 -6.230712 -1.204225 8.000000
25.177679 31.292343 -1.142921 4.000000
16.658894 -6.221878 -1.224787 9.000000
28.940575 36.227287 -1.262775 4.000000
16.806437 -6.210222 -1.240318 7.000000
16.237099 -15.734843 -1.339343 7.000000
52.986240 66.828033 -2.263056 31.000000
16.992451 -6.208267 -1.261876 9.000000
16.229069 -15.612126 -1.353674 6.000000
17.162260 -6.192331 -1.279030 8.000000
16.304258 -15.575244 -1.375151 7.000000
17.358025 -6.191157 -1.301617 7.000000
20.984579 27.062910 -0.807040 8.000000
6.554256 0.541161 -0.420677 1.000000
17.556747 -6.196487 -1.321502 7.000000
20.814341 27.037733 -0.762408 8.000000
17.724886 -6.182867 -1.339029 6.000000
16.449965 -15.372079 -1.432273 7.000000
20.676044 27.062716 -0.731236 8.000000
17.973301 -6.195722 -1.362741 6.000000
16.446745 -15.256535 -1.446771 6.000000
20.636282 27.207010 -0.697409 8.000000
18.212360 -6.203540 -1.389260 10.000000
9.069283 -8.351326 -0.805904 25.000000
20.557898 27.310989 -0.662327 8.000000
11.849127 -3.987672 -0.907131 1.000000
9.075871 -8.299035 -0.812533 29.000000
23.901245 31.984354 -0.731806 5.000000
11.749791 -3.906358 -0.902769 1.000000
9.138945 -8.295412 -0.826271 28.000000
23.864704 32.180763 -0.692325 10.000000
11.711615 -3.846053 -0.903073 1.000000
9.224339 -8.311464 -0.842116 1.000000
23.699224 32.191872 -0.655886 10.000000
11.707023 -3.794808 -0.905907 1.000000
16.664232 -14.904778 -1.535929 7.000000
23.596149 32.299152 -0.621390 10.000000
11.653913 -3.730447 -0.907175 1.000000
16.669453 -14.799832 -1.547037 7.000000
23.601095 32.543804 -0.575382 8.000000
6.369777 0.739262 -0.400072 1.000000
11.633924 -3.677094 -0.908847 2.000000
16.666437 -14.688271 -1.561231 7.000000
26.431419 36.729076 -0.608165 12.000000
6.396684 0.766156 -0.403064 8.000000
11.613702 -3.623937 -0.910494 1.000000
16.685345 -14.596631 -1.577423 7.000000
26.327888 36.828697 -0.561026 14.000000
6.473075 0.799381 -0.408059 7.000000
11.588482 -3.569511 -0.911741 5.000000
16.787859 -14.583179 -1.601798 7.000000
27.344330 38.548409 -0.536193 3.000000
6.480214 0.824387 -0.405263 8.000000
11.591947 -3.524112 -0.910991 1.000000
16.738586 -14.433072 -1.603671 6.000000
27.205055 38.665825 -0.486854 17.000000
11.599704 -3.480078 -0.914844 4.000000
16.767359 -14.351070 -1.624613 8.000000
27.117008 38.813541 -0.446257 6.000000
11.569048 -3.424712 -0.915666 9.000000
16.792158 -14.265998 -1.641273 7.000000
34.249775 49.426083 -0.482790 8.000000
11.596164 -3.384366 -0.921018 8.000000
16.855108 -14.213442 -1.653931 7.000000
20.837618 2.876632 -1.293941 1.000000
11.589018 -3.336235 -0.923707 9.000000
16.883261 -14.131624 -1.667058 8.000000
20.432365 2.893404 -1.265780 5.000000
11.575729 -3.290881 -0.925999 9.000000
