VERSION .7
FIELDS x y z intensity
SIZE 4 4 4 4
TYPE F F F F
COUNT 1 1 1 1
WIDTH 1245
HEIGHT 1
VIEWPOINT 0 0 0 1 0 0 0
POINTS 1245
DATA ascii
9.913388 -6.944008 -1.449682 35.000000
4.029673 2.982890 -0.253977 1.000000
18.667019 4.217066 -1.724805 8.000000
13.772677 -2.732060 -1.627087 8.000000
9.962118 -7.032710 -1.447616 13.000000
1.622374 2.798742 -0.012986 6.000000
18.677782 4.147605 -1.721017 8.000000
13.811046 -2.794831 -1.630383 9.000000
9.775657 -6.954904 -1.411476 9.000000
1.624825 2.768339 -0.018488 5.000000
18.697138 4.080054 -1.728145 8.000000
13.849914 -2.855577 -1.631194 8.000000
9.666142 -6.930490 -1.390905 9.000000
1.655325 2.796772 -0.021555 6.000000
18.585476 3.980988 -1.723088 6.000000
13.854773 -2.909558 -1.625501 9.000000
9.555717 -6.907024 -1.370478 9.000000
1.659944 2.782372 -0.024316 5.000000
18.629475 3.919055 -1.722474 6.000000
13.951475 -2.985844 -1.628088 9.000000
9.455208 -6.887275 -1.347260 9.000000
1.664478 2.767968 -0.027623 6.000000
18.574852 3.836525 -1.722787 6.000000
13.950423 -3.039134 -1.626730 8.000000
9.310707 -6.834393 -1.320019 8.000000
1.659040 2.736166 -0.031276 5.000000
18.510998 3.752649 -1.712254 5.000000
13.959145 -3.094668 -1.624003 8.000000
6.666454 -4.931116 -0.938892 38.000000
1.671170 2.734595 -0.034681 5.000000
18.572876 3.694375 -1.723378 4.000000
14.010990 -3.162652 -1.623819 8.000000
6.589103 -4.911366 -0.924717 66.000000
1.748857 2.839394 -0.039580 5.000000
18.625731 3.630597 -1.730316 6.000000
14.033755 -3.221893 -1.622724 8.000000
6.583620 -4.944919 -0.919209 64.000000
1.714391 2.760725 -0.041974 5.000000
18.624533 3.559558 -1.725644 6.000000
14.056272 -3.281343 -1.621606 9.000000
6.661321 -5.041574 -0.923775 9.000000
1.737255 2.775875 -0.045726 5.000000
18.494934 3.464574 -1.719071 4.000000
14.140532 -3.358319 -1.630233 7.000000
1.736239 2.752837 -0.048855 5.000000
18.433750 3.383226 -1.715518 4.000000
14.143723 -3.413889 -1.621748 7.000000
8.237321 -6.329860 -1.132220 14.000000
1.738246 2.733762 -0.051457 7.000000
18.480038 3.321754 -1.721986 4.000000
14.213713 -3.485962 -1.626055 10.000000
8.163592 -6.320929 -1.117969 7.000000
1.766628 2.757096 -0.055442 5.000000
18.393986 3.233426 -1.719372 5.000000
14.196293 -3.536902 -1.622950 8.000000
18.337313 3.154222 -1.709708 4.000000
14.236699 -3.605083 -1.618761 8.000000
10.487482 -8.243947 -1.418548 7.000000
1.799874 2.765219 -0.063352 6.000000
18.431923 3.100984 -1.720748 1.000000
14.257631 -3.666043 -1.617457 8.000000
10.540019 -8.347927 -1.417918 6.000000
1.798512 2.742143 -0.066402 6.000000
18.285362 3.007452 -1.712548 1.000000
14.259071 -3.722184 -1.613951 8.000000
10.517897 -8.393322 -1.409573 8.000000
1.805284 2.731628 -0.069158 7.000000
24.309145 15.804646 -1.783581 7.000000
18.295967 2.940366 -1.715782 6.000000
14.283654 -3.787242 -1.613148 9.000000
10.522901 -8.460629 -1.402479 7.000000
1.840171 2.762352 -0.074743 7.000000
24.161308 15.588811 -1.798958 8.000000
18.188782 2.851540 -1.707932 5.000000
14.279549 -3.842225 -1.611652 7.000000
10.554603 -8.549999 -1.398891 7.000000
1.846986 2.751717 -0.076944 6.000000
23.920212 15.297614 -1.791346 7.000000
18.262793 2.794600 -1.717161 5.000000
14.265912 -3.894685 -1.606490 8.000000
10.521969 -8.584566 -1.384159 6.000000
1.844857 2.728944 -0.079929 5.000000
23.666704 15.025142 -1.783357 7.000000
18.287025 2.736278 -1.715322 6.000000
14.185012 -3.928520 -1.593793 15.000000
10.549007 -8.671221 -1.379848 7.000000
5.474393 8.082605 -0.240284 1.000000
23.484785 14.777712 -1.789478 10.000000
18.203960 2.649181 -1.709757 6.000000
13.989029 -3.932139 -1.563194 10.000000
10.583033 -8.764383 -1.378801 6.000000
23.511702 14.686037 -1.802384 7.000000
18.246851 2.593663 -1.716213 6.000000
13.888988 -3.959003 -1.548527 10.000000
10.570860 -8.819818 -1.369283 6.000000
23.586040 14.612569 -1.813691 9.000000
18.285969 2.527630 -1.722216 6.000000
13.779377 -3.982424 -1.532859 8.000000
10.585263 -8.897843 -1.360741 6.000000
23.668112 14.543643 -1.835369 11.000000
18.261129 2.449532 -1.722181 6.000000
13.593435 -3.982726 -1.508787 9.000000
7.139455 -6.046134 -0.912381 15.000000
23.773529 14.482963 -1.863618 17.000000
18.166025 2.369027 -1.715607 6.000000
13.416500 -3.986887 -1.485896 8.000000
7.061059 -6.024323 -0.897002 8.000000
18.253305 2.312402 -1.726277 3.000000
13.292789 -4.003206 -1.468910 8.000000
10.568365 -9.083812 -1.339408 8.000000
18.053844 2.219932 -1.709835 5.000000
13.240714 -4.040513 -1.457452 10.000000
10.565983 -9.149315 -1.331039 6.000000
18.066721 2.157524 -1.707127 6.000000
12.704174 -3.927740 -1.390583 86.000000
10.492332 -9.153044 -1.308815 6.000000
11.475903 6.767920 -0.924622 5.000000
18.049486 2.088397 -1.707963 6.000000
12.708444 -3.982585 -1.388015 117.000000
10.358598 -9.103455 -1.284146 6.000000
11.424764 6.676093 -0.929939 5.000000
17.998062 2.009264 -1.705509 6.000000
12.902790 -4.095485 -1.406095 39.000000
10.301329 -9.117052 -1.271298 7.000000
11.435787 6.626428 -0.935808 6.000000
18.019855 1.944855 -1.710078 6.000000
12.632480 -4.060710 -1.373568 9.000000
10.320699 -9.201872 -1.265673 6.000000
11.457129 6.588141 -0.945035 6.000000
17.892859 1.867986 -1.697397 6.000000
10.280312 -9.233717 -1.252704 6.000000
11.446108 6.526098 -0.949081 6.000000
17.889383 1.801366 -1.699596 6.000000
11.877384 -3.909680 -1.283373 68.000000
4.879210 -4.450648 -0.584759 4.000000
11.495418 6.498499 -0.960455 5.000000
17.836115 1.729991 -1.697077 6.000000
11.795274 -3.937489 -1.271885 63.000000
4.866906 -4.472215 -0.579432 1.000000
11.604435 6.506780 -0.976997 5.000000
17.866823 1.666891 -1.702566 6.000000
12.007381 -4.057268 -1.291881 57.000000
4.837010 -4.475986 -0.571935 3.000000
11.627757 6.463954 -0.983963 1.000000
17.863176 1.597389 -1.701622 6.000000
11.837742 -4.048349 -1.268599 33.000000
4.802716 -4.477038 -0.564043 9.000000
17.908291 1.535282 -1.708537 6.000000
11.757842 -4.069220 -1.252852 48.000000
4.783071 -4.491602 -0.556745 9.000000
21.794518 11.907441 -1.863011 7.000000
17.893656 1.467982 -1.709778 6.000000
11.710391 -4.100921 -1.245014 38.000000
4.788644 -4.529980 -0.553529 4.000000
21.657406 11.729663 -1.860572 6.000000
17.779821 1.393058 -1.698401 6.000000
11.737375 -4.161034 -1.242987 80.000000
4.772357 -4.547832 -0.547776 4.000000
21.492367 11.538599 -1.864159 7.000000
17.854000 1.333048 -1.708162 6.000000
11.665847 -4.183871 -1.237027 93.000000
21.106476 11.231965 -1.843895 6.000000
17.690180 1.252532 -1.692016 6.000000
11.651042 -4.226820 -1.230538 50.000000
21.080507 11.119193 -1.850608 6.000000
17.763884 1.192333 -1.701772 6.000000
11.670066 -4.277568 -1.229658 58.000000
6.032303 -5.827363 -0.682194 5.000000
20.938854 10.946568 -1.851233 6.000000
17.713493 1.123750 -1.696539 6.000000
11.560497 -4.290126 -1.209052 17.000000
5.975611 -5.815087 -0.670864 3.000000
14.972251 7.757563 -1.330079 1.000000
17.682419 1.056723 -1.696300 6.000000
11.568386 -4.341359 -1.207179 31.000000
5.940436 -5.823401 -0.662001 6.000000
2.144386 2.626468 -0.171171 1.000000
17.700907 0.995833 -1.697730 6.000000
11.428116 -4.334288 -1.187652 60.000000
5.636432 -5.571876 -0.622366 7.000000
2.137549 2.599519 -0.174023 2.000000
20.601376 10.483341 -1.859813 6.000000
17.674049 0.923165 -1.704137 6.000000
11.006607 -4.225040 -1.143524 99.000000
5.610870 -5.591319 -0.615063 10.000000
2.213879 2.672319 -0.181867 5.000000
20.412418 10.293174 -1.843352 6.000000
17.658024 0.857443 -1.696050 6.000000
11.011469 -4.268857 -1.141332 37.000000
5.622800 -5.636556 -0.611212 6.000000
2.235865 2.679762 -0.186569 7.000000
20.292822 10.139749 -1.845125 6.000000
17.571548 0.788700 -1.687455 6.000000
11.004066 -4.316878 -1.136105 31.000000
5.621998 -5.673254 -0.606156 5.000000
2.258416 2.686711 -0.190700 7.000000
20.253059 10.027285 -1.850067 6.000000
17.613935 0.722845 -1.694351 6.000000
10.965587 -4.348226 -1.127537 37.000000
5.650414 -5.743884 -0.605828 1.000000
2.268118 2.678261 -0.194375 7.000000
19.975636 9.798935 -1.833160 6.000000
17.467030 0.658804 -1.680001 6.000000
10.766637 -4.310708 -1.104459 27.000000
8.524222 -8.722903 -0.906347 1.000000
2.280559 2.673970 -0.198332 7.000000
17.559071 0.591699 -1.688611 6.000000
10.958942 -4.434376 -1.119600 41.000000
8.428943 -8.691921 -0.884885 1.000000
2.270712 2.642744 -0.199682 7.000000
17.426802 0.523304 -1.675695 6.000000
10.862500 -4.448393 -1.105440 14.000000
8.362975 -8.687382 -0.870718 5.000000
2.309157 2.668586 -0.206569 7.000000
17.328300 0.453757 -1.675205 6.000000
10.970855 -4.539791 -1.111881 10.000000
8.317713 -8.703990 -0.860873 1.000000
2.305660 2.644891 -0.209074 7.000000
19.274893 9.107085 -1.812613 6.000000
17.409456 0.392036 -1.682900 6.000000
11.023575 -4.609001 -1.112618 18.000000
8.212364 -8.654027 -0.840534 1.000000
2.344366 2.670415 -0.215472 7.000000
19.235659 9.002454 -1.809542 6.000000
17.321676 0.332593 -1.668195 6.000000
11.302148 -4.769566 -1.138006 19.000000
8.105845 -8.604724 -0.822488 1.000000
2.373850 2.684093 -0.220415 6.000000
19.222466 8.910542 -1.816391 6.000000
17.307943 0.262830 -1.666758 6.000000
10.866739 -4.637299 -1.089791 32.000000
8.020324 -8.576704 -0.804639 1.000000
2.373583 2.664052 -0.222608 7.000000
16.709599 7.671428 -1.589206 6.000000
17.338686 0.196710 -1.669633 6.000000
11.055949 -4.766019 -1.104153 76.000000
8.031641 -8.649128 -0.796381 1.000000
2.369408 2.640748 -0.224459 8.000000
16.795792 7.636590 -1.604464 6.000000
17.304403 0.138932 -1.666278 6.000000
7.871953 -8.539721 -0.771428 1.000000
2.374648 2.628998 -0.227853 8.000000
16.640717 7.492603 -1.603064 6.000000
17.299238 0.075483 -1.671838 6.000000
9.321551 -4.099639 -0.923163 255.000000
7.820755 -8.546827 -0.761352 2.000000
2.414327 2.653311 -0.234498 8.000000
16.596737 7.406704 -1.602845 6.000000
17.155071 0.011977 -1.657890 6.000000
9.353865 -4.150923 -0.922320 23.000000
7.724294 -8.500803 -0.742767 3.000000
2.436889 2.659398 -0.239580 8.000000
16.509115 7.295158 -1.601314 6.000000
17.090014 -0.050707 -1.654620 6.000000
9.393562 -4.209816 -0.922316 168.000000
7.616649 -8.444314 -0.725422 1.000000
2.453245 2.657625 -0.243399 8.000000
16.517981 7.223396 -1.608987 6.000000
17.165247 -0.110850 -1.652860 6.000000
9.442775 -4.271515 -0.923136 8.000000
7.545734 -8.421679 -0.711417 1.000000
2.422059 2.604622 -0.242475 6.000000
16.447598 7.120920 -1.609037 6.000000
17.124277 -0.179332 -1.655004 6.000000
9.326340 -4.264027 -0.908008 7.000000
7.500196 -8.429877 -0.698031 1.000000
16.486544 7.066142 -1.619771 6.000000
17.058811 -0.241179 -1.648751 6.000000
9.184460 -4.239926 -0.890363 25.000000
7.363931 -8.338060 -0.678444 1.000000
16.477018 6.997474 -1.625996 6.000000
17.038012 -0.297400 -1.646827 6.000000
9.193066 -4.280938 -0.890785 20.000000
7.267508 -8.284087 -0.662436 1.000000
16.416960 6.894312 -1.626726 6.000000
17.021820 -0.362501 -1.645385 6.000000
9.132657 -4.293609 -0.881126 24.000000
7.193494 -8.263509 -0.647063 1.000000
16.347002 6.801253 -1.626899 6.000000
17.005449 -0.424514 -1.643942 6.000000
8.955541 -4.250488 -0.856819 5.000000
7.104458 -8.216086 -0.630088 1.000000
16.401009 6.746617 -1.638930 6.000000
16.959009 -0.485557 -1.639613 6.000000
9.856798 -4.722587 -0.938931 7.000000
7.050528 -8.217280 -0.616723 1.000000
16.309288 6.639101 -1.639721 6.000000
16.986383 -0.548657 -1.648431 6.000000
9.848540 -4.763091 -0.937878 8.000000
7.023947 -8.247275 -0.607554 1.000000
16.244980 6.543617 -1.640083 6.000000
17.039722 -0.615884 -1.644814 6.000000
9.862942 -4.814741 -0.933205 5.000000
6.900609 -8.162878 -0.588242 1.000000
16.300423 6.496614 -1.652534 6.000000
17.047297 -0.678730 -1.645774 6.000000
9.926111 -4.890710 -0.935036 17.000000
6.866046 -8.179735 -0.576509 1.000000
13.378173 5.275198 -1.361905 6.000000
16.889986 -0.734479 -1.636792 6.000000
6.797924 -8.159122 -0.565861 1.000000
16.991577 -0.801302 -1.646911 6.000000
6.722034 -8.125543 -0.550827 1.000000
15.942562 6.148527 -1.633264 6.000000
16.924047 -0.863258 -1.637689 6.000000
6.651375 -8.100398 -0.536461 1.000000
15.687735 5.990563 -1.613987 6.000000
16.975758 -0.922346 -1.642980 6.000000
6.681580 -8.192427 -0.531836 16.000000
15.494887 5.851940 -1.597764 6.000000
16.863237 -0.978234 -1.629451 6.000000
11.741632 -6.055119 -1.079178 28.000000
6.518149 -8.049244 -0.510188 40.000000
16.789066 -1.041570 -1.628601 6.000000
8.373103 -4.356905 -0.767721 26.000000
6.536154 -8.138058 -0.503193 12.000000
3.510359 3.387547 -0.403643 1.000000
16.785511 -1.106065 -1.622729 6.000000
8.300071 -4.357635 -0.757543 25.000000
6.501804 -8.153420 -0.491791 10.000000
14.468412 5.277514 -1.512783 6.000000
16.905180 -1.176196 -1.637689 6.000000
8.288912 -4.390606 -0.751398 15.000000
6.416294 -8.106969 -0.480334 16.000000
15.232109 5.489904 -1.598978 6.000000
16.761780 -1.227967 -1.624222 6.000000
8.312675 -4.442284 -0.750056 27.000000
6.388264 -8.129707 -0.469507 12.000000
15.242227 5.430511 -1.603643 6.000000
16.742559 -1.288270 -1.619849 6.000000
8.345058 -4.498989 -0.747801 8.000000
6.355700 -8.149573 -0.456654 10.000000
15.280005 5.380939 -1.614098 6.000000
16.737772 -1.352570 -1.616918 6.000000
8.236897 -4.479718 -0.734635 13.000000
6.263233 -8.089078 -0.443091 10.000000
15.172226 5.280559 -1.606321 6.000000
16.743113 -1.408901 -1.617876 6.000000
8.212129 -4.505328 -0.727315 15.000000
6.197296 -8.064809 -0.429844 10.000000
15.143370 5.208368 -1.612527 6.000000
16.707296 -1.473453 -1.617928 6.000000
8.147803 -4.508968 -0.719806 1.000000
6.160242 -8.074773 -0.420348 11.000000
15.133297 5.142954 -1.617890 7.000000
16.657713 -1.524765 -1.613607 6.000000
6.070511 -8.017924 -0.407437 17.000000
15.282652 5.134274 -1.637617 6.000000
16.538063 -1.577870 -1.599666 6.000000
5.991707 -7.971509 -0.393553 17.000000
15.347487 5.093532 -1.653960 7.000000
15.749902 -1.560945 -1.521185 6.000000
6.070237 -8.137918 -0.390020 3.000000
15.537152 5.087330 -1.680835 6.000000
15.352434 -1.578396 -1.488782 9.000000
6.006351 -8.111196 -0.377148 1.000000
15.730228 5.086790 -1.705526 6.000000
15.286845 -1.633693 -1.480338 7.000000
13.799461 -7.970335 -1.187035 6.000000
6.009360 -8.177760 -0.368574 1.000000
15.875544 5.069585 -1.731015 7.000000
15.251330 -1.686457 -1.474784 9.000000
13.658838 -7.956018 -1.166343 7.000000
6.025137 -8.259497 -0.362375 5.000000
16.025362 5.055852 -1.751345 8.000000
15.220370 -1.736833 -1.475066 8.000000
13.010786 -7.642543 -1.108094 5.000000
5.992114 -8.277781 -0.351497 1.000000
16.116463 5.013548 -1.762065 6.000000
15.239383 -1.795609 -1.469428 8.000000
13.122171 -7.769708 -1.106504 8.000000
6.007135 -8.359814 -0.343295 6.000000
16.146078 4.964097 -1.775416 8.000000
15.103730 -1.835777 -1.462347 8.000000
13.034318 -7.782351 -1.090841 50.000000
6.086951 -8.530441 -0.340316 17.000000
16.253977 4.932139 -1.791275 7.000000
15.215680 -1.906001 -1.471151 8.000000
8.331723 -5.016105 -0.695403 56.000000
6.080415 -8.584500 -0.332434 29.000000
16.138817 4.829598 -1.782473 6.000000
15.178885 -1.960618 -1.465615 9.000000
6.024685 -8.575441 -0.316538 21.000000
16.126600 4.761613 -1.791056 6.000000
15.137314 -2.011682 -1.459613 9.000000
6.073396 -8.712488 -0.311497 7.000000
16.086065 4.685614 -1.790550 6.000000
15.159174 -2.071158 -1.465138 8.000000
6.746099 -4.169730 -0.553180 9.000000
16.015921 4.601568 -1.792620 6.000000
15.235528 -2.138502 -1.470556 6.000000
6.741029 -4.197554 -0.548332 9.000000
7.185967 -10.459558 -0.350036 1.000000
15.999386 4.530386 -1.794681 6.000000
16.483686 -2.378272 -1.588966 6.000000
6.725184 -4.223609 -0.542788 9.000000
7.062323 -10.356860 -0.332635 1.000000
16.063156 4.484914 -1.805868 6.000000
16.474585 -2.438632 -1.591873 6.000000
6.715676 -4.248755 -0.537581 15.000000
6.346704 -9.381094 -0.288678 1.000000
15.948874 4.390057 -1.802884 6.000000
16.470730 -2.499786 -1.589441 8.000000
6.700216 -4.273442 -0.534807 9.000000
6.330775 -9.428294 -0.279532 6.000000
15.912088 4.317255 -1.796924 6.000000
16.520752 -2.569359 -1.592222 6.000000
6.679124 -4.297805 -0.528926 17.000000
6.311359 -9.477812 -0.264371 1.000000
3.086687 2.485310 -0.419313 1.000000
15.826497 4.228857 -1.796985 6.000000
16.608797 -2.648407 -1.604638 6.000000
6.669331 -4.322844 -0.523710 10.000000
6.189045 -9.361274 -0.250748 1.000000
15.711514 4.136497 -1.787936 6.000000
16.516016 -2.695722 -1.590723 6.000000
6.653594 -4.347359 -0.520936 10.000000
15.590666 4.043635 -1.783867 6.000000
16.594671 -2.771041 -1.596303 6.000000
6.646252 -4.377404 -0.516034 13.000000
7.572923 -11.634588 -0.283517 1.000000
15.580704 3.980161 -1.786728 6.000000
16.506170 -2.818486 -1.585824 6.000000
6.630462 -4.401933 -0.510478 17.000000
3.339979 2.611355 -0.464317 8.000000
15.570865 3.914020 -1.792374 6.000000
16.574417 -2.889718 -1.596303 6.000000
6.620123 -4.426769 -0.508018 10.000000
8.538543 -13.320593 -0.292754 8.000000
15.444619 3.822157 -1.781841 6.000000
16.518583 -2.948357 -1.592053 7.000000
6.599305 -4.449611 -0.500754 16.000000
8.492882 -13.362012 -0.273596 7.000000
15.467575 3.767728 -1.788511 6.000000
16.538372 -3.008513 -1.591953 7.000000
6.597114 -4.480029 -0.497521 18.000000
15.077960 -23.897120 -0.458684 8.000000
15.383432 3.687557 -1.788391 6.000000
16.478022 -3.059971 -1.590164 6.000000
6.580863 -4.504324 -0.493345 18.000000
14.933639 -23.852472 -0.432259 9.000000
15.328866 3.612293 -1.788774 6.000000
16.514780 -3.132443 -1.597820 6.000000
6.580884 -4.539847 -0.491790 14.000000
14.848544 -23.929594 -0.403075 10.000000
15.258512 3.536734 -1.790116 3.000000
16.508621 -3.194002 -1.592424 6.000000
6.570031 -4.564590 -0.489304 10.000000
7.078573 -11.488078 -0.181354 10.000000
15.319195 3.491684 -1.801278 4.000000
16.501417 -3.255398 -1.595831 6.000000
6.556089 -4.594034 -0.482623 10.000000
6.991583 -11.436091 -0.166108 15.000000
15.220083 3.407670 -1.796347 6.000000
16.489920 -3.315967 -1.589960 6.000000
6.540956 -4.615847 -0.479829 9.000000
7.037843 -11.607139 -0.154000 9.000000
15.017811 3.304628 -1.781911 6.000000
16.466494 -3.377091 -1.597820 6.000000
6.532333 -4.645720 -0.476230 17.000000
9.718953 -16.155888 -0.200736 18.000000
15.087771 3.262092 -1.791512 6.000000
16.469711 -3.440702 -1.587494 6.000000
6.589381 -4.721014 -0.475909 1.000000
9.621603 -16.121193 -0.180224 13.000000
14.996325 3.182097 -1.795462 6.000000
16.373409 -3.483263 -1.588275 6.000000
9.073245 -6.551055 -0.651152 1.000000
8.019294 -13.549089 -0.134651 7.000000
14.900627 3.104762 -1.785323 6.000000
16.336746 -3.538099 -1.580078 6.000000
8.992848 -6.543284 -0.643204 1.000000
9.430220 -16.060574 -0.139778 30.000000
14.837098 3.034826 -1.792445 6.000000
16.386051 -3.611702 -1.594982 6.000000
6.646295 -4.873265 -0.472314 33.000000
9.343948 -16.041628 -0.126367 24.000000
14.681594 2.944332 -1.785532 6.000000
16.230675 -3.642860 -1.587067 7.000000
6.620426 -4.891708 -0.470305 53.000000
9.255124 -16.023886 -0.113040 25.000000
3.764788 2.686389 -0.570333 1.000000
14.518215 2.911567 -1.789257 6.000000
15.970594 -3.584487 -1.590468 6.000000
9.242568 -16.002146 -0.129014 21.000000
14.399632 2.945345 -1.778626 6.000000
15.861053 -3.498889 -1.589718 6.000000
6.636305 -4.867722 -0.494727 27.000000
9.341038 -16.043068 -0.155528 30.000000
3.423977 2.481279 -0.516949 1.000000
14.447055 3.010253 -1.785834 6.000000
15.745975 -3.413031 -1.591116 6.000000
8.957652 -6.520066 -0.677639 7.000000
9.439869 -16.083435 -0.185534 17.000000
14.449956 3.068797 -1.787636 6.000000
15.675100 -3.337565 -1.588356 7.000000
8.001462 -13.524346 -0.172792 7.000000
14.380087 3.109085 -1.782996 6.000000
15.574403 -3.256499 -1.585346 6.000000
6.545356 -4.692930 -0.509531 7.000000
9.613121 -16.119762 -0.232589 23.000000
14.455854 3.180971 -1.793824 6.000000
15.560777 -3.194169 -1.593957 8.000000
6.517497 -4.636882 -0.511642 12.000000
9.695170 -16.122725 -0.256131 30.000000
14.370880 3.220174 -1.784800 6.000000
15.556931 -3.134002 -1.600769 6.000000
6.524903 -4.607931 -0.522158 10.000000
9.810798 -16.186798 -0.284125 28.000000
14.407680 3.283924 -1.788237 6.000000
15.392335 -3.039390 -1.590919 7.000000
6.533276 -4.578048 -0.527075 9.000000
6.981975 -11.429338 -0.219750 10.000000
14.420334 3.342454 -1.786073 6.000000
15.402824 -2.982848 -1.596396 6.000000
6.553803 -4.556709 -0.532978 12.000000
7.063640 -11.472807 -0.235171 6.000000
14.407394 3.397799 -1.786073 5.000000
15.398721 -2.923538 -1.597613 6.000000
6.569207 -4.533484 -0.541336 9.000000
14.826341 -23.893812 -0.530112 9.000000
14.530616 3.483128 -1.797628 6.000000
15.266968 -2.840591 -1.588330 6.000000
6.573038 -4.500653 -0.547273 9.000000
14.937373 -23.876966 -0.560455 10.000000
14.527399 3.538712 -1.798823 6.000000
15.349855 -2.797845 -1.604132 6.000000
6.586448 -4.471106 -0.555267 9.000000
15.054967 -23.879143 -0.591309 8.000000
14.499857 3.591038 -1.791817 6.000000
15.242145 -2.717784 -1.599966 7.000000
6.613322 -4.457384 -0.561879 8.000000
8.481656 -13.349496 -0.353393 8.000000
14.515788 3.651501 -1.792777 6.000000
15.237030 -2.659287 -1.601123 8.000000
6.617458 -4.423315 -0.569160 6.000000
8.538779 -13.336327 -0.370423 1.000000
14.531167 3.712052 -1.796345 6.000000
15.241220 -2.602492 -1.606006 7.000000
6.633292 -4.398810 -0.574717 6.000000
7.473239 -11.578438 -0.341608 1.000000
14.512608 3.766730 -1.790517 6.000000
15.254730 -2.547293 -1.614621 8.000000
6.655836 -4.382052 -0.581001 4.000000
7.592442 -11.673486 -0.359784 1.000000
3.220439 2.607860 -0.465549 3.000000
14.556315 3.835075 -1.797631 6.000000
15.062460 -2.458475 -1.595998 6.000000
6.651982 -4.341337 -0.587501 3.000000
14.633899 3.912930 -1.803609 6.000000
15.085407 -2.408190 -1.600225 6.000000
13.825769 -8.957990 -1.230023 6.000000
6.446600 -9.758242 -0.328724 1.000000
14.614582 3.967955 -1.797732 6.000000
15.009777 -2.339734 -1.599324 6.000000
13.831970 -8.900435 -1.242516 6.000000
6.425008 -9.652129 -0.340081 4.000000
14.547887 4.007155 -1.785981 6.000000
13.848479 -2.101803 -1.479618 9.000000
13.803619 -8.804039 -1.251154 6.000000
6.333187 -9.442567 -0.345391 6.000000
14.662222 4.096524 -1.801848 6.000000
13.761414 -2.041927 -1.474494 9.000000
13.729731 -8.686285 -1.252972 6.000000
6.263917 -9.265695 -0.355390 6.000000
14.680730 4.162531 -1.797972 6.000000
13.754573 -1.982064 -1.477764 9.000000
13.688951 -8.590392 -1.257719 6.000000
6.265065 -9.198029 -0.365298 3.000000
14.685068 4.221973 -1.794979 6.000000
13.741795 -1.928838 -1.478071 9.000000
8.361983 -5.204876 -0.775176 2.000000
6.325190 -9.216986 -0.378645 6.000000
14.721937 4.291053 -1.801396 6.000000
13.723885 -1.875058 -1.477841 9.000000
8.380542 -5.173908 -0.782052 13.000000
14.753577 4.361807 -1.801859 6.000000
13.754412 -1.832787 -1.482915 19.000000
8.321582 -5.097474 -0.781741 53.000000
6.067627 -8.707452 -0.385452 18.000000
14.833238 4.444541 -1.808087 6.000000
13.731614 -1.771241 -1.486977 14.000000
8.322704 -5.056305 -0.786943 44.000000
6.023107 -8.579560 -0.391711 19.000000
14.802894 4.494641 -1.803647 6.000000
13.742345 -1.726316 -1.487511 8.000000
8.323397 -5.015051 -0.795509 25.000000
6.034031 -8.528479 -0.403168 10.000000
14.858127 4.570957 -1.806906 6.000000
13.763126 -1.677709 -1.491532 8.000000
12.687244 -7.581134 -1.220307 10.000000
6.043176 -8.478478 -0.414539 8.000000
14.841068 4.628161 -1.801480 6.000000
13.748659 -1.624828 -1.496642 8.000000
12.945500 -7.671204 -1.255657 7.000000
6.017114 -8.379871 -0.421563 1.000000
14.933538 4.717124 -1.809251 6.000000
13.706212 -1.561626 -1.488861 8.000000
12.977447 -7.626006 -1.261327 7.000000
6.056312 -8.369541 -0.432994 5.000000
14.945436 4.781196 -1.804478 6.000000
13.868641 -1.533562 -1.513336 6.000000
13.430315 -7.826046 -1.318940 6.000000
6.026322 -8.267181 -0.441306 1.000000
14.966216 4.848383 -1.803556 6.000000
14.195175 -1.517027 -1.550871 6.000000
13.632413 -7.883372 -1.344517 7.000000
6.059263 -8.248687 -0.452240 1.000000
14.887836 4.880479 -1.796153 6.000000
14.749747 -1.519035 -1.610810 8.000000
13.625827 -7.813062 -1.352081 8.000000
6.028312 -8.146796 -0.458439 1.000000
14.916158 4.956163 -1.793618 9.000000
14.858243 -1.475193 -1.629968 8.000000
13.624174 -7.742754 -1.365490 7.000000
6.128061 -8.221425 -0.474600 33.000000
14.922029 5.018919 -1.790957 8.000000
14.898469 -1.424063 -1.631155 6.000000
12.450005 -7.015217 -1.250249 6.000000
5.995882 -7.982863 -0.472571 19.000000
14.839163 5.048773 -1.777574 6.000000
14.887888 -1.368005 -1.637358 6.000000
12.433117 -6.951483 -1.258758 8.000000
6.056451 -8.005159 -0.489188 9.000000
14.793249 5.093724 -1.766001 6.000000
14.912835 -1.312572 -1.639535 6.000000
12.479714 -6.917618 -1.268430 9.000000
6.179293 -8.105610 -0.507407 9.000000
14.690606 5.118685 -1.750477 7.000000
14.937072 -1.259552 -1.644329 6.000000
6.216345 -8.095446 -0.518841 15.000000
14.489279 5.108166 -1.725991 7.000000
14.956028 -1.211215 -1.645964 6.000000
6.270083 -8.103767 -0.531602 11.000000
14.371233 5.131502 -1.706279 6.000000
14.896262 -1.143590 -1.641484 6.000000
6.353233 -8.152277 -0.547089 14.000000
14.232267 5.137966 -1.686551 8.000000
14.929712 -1.096370 -1.644761 6.000000
6.382712 -8.128481 -0.557912 9.000000
3.421769 3.337999 -0.435036 1.000000
14.111472 5.152897 -1.666500 6.000000
14.868681 -1.031896 -1.645466 6.000000
11.676805 -6.195603 -1.221605 10.000000
6.410619 -8.105611 -0.570538 10.000000
14.013783 5.175516 -1.651914 6.000000
14.926912 -0.980978 -1.651501 6.000000
11.725306 -6.166369 -1.231303 9.000000
6.478933 -8.133474 -0.585011 22.000000
13.925690 5.201062 -1.635888 7.000000
14.950122 -0.924865 -1.656310 6.000000
6.467695 -8.058580 -0.592181 16.000000
13.975622 5.280948 -1.641484 6.000000
14.943488 -0.869487 -1.655211 6.000000
6.485979 -8.023824 -0.602127 15.000000
13.961616 5.334215 -1.634205 7.000000
14.980736 -0.821817 -1.661677 6.000000
6.578048 -8.076990 -0.617044 8.000000
14.025964 5.417795 -1.638739 6.000000
14.973856 -0.763783 -1.660576 6.000000
6.648351 -8.102481 -0.631864 1.000000
14.023418 5.481605 -1.633022 6.000000
14.966003 -0.703161 -1.667320 6.000000
6.701601 -8.109486 -0.645288 1.000000
13.980909 5.524147 -1.622456 6.000000
14.953585 -0.647658 -1.665661 6.000000
6.770857 -8.135293 -0.662199 1.000000
13.333464 5.324908 -1.541971 6.000000
15.000651 -0.591999 -1.670638 6.000000
6.841860 -8.159594 -0.677409 2.000000
14.034278 5.661670 -1.622622 6.000000
15.012464 -0.542611 -1.671744 6.000000
6.903457 -8.172031 -0.691786 1.000000
14.060519 5.732267 -1.617352 6.000000
15.009093 -0.487413 -1.673812 6.000000
9.260319 -4.486587 -1.016191 20.000000
6.999360 -8.227129 -0.709874 1.000000
14.097932 5.813627 -1.616252 6.000000
15.040731 -0.428007 -1.677135 6.000000
9.313340 -4.466203 -1.029136 31.000000
7.081008 -8.261554 -0.724616 1.000000
14.120670 5.877868 -1.612987 6.000000
15.067104 -0.370863 -1.679905 6.000000
9.350852 -4.444112 -1.037036 25.000000
7.181016 -8.319287 -0.743434 1.000000
14.239815 5.994642 -1.621153 6.000000
15.038551 -0.315013 -1.676581 6.000000
9.372626 -4.408425 -1.042958 35.000000
7.227311 -8.311140 -0.756656 1.000000
14.293869 6.073277 -1.621370 6.000000
15.034546 -0.265054 -1.676028 6.000000
9.161272 -4.271971 -1.023204 36.000000
7.309787 -8.344024 -0.773756 3.000000
14.298640 6.140225 -1.616337 6.000000
15.035453 -0.207323 -1.676028 6.000000
9.185249 -4.242236 -1.031274 48.000000
7.348316 -8.329166 -0.784493 1.000000
2.400325 2.628691 -0.270781 4.000000
14.435988 6.261972 -1.631671 6.000000
15.031143 -0.152164 -1.675474 6.000000
9.182152 -4.200041 -1.034533 60.000000
7.500736 -8.439378 -0.811322 1.000000
2.401802 2.647890 -0.268799 5.000000
14.468387 6.339134 -1.629589 6.000000
15.065796 -0.097292 -1.684610 6.000000
9.292130 -4.209232 -1.050577 255.000000
7.542882 -8.427370 -0.824599 1.000000
2.398476 2.664712 -0.265794 6.000000
14.493886 6.419780 -1.624166 6.000000
15.055826 -0.039416 -1.686127 6.000000
9.338758 -4.189169 -1.059522 150.000000
7.647073 -8.486976 -0.842931 1.000000
2.357462 2.634826 -0.259012 8.000000
14.409457 6.439626 -1.611522 6.000000
14.996540 0.010470 -1.676831 6.000000
9.347544 -4.155931 -1.064363 9.000000
7.714393 -8.498843 -0.858999 1.000000
2.351279 2.647379 -0.255670 8.000000
14.778780 6.663561 -1.646712 6.000000
15.105719 0.065912 -1.689055 6.000000
9.353100 -4.117411 -1.068679 81.000000
7.767051 -8.497067 -0.871657 2.000000
2.338930 2.652062 -0.250990 7.000000
14.882331 6.775996 -1.646591 6.000000
15.096026 0.121201 -1.682674 6.000000
9.281709 -4.043509 -1.064100 19.000000
7.861682 -8.537545 -0.890984 1.000000
2.316168 2.645737 -0.247119 7.000000
14.829347 6.820737 -1.640736 6.000000
15.124673 0.179512 -1.691277 6.000000
9.601685 -4.141100 -1.106417 9.000000
7.912624 -8.529913 -0.905465 3.000000
2.313167 2.661932 -0.244127 7.000000
14.900044 6.919532 -1.639769 6.000000
15.173598 0.235717 -1.696833 6.000000
9.630160 -4.111586 -1.111651 13.000000
8.020069 -8.585438 -0.924640 4.000000
2.271438 2.632415 -0.237033 7.000000
14.920408 6.995582 -1.636107 6.000000
15.187536 0.291616 -1.698500 6.000000
9.736038 -4.114666 -1.129587 42.000000
8.043983 -8.548017 -0.936148 1.000000
2.278134 2.659823 -0.235678 7.000000
15.039357 7.118708 -1.643203 6.000000
15.091919 0.347754 -1.687944 6.000000
8.081552 -8.525114 -0.947195 1.000000
2.287918 2.691148 -0.233993 7.000000
15.013938 7.174151 -1.634490 6.000000
15.229627 0.406782 -1.703501 6.000000
10.940663 -4.529534 -1.278006 32.000000
8.248214 -8.640315 -0.975779 1.000000
2.259356 2.676429 -0.228342 6.000000
14.934781 7.203683 -1.617049 6.000000
15.198528 0.461702 -1.697513 6.000000
11.191157 -4.585265 -1.311701 36.000000
8.248147 -8.577084 -0.982500 8.000000
2.246479 2.681049 -0.224354 7.000000
14.980630 7.293600 -1.616090 6.000000
15.265757 0.517087 -1.710612 6.000000
11.184218 -4.534620 -1.315325 45.000000
8.320755 -8.595355 -1.002465 8.000000
2.237256 2.689053 -0.220691 6.000000
15.043888 7.392729 -1.616968 6.000000
15.303879 0.579891 -1.709718 6.000000
8.394956 -8.605635 -1.015868 4.000000
2.211619 2.678143 -0.216086 7.000000
15.138092 7.508029 -1.618134 6.000000
15.276825 0.634947 -1.706944 6.000000
11.078269 -4.395146 -1.309474 32.000000
5.639157 -5.738448 -0.689742 5.000000
2.193839 2.673676 -0.211533 7.000000
15.115677 7.566068 -1.609760 6.000000
15.374219 0.690073 -1.715353 6.000000
10.953377 -4.303612 -1.299254 53.000000
5.622697 -5.683872 -0.692448 7.000000
2.183227 2.682632 -0.207911 7.000000
15.141910 7.648729 -1.606566 1.000000
15.341413 0.753004 -1.712029 6.000000
10.928235 -4.243172 -1.300455 32.000000
5.605604 -5.615396 -0.696965 10.000000
2.161438 2.674875 -0.203110 7.000000
15.114770 7.704683 -1.594723 1.000000
15.502893 0.812472 -1.727598 6.000000
10.887411 -4.181466 -1.299946 48.000000
5.618651 -5.587358 -0.703005 6.000000
2.139259 2.667368 -0.198350 6.000000
15.449892 0.871898 -1.722068 6.000000
11.051617 -4.195908 -1.321797 31.000000
5.698694 -5.633424 -0.715155 8.000000
14.909362 7.738185 -1.558292 5.000000
15.397150 0.922850 -1.716538 6.000000
11.089530 -4.163863 -1.330777 23.000000
5.747108 -5.639786 -0.728548 1.000000
15.517947 0.987184 -1.727649 6.000000
11.141323 -4.136782 -1.341466 33.000000
17.834377 9.422899 -1.846324 6.000000
15.563807 1.047390 -1.733171 6.000000
11.566391 -4.246438 -1.395118 29.000000
5.991476 -5.793990 -0.767323 5.000000
17.812674 9.487123 -1.836669 6.000000
15.555016 1.106811 -1.729897 6.000000
11.529319 -4.187216 -1.393212 33.000000
17.876444 9.613402 -1.832922 6.000000
15.570677 1.165299 -1.732102 6.000000
11.498586 -4.123883 -1.393966 34.000000
4.867824 -4.603272 -0.638026 2.000000
18.034533 9.783803 -1.841966 6.000000
15.541830 1.220439 -1.726625 6.000000
11.686166 -4.142880 -1.421432 27.000000
4.818148 -4.524543 -0.635262 3.000000
18.122004 9.917397 -1.840062 6.000000
15.720815 1.292486 -1.744237 6.000000
11.757057 -4.119567 -1.432615 29.000000
4.812450 -4.486112 -0.638134 8.000000
11.707849 6.463080 -1.177068 6.000000
15.710785 1.352414 -1.743687 6.000000
11.907478 -4.123334 -1.455778 22.000000
4.832185 -4.471520 -0.643213 9.000000
11.606287 6.462630 -1.162222 5.000000
15.721479 1.411402 -1.737071 6.000000
11.970220 -4.093655 -1.461517 9.000000
4.855455 -4.460130 -0.649939 5.000000
11.531108 6.476249 -1.147760 5.000000
15.721450 1.469506 -1.734862 6.000000
11.946774 -4.036789 -1.463529 9.000000
4.878702 -4.448625 -0.656682 6.000000
11.438637 6.479578 -1.131665 8.000000
15.760212 1.534195 -1.739777 6.000000
11.918606 -3.978660 -1.462727 1.000000
4.924055 -4.457036 -0.666437 6.000000
11.419650 6.524224 -1.125208 6.000000
15.819071 1.598475 -1.744101 6.000000
12.021746 -3.964178 -1.482550 1.000000
9.974051 -9.034405 -1.350346 8.000000
11.392021 6.563938 -1.115603 7.000000
15.946876 1.670456 -1.756023 6.000000
12.164129 -3.959408 -1.500486 7.000000
9.972924 -8.967062 -1.357557 6.000000
11.377173 6.611044 -1.107262 5.000000
15.866829 1.720887 -1.745072 6.000000
12.305702 -3.955668 -1.520725 6.000000
9.993704 -8.919722 -1.367737 8.000000
11.394384 6.671687 -1.104123 5.000000
15.875225 1.783498 -1.743914 6.000000
12.493341 -3.970322 -1.546918 5.000000
10.000000 -8.865938 -1.376353 7.000000
11.406946 6.740676 -1.096310 5.000000
15.913017 1.846828 -1.748798 6.000000
12.641069 -3.961471 -1.570261 8.000000
9.988256 -8.787260 -1.381816 6.000000
11.367895 6.768560 -1.087734 5.000000
15.916981 1.900803 -1.747085 6.000000
12.734397 -3.941955 -1.589573 9.000000
9.990218 -8.730387 -1.389779 7.000000
11.457818 6.881830 -1.089465 1.000000
15.914115 1.968106 -1.744828 6.000000
12.773862 -3.898049 -1.592533 31.000000
10.001719 -8.669874 -1.398204 8.000000
20.410936 12.351565 -1.927889 6.000000
15.941612 2.030856 -1.745809 6.000000
12.838470 -3.871273 -1.603727 27.000000
9.984275 -8.596931 -1.403400 10.000000
20.404867 12.460073 -1.915226 6.000000
15.914648 2.086726 -1.740848 6.000000
12.849277 -3.815889 -1.607812 31.000000
7.061583 -6.031161 -0.997369 16.000000
20.454138 12.593314 -1.898857 6.000000
16.069763 2.167006 -1.755809 6.000000
12.875610 -3.777292 -1.614282 22.000000
7.098274 -6.017644 -1.006002 6.000000
20.671541 12.831888 -1.906301 7.000000
16.037008 2.225319 -1.750292 6.000000
12.918469 -3.733610 -1.624907 20.000000
7.302163 -6.144637 -1.040125 2.000000
20.967775 13.122483 -1.920668 6.000000
16.083788 2.291926 -1.747697 6.000000
12.921603 -3.685693 -1.626052 13.000000
21.557549 13.591282 -1.965386 3.000000
16.041965 2.340270 -1.741125 6.000000
12.962873 -3.646140 -1.636707 9.000000
16.131069 2.419440 -1.748956 6.000000
12.891303 -3.570229 -1.625848 9.000000
7.509273 -6.179169 -1.083935 8.000000
5.583033 8.380908 -0.309433 1.000000
16.108088 2.473516 -1.744512 6.000000
12.888776 -3.521135 -1.628702 9.000000
7.525140 -6.150487 -1.091862 10.000000
5.673698 8.585039 -0.305414 1.000000
16.213079 2.550498 -1.745295 6.000000
12.877083 -3.467271 -1.630332 9.000000
7.583911 -6.147908 -1.103702 18.000000
5.561636 8.479677 -0.290345 1.000000
16.193502 2.608275 -1.747100 6.000000
12.860373 -3.412268 -1.631336 9.000000
16.253420 2.679079 -1.745890 6.000000
12.839767 -3.354083 -1.627077 9.000000
16.341370 2.758069 -1.753537 6.000000
12.894956 -3.318060 -1.634877 8.000000
16.434654 2.835804 -1.758764 6.000000
12.867991 -3.260882 -1.634636 8.000000
16.506681 2.916515 -1.764753 6.000000
12.871354 -3.204417 -1.638044 8.000000
16.443995 2.961704 -1.750246 6.000000
12.862077 -3.156849 -1.640216 8.000000
16.526026 3.042039 -1.754278 6.000000
12.834418 -3.100231 -1.639909 8.000000
8.458512 -6.504529 -1.264802 7.000000
1.674513 2.714446 -0.062353 1.000000
16.544392 3.108155 -1.754454 6.000000
12.865538 -3.055513 -1.642374 8.000000
1.680725 2.745921 -0.059006 4.000000
16.607054 3.182987 -1.753376 6.000000
12.847383 -3.001500 -1.640979 8.000000
6.575395 -4.983765 -0.991137 58.000000
1.671166 2.751831 -0.055073 6.000000
16.678856 3.260171 -1.756210 5.000000
12.848066 -2.952042 -1.644346 8.000000
6.586858 -4.950948 -0.995698 46.000000
1.674479 2.779105 -0.052103 6.000000
16.725628 3.333004 -1.759402 6.000000
12.839386 -2.898190 -1.646466 10.000000
6.592465 -4.917453 -0.999640 40.000000
1.639622 2.741781 -0.047955 6.000000
16.664566 3.387415 -1.748335 5.000000
12.864173 -2.854274 -1.650627 8.000000
6.760592 -5.006228 -1.028438 8.000000
1.627520 2.743236 -0.043983 5.000000
16.740005 3.466688 -1.754555 6.000000
12.850312 -2.801821 -1.647520 8.000000
9.297490 -6.832184 -1.420759 8.000000
1.637276 2.783986 -0.040588 5.000000
16.903601 3.565228 -1.760873 3.000000
12.845859 -2.749224 -1.650241 10.000000
9.480646 -6.908338 -1.450733 9.000000
1.620017 2.776775 -0.035911 5.000000
4.151711 3.030811 -0.316194 1.000000
16.876129 3.624091 -1.756339 6.000000
12.831855 -2.697080 -1.644837 8.000000
9.534630 -6.899385 -1.465913 7.000000
1.612837 2.786772 -0.032595 5.000000
3.971906 2.921926 -0.299859 1.000000
16.999405 3.715795 -1.764438 5.000000
12.831271 -2.645553 -1.652739 9.000000
9.710561 -6.967472 -1.497124 10.000000
1.618946 2.806358 -0.031101 6.000000
4.043169 2.985241 -0.303871 1.000000
17.001137 3.781516 -1.756832 6.000000
12.855751 -2.601515 -1.652327 9.000000
9.777201 -6.966288 -1.512341 10.000000
1.604194 2.803349 -0.026496 6.000000
4.205191 3.127607 -0.311358 1.000000
16.977385 3.844705 -1.749752 6.000000
12.845171 -2.550402 -1.654399 9.000000
9.627851 -6.806813 -1.491643 23.000000
1.587008 2.795912 -0.022445 6.000000
4.046212 3.032464 -0.294209 1.000000
17.158300 3.951844 -1.757463 5.000000
12.840543 -2.498275 -1.650235 9.000000
1.623858 2.884237 -0.019064 5.000000
3.872422 2.923381 -0.278914 1.000000
17.143999 4.014776 -1.754390 6.000000
12.864232 -2.453984 -1.652113 8.000000
9.839788 -6.846475 -1.533484 26.000000
1.589413 2.846251 -0.014793 6.000000
17.258236 4.101943 -1.748703 6.000000
12.878301 -2.407782 -1.650452 9.000000
7.639924 -5.274367 -1.192565 99.000000
17.370033 4.195836 -1.748982 6.000000
12.848413 -2.351172 -1.645453 9.000000
17.560471 4.241837 -1.749060 6.000000
12.948272 -2.369445 -1.639573 8.000000
7.738386 -5.298583 -1.199759 58.000000
1.571885 2.804505 -0.012345 1.000000
17.664381 4.195220 -1.751395 6.000000
13.028140 -2.433444 -1.643758 8.000000
7.707696 -5.319169 -1.188049 39.000000
1.567384 2.772599 -0.015009 1.000000
3.953780 2.973981 -0.274005 1.000000
17.636023 4.120258 -1.747074 6.000000
13.034167 -2.486400 -1.638657 9.000000
9.819162 -6.829579 -1.504630 20.000000
1.596853 2.801853 -0.017449 5.000000
3.873497 2.889320 -0.271019 1.000000
17.539442 4.029957 -1.736032 6.000000
13.104029 -2.549539 -1.639143 7.000000
9.771185 -6.849484 -1.486308 31.000000
1.619066 2.817918 -0.021555 6.000000
17.539236 3.962289 -1.737730 6.000000
13.157703 -2.612456 -1.644723 8.000000
10.006453 -7.069242 -1.515169 13.000000
1.626374 2.807901 -0.024920 6.000000
3.950119 2.902712 -0.280928 1.000000
17.588331 3.902460 -1.741097 6.000000
13.158612 -2.662803 -1.638911 8.000000
9.838618 -7.007460 -1.485258 21.000000
1.624296 2.768546 -0.030253 5.000000
4.321393 3.138523 -0.312628 1.000000
17.519258 3.819816 -1.739180 6.000000
13.144462 -2.710127 -1.633620 8.000000
9.685099 -6.951763 -1.453248 32.000000
1.655270 2.796680 -0.034033 6.000000
17.562042 3.761770 -1.745211 6.000000
13.212515 -2.777089 -1.636217 8.000000
9.564053 -6.918133 -1.428427 8.000000
1.666589 2.795729 -0.037494 6.000000
17.452087 3.677732 -1.739347 6.000000
13.241637 -2.833927 -1.636303 9.000000
9.435136 -6.877697 -1.404658 9.000000
1.656201 2.755292 -0.039839 6.000000
17.611944 3.644053 -1.750767 6.000000
13.265949 -2.890019 -1.633393 9.000000
9.331020 -6.854316 -1.380590 7.000000
1.700440 2.804445 -0.044651 6.000000
17.441116 3.532588 -1.738571 5.000000
13.332857 -2.958265 -1.638181 9.000000
1.685767 2.760646 -0.047426 6.000000
17.394466 3.463131 -1.729641 5.000000
13.322481 -3.007238 -1.633414 9.000000
6.591648 -4.916843 -0.966034 63.000000
1.717298 2.788155 -0.052013 6.000000
17.383213 3.388401 -1.733397 6.000000
13.326163 -3.059443 -1.632809 8.000000
6.578224 -4.944458 -0.959436 80.000000
1.710689 2.756910 -0.054934 6.000000
17.413607 3.334424 -1.738439 6.000000
13.363219 -3.122014 -1.633948 8.000000
6.572601 -4.978036 -0.953978 21.000000
1.734497 2.771468 -0.058211 6.000000
17.388290 3.254130 -1.734536 6.000000
13.400269 -3.187452 -1.627840 8.000000
8.628252 -6.584874 -1.244323 5.000000
1.730314 2.744503 -0.061163 6.000000
17.344851 3.186505 -1.732247 3.000000
13.433065 -3.242356 -1.633121 8.000000
8.403903 -6.462535 -1.207878 10.000000
1.745209 2.746830 -0.064760 7.000000
17.346321 3.121096 -1.734345 6.000000
13.445735 -3.300101 -1.626390 8.000000
8.267097 -6.405687 -1.182338 12.000000
1.760140 2.749082 -0.068377 7.000000
17.411251 3.066940 -1.742817 6.000000
13.463010 -3.356705 -1.625047 9.000000
17.344963 2.983526 -1.734969 6.000000
13.498389 -3.423139 -1.623572 7.000000
7.944376 -6.249363 -1.123055 13.000000
17.310812 2.915475 -1.733618 6.000000
13.525386 -3.480279 -1.623329 7.000000
7.883082 -6.248054 -1.110511 8.000000
17.330900 2.853575 -1.737666 6.000000
13.565397 -3.543636 -1.629679 8.000000
7.825929 -6.249594 -1.096834 5.000000
5.565215 8.478678 -0.247864 1.000000
17.414629 2.801843 -1.748129 5.000000
13.581673 -3.601115 -1.628238 8.000000
10.266821 -8.260638 -1.431531 7.000000
17.429094 2.738674 -1.754781 6.000000
13.617443 -3.664071 -1.624149 8.000000
10.291311 -8.342666 -1.429843 6.000000
5.553383 8.330095 -0.263909 1.000000
22.960476 14.695132 -1.877550 7.000000
17.399836 2.665657 -1.753894 4.000000
13.594236 -3.713862 -1.618086 9.000000
10.242374 -8.365391 -1.415620 8.000000
22.966749 14.580766 -1.892763 9.000000
17.487915 2.613587 -1.764912 5.000000
13.661134 -3.791136 -1.622833 29.000000
10.244971 -8.427299 -1.405987 7.000000
23.119638 14.559212 -1.929705 15.000000
17.388760 2.533646 -1.757054 6.000000
13.582078 -3.817750 -1.609948 32.000000
10.312819 -8.549712 -1.410336 6.000000
22.918468 14.315488 -1.918001 7.000000
17.334196 2.460848 -1.747531 6.000000
13.400648 -3.822333 -1.585243 10.000000
10.287858 -8.589788 -1.396826 6.000000
22.752741 14.107297 -1.918992 7.000000
17.417143 2.404436 -1.758049 5.000000
13.249200 -3.831701 -1.559225 25.000000
10.268653 -8.637824 -1.386671 6.000000
22.809843 14.021735 -1.938042 7.000000
17.464981 2.345840 -1.765104 1.000000
13.230821 -3.878992 -1.553851 33.000000
7.152831 -6.061751 -0.960638 11.000000
22.685352 13.830899 -1.941791 6.000000
17.344893 2.265023 -1.755200 1.000000
13.183692 -3.917705 -1.545130 24.000000
7.055538 -6.023869 -0.942350 8.000000
17.392258 2.206406 -1.762254 6.000000
13.154796 -3.964152 -1.538660 8.000000
10.304009 -8.862846 -1.368569 6.000000
11.496537 6.899627 -0.996389 5.000000
17.321293 2.129856 -1.757298 6.000000
13.017125 -3.974766 -1.519441 10.000000
10.328754 -8.950203 -1.364157 7.000000
11.399411 6.779244 -0.992587 6.000000
17.106993 2.039885 -1.731749 6.000000
12.821688 -3.971428 -1.488990 8.000000
10.316296 -9.012169 -1.352792 6.000000
11.402261 6.724489 -0.997653 6.000000
16.960852 1.959438 -1.719227 6.000000
12.581312 -3.942744 -1.457927 17.000000
10.324604 -9.079969 -1.345708 6.000000
11.357066 6.641853 -1.005419 7.000000
17.006571 1.901582 -1.732195 6.000000
12.604217 -4.003136 -1.460015 9.000000
10.258605 -9.088822 -1.329365 6.000000
11.370101 6.598973 -1.009246 7.000000
17.003216 1.841135 -1.731188 6.000000
11.894445 -3.825760 -1.374999 24.000000
10.153403 -9.059076 -1.307837 8.000000
11.369956 6.538014 -1.016106 7.000000
16.960672 1.773660 -1.723176 6.000000
11.904883 -3.877322 -1.368993 66.000000
10.069151 -9.050406 -1.289325 6.000000
11.410700 6.505909 -1.024529 7.000000
16.867765 1.695521 -1.721999 6.000000
11.862721 -3.911739 -1.361372 52.000000
4.868133 -4.443658 -0.616095 3.000000
11.425165 6.458784 -1.032914 5.000000
16.973192 1.643303 -1.729129 6.000000
11.758707 -3.927563 -1.344588 26.000000
4.881605 -4.488866 -0.612873 1.000000
11.519950 6.462051 -1.046499 5.000000
16.874813 1.574341 -1.718536 6.000000
11.848280 -4.005813 -1.352083 70.000000
4.828982 -4.473252 -0.602528 2.000000
11.613736 6.456160 -1.062094 5.000000
16.974838 1.514964 -1.731094 6.000000
11.880999 -4.065458 -1.353074 33.000000
4.799156 -4.476851 -0.594978 8.000000
20.148596 11.113447 -1.855408 6.000000
16.796091 1.442886 -1.715341 6.000000
11.815010 -4.091314 -1.340635 39.000000
4.793979 -4.504996 -0.590591 9.000000
20.078766 10.970040 -1.852947 6.000000
16.791834 1.374639 -1.714329 6.000000
11.697588 -4.098729 -1.320255 44.000000
4.781572 -4.526453 -0.582995 4.000000
20.086737 10.878987 -1.870057 6.000000
16.711332 1.309341 -1.714502 6.000000
11.733525 -4.161974 -1.323908 70.000000
4.761566 -4.540721 -0.579109 2.000000
19.682878 10.575992 -1.840961 6.000000
16.785763 1.253290 -1.718686 6.000000
11.601628 -4.163125 -1.306387 49.000000
4.730958 -4.544757 -0.570486 1.000000
19.794415 10.533741 -1.863185 6.000000
16.760471 1.189645 -1.715639 6.000000
11.502800 -4.175312 -1.290494 57.000000
16.704866 1.124179 -1.712466 6.000000
11.679228 -4.287864 -1.307651 69.000000
14.852793 7.764852 -1.419162 6.000000
16.763435 1.057603 -1.723926 6.000000
11.416575 -4.238983 -1.277826 64.000000
14.863018 7.700966 -1.423318 1.000000
16.638058 0.994311 -1.707744 6.000000
11.154312 -4.190409 -1.241853 75.000000
2.120884 2.599534 -0.184047 4.000000
19.074434 9.802927 -1.842342 6.000000
16.640995 0.933290 -1.713562 6.000000
11.167379 -4.242089 -1.238708 67.000000
5.638450 -5.579711 -0.660538 6.000000
18.936827 9.644632 -1.829361 6.000000
16.544666 0.867069 -1.706227 6.000000
11.040930 -4.240427 -1.220139 82.000000
5.594351 -5.582646 -0.649772 32.000000
2.120975 2.560177 -0.189367 3.000000
18.777971 9.468987 -1.832517 6.000000
16.607489 0.806431 -1.712373 6.000000
10.955965 -4.253939 -1.210391 121.000000
5.613331 -5.634926 -0.646929 5.000000
2.235300 2.679084 -0.202404 6.000000
18.665852 9.334942 -1.829555 6.000000
16.515926 0.741318 -1.702641 6.000000
10.986993 -4.312393 -1.211394 80.000000
5.649506 -5.704995 -0.647404 7.000000
2.251390 2.678351 -0.206648 7.000000
18.596437 9.215176 -1.830380 6.000000
16.548052 0.681996 -1.708605 6.000000
10.916219 -4.330855 -1.199119 87.000000
5.604493 -5.701183 -0.637614 1.000000
2.272569 2.686368 -0.210897 6.000000
18.508516 9.087265 -1.829316 6.000000
16.500849 0.616594 -1.703474 6.000000
8.445662 -8.654592 -0.951709 1.000000
2.263759 2.654271 -0.212756 6.000000
18.454111 8.968797 -1.834804 6.000000
16.468203 0.554939 -1.699883 6.000000
10.981573 -4.452457 -1.195308 68.000000
8.450665 -8.720410 -0.945035 2.000000
2.272427 2.646608 -0.215800 6.000000
16.033451 7.726721 -1.600967 6.000000
16.425383 0.493233 -1.695265 6.000000
11.090055 -4.543841 -1.202582 29.000000
8.402047 -8.734070 -0.930405 1.000000
2.295509 2.652814 -0.220096 7.000000
15.996415 7.629899 -1.600434 6.000000
16.426785 0.433019 -1.698133 6.000000
10.867047 -4.499056 -1.173959 38.000000
8.277569 -8.668036 -0.909612 1.000000
2.321459 2.663014 -0.225361 7.000000
15.897448 7.511295 -1.597049 6.000000
16.324495 0.367604 -1.681640 6.000000
10.795967 -4.516051 -1.161873 37.000000
8.182618 -8.628711 -0.892046 1.000000
2.317390 2.639687 -0.228380 7.000000
15.883016 7.433388 -1.608283 6.000000
16.285366 0.307008 -1.683228 6.000000
10.811986 -4.569386 -1.159185 48.000000
8.093470 -8.597596 -0.873323 1.000000
2.369858 2.679579 -0.236343 7.000000
15.927457 7.383145 -1.619302 6.000000
16.251572 0.246789 -1.679630 6.000000
10.759110 -4.593589 -1.149129 81.000000
7.997730 -8.558529 -0.856094 1.000000
2.352974 2.640921 -0.236793 7.000000
15.799802 7.253737 -1.612790 6.000000
16.237444 0.187050 -1.678088 6.000000
11.007781 -4.747533 -1.171201 39.000000
7.988766 -8.608981 -0.845982 1.000000
2.364451 2.637075 -0.240218 8.000000
15.819725 7.196131 -1.621429 6.000000
16.188311 0.124320 -1.672948 6.000000
7.886696 -8.561709 -0.828280 1.000000
2.373013 2.629032 -0.243927 9.000000
15.749902 7.094813 -1.620720 6.000000
16.228447 0.065146 -1.677060 6.000000
7.801991 -8.532300 -0.810495 1.000000
2.390088 2.626673 -0.248333 8.000000
15.799835 7.054375 -1.632582 6.000000
16.193758 0.005653 -1.673462 6.000000
9.422795 -4.189388 -0.994762 63.000000
7.715629 -8.497224 -0.794536 1.000000
2.422622 2.643828 -0.255156 8.000000
15.712889 6.940040 -1.635831 6.000000
16.123770 -0.047840 -1.669081 6.000000
9.368297 -4.202420 -0.986857 184.000000
7.641476 -8.477789 -0.780087 1.000000
2.444811 2.650344 -0.258463 8.000000
15.708200 6.875807 -1.635980 6.000000
16.113850 -0.104060 -1.665239 6.000000
9.128052 -4.131067 -0.957693 35.000000
7.597223 -8.485103 -0.766456 1.000000
2.481480 2.670390 -0.265141 5.000000
15.659438 6.786180 -1.637318 6.000000
