VERSION .7
FIELDS x y z intensity
SIZE 4 4 4 4
TYPE F F F F
COUNT 1 1 1 1
WIDTH 1235
HEIGHT 1
VIEWPOINT 0 0 0 1 0 0 0
POINTS 1235
DATA ascii
12.125225 -4.935874 0.786943 5.000000
9.402854 -9.699604 0.542582 1.000000
26.290243 30.716726 2.083539 10.000000
55.023945 1.527347 3.926372 9.000000
12.101927 -4.978173 0.795779 4.000000
19.055977 -19.802090 1.127808 8.000000
26.514460 30.749834 2.063942 10.000000
55.019207 1.325424 3.925661 20.000000
12.120210 -5.037712 0.802788 5.000000
8.754621 -9.164389 0.528981 1.000000
26.568121 30.606255 2.031841 10.000000
34.548313 16.249838 2.562625 8.000000
57.157619 1.177321 4.077920 7.000000
29.664293 -12.445358 1.978824 10.000000
8.682905 -9.156272 0.535497 1.000000
26.761181 30.612143 2.009964 12.000000
34.554180 16.098198 2.545301 15.000000
57.031898 0.965625 4.068671 15.000000
12.912237 -5.470284 0.867522 36.000000
8.643718 -9.178907 0.546076 1.000000
26.914486 30.539236 1.983768 10.000000
57.249493 0.759431 4.083968 4.000000
12.967735 -5.555300 0.880157 1.000000
8.572231 -9.170106 0.552459 1.000000
27.080202 30.501167 1.959187 17.000000
34.271206 15.668882 2.483103 8.000000
8.521312 -9.182872 0.560106 1.000000
27.225595 30.460869 1.926654 22.000000
8.492392 -9.216017 0.566891 1.000000
27.375870 30.414656 1.908290 26.000000
34.109001 15.293429 2.436953 8.000000
59.423786 0.165943 4.238718 1.000000
25.478119 -11.231879 1.766435 8.000000
8.451475 -9.239342 0.577367 1.000000
27.555368 30.389339 1.877151 10.000000
34.138275 15.170792 2.409247 14.000000
59.376335 -0.041453 4.204072 10.000000
14.243136 -6.347411 0.991988 6.000000
8.427423 -9.281124 0.584622 1.000000
27.673710 30.317205 1.849637 28.000000
34.352016 15.122406 2.400857 9.000000
61.784828 -0.248022 4.374636 16.000000
14.237579 -6.395636 0.998389 6.000000
27.839603 30.275343 1.824524 24.000000
68.793076 29.983494 4.773925 19.000000
14.233027 -6.453393 1.005121 6.000000
27.993277 30.229986 1.806054 35.000000
68.870438 29.717310 4.771702 10.000000
22.574131 -10.335244 1.614230 10.000000
8.252478 -9.281929 0.609615 33.000000
28.135828 30.161427 1.764832 29.000000
63.741016 -0.945686 4.547150 1.000000
22.494825 -10.398833 1.619961 9.000000
8.201596 -9.293071 0.617042 56.000000
28.301758 30.117237 1.739400 34.000000
34.873470 14.752653 2.375664 8.000000
63.617031 -1.199295 4.538611 10.000000
14.179000 -6.614789 1.030982 7.000000
8.193519 -9.352792 0.627712 218.000000
28.467735 30.072229 1.713855 35.000000
34.841366 14.588752 2.343345 22.000000
14.127578 -6.653958 1.029010 7.000000
8.265480 -9.501646 0.642373 221.000000
28.666420 30.071163 1.690433 24.000000
68.834908 28.526428 4.622604 4.000000
14.107112 -6.707604 1.037518 7.000000
8.272729 -9.580667 0.654521 204.000000
28.815319 30.006374 1.663626 33.000000
68.446152 28.085770 4.563962 14.000000
14.100097 -6.767742 1.044303 7.000000
8.259929 -9.637025 0.667405 210.000000
28.999054 29.977003 1.631425 29.000000
68.435966 27.788963 4.504701 17.000000
14.102997 -6.829806 1.051771 7.000000
8.245352 -9.688255 0.677862 208.000000
29.158339 29.921421 1.604994 39.000000
67.052254 26.941240 4.381773 18.000000
14.068410 -6.876826 1.059301 7.000000
8.248141 -9.763814 0.689978 154.000000
29.301876 29.859474 1.577899 29.000000
66.998924 26.635023 4.346619 22.000000
14.047253 -6.930387 1.065106 8.000000
8.218327 -9.801167 0.701679 66.000000
29.457556 29.798853 1.551097 30.000000
66.875298 26.315920 4.294848 20.000000
129.258743 -5.666162 9.206189 10.000000
14.031405 -6.983573 1.073991 7.000000
8.212497 -9.863944 0.713105 71.000000
29.676632 29.801203 1.527470 34.000000
52.665596 20.501696 3.357630 206.000000
129.072708 -6.132070 9.194479 10.000000
14.027667 -7.045981 1.081180 7.000000
8.217311 -9.943618 0.725717 31.000000
29.821795 29.728254 1.499888 36.000000
52.615715 20.260523 3.329943 238.000000
13.996790 -7.094835 1.089053 7.000000
8.237554 -10.042848 0.737573 130.000000
29.982941 29.680954 1.473282 31.000000
52.597408 20.032421 3.304401 130.000000
13.971601 -7.143476 1.094531 6.000000
8.205107 -10.074807 0.751464 187.000000
30.092430 29.571749 1.436465 20.000000
66.540398 25.077187 4.149930 12.000000
13.958453 -7.201410 1.098316 7.000000
8.196118 -10.139442 0.760888 81.000000
66.394684 24.744738 4.110340 20.000000
13.980117 -7.277588 1.110405 6.000000
8.174099 -10.188358 0.773744 1.000000
30.474941 29.511650 1.385059 29.000000
66.383224 24.463743 4.079275 15.000000
78.289627 -5.131373 5.568859 15.000000
13.971949 -7.335437 1.117319 6.000000
18.114140 -22.739992 1.742521 14.000000
30.637632 29.452372 1.357838 34.000000
66.319000 24.164360 4.045138 19.000000
13.957671 -7.393326 1.126649 6.000000
18.110390 -22.907061 1.770685 31.000000
30.751776 29.356247 1.328637 33.000000
66.132011 23.822027 3.991456 11.000000
13.912538 -7.434845 1.130732 5.000000
18.071560 -23.030954 1.800773 29.000000
30.838064 29.223339 1.298039 32.000000
18.946423 6.750244 1.135056 6.000000
13.929879 -7.506741 1.142592 4.000000
18.073282 -23.199442 1.824460 36.000000
30.974743 29.138128 1.269572 34.000000
18.947863 6.672596 1.126635 6.000000
84.951332 -6.805177 6.078993 4.000000
18.023777 -23.311632 1.853890 38.000000
31.144066 29.082987 1.242360 36.000000
65.805183 22.902912 3.883343 9.000000
17.967798 -23.416088 1.877636 36.000000
31.331718 29.043976 1.215741 27.000000
65.795540 22.629536 3.853491 3.000000
87.110329 -7.605846 6.252562 1.000000
17.948448 -23.560705 1.910149 38.000000
31.499720 28.995932 1.188411 34.000000
65.733597 22.351942 3.820961 15.000000
40.430550 -3.665239 2.902861 9.000000
17.891254 -23.665064 1.934079 6.000000
31.637028 28.929104 1.152527 29.000000
41.259140 13.877219 2.372761 16.000000
40.402451 -3.812042 2.894708 9.000000
17.868782 -23.798983 1.961037 33.000000
31.854465 28.914270 1.126525 35.000000
41.315247 13.727738 2.357836 31.000000
40.214485 -3.943065 2.882257 9.000000
26.493494 -35.543751 2.960024 34.000000
32.067432 28.873646 1.099803 29.000000
65.524323 21.479959 3.710343 1.000000
40.198547 -4.097397 2.889309 10.000000
26.337812 -35.632515 2.981892 40.000000
32.215588 28.814180 1.078956 14.000000
65.786407 21.324533 3.696949 3.000000
40.159943 -4.228067 2.887526 10.000000
13.747607 -7.927589 1.201596 21.000000
26.212364 -35.709927 3.012147 56.000000
32.448895 28.809477 1.037758 29.000000
65.328102 20.899122 3.618638 1.000000
41.042065 -4.473091 2.944868 10.000000
26.038263 -35.759789 3.046681 53.000000
32.663429 28.786554 1.018429 15.000000
65.178658 20.613302 3.594589 1.000000
40.936485 -4.606233 2.945655 10.000000
13.416270 -7.861839 1.182864 8.000000
25.889372 -35.804218 3.066380 35.000000
32.850761 28.748541 0.990642 11.000000
65.264488 20.377619 3.571248 6.000000
41.424625 -4.814974 2.982029 10.000000
13.312135 -7.869639 1.189912 8.000000
12.505571 -17.435431 1.515442 6.000000
33.080956 28.736568 0.963794 21.000000
65.076897 20.057571 3.545018 12.000000
40.930817 -4.909688 2.954989 32.000000
14.032201 -8.364870 1.262744 9.000000
12.359991 -17.366508 1.520460 10.000000
33.099487 28.540478 0.930754 33.000000
65.265800 19.854155 3.527444 5.000000
41.115993 -5.084835 2.962416 10.000000
13.799067 -8.288039 1.247057 8.000000
12.247188 -17.329369 1.524812 9.000000
33.272835 28.478001 0.894451 34.000000
40.969360 -5.211961 2.953144 10.000000
13.617362 -8.250216 1.241877 21.000000
12.151639 -17.322147 1.535284 8.000000
33.526039 28.482485 0.867721 27.000000
60.468258 17.922995 3.205952 19.000000
13.628036 -8.318588 1.248163 9.000000
12.047571 -17.308388 1.544941 9.000000
30.779594 25.955572 0.773081 36.000000
66.410744 19.419859 3.493003 7.000000
121.338936 -16.340977 8.797681 135.000000
13.660573 -8.407328 1.262407 9.000000
11.974973 -17.332809 1.561865 10.000000
30.909624 25.871969 0.731735 37.000000
66.621780 19.216795 3.476110 1.000000
121.185371 -16.751190 8.747809 96.000000
13.703854 -8.506686 1.277914 11.000000
11.881980 -17.346699 1.577257 21.000000
34.037369 28.288490 0.780255 30.000000
67.490852 19.199808 3.480928 7.000000
121.117767 -17.151352 8.768447 187.000000
13.721484 -8.580796 1.290731 7.000000
11.815357 -17.372723 1.590803 20.000000
34.222221 28.230692 0.751135 33.000000
67.539398 18.959032 3.455451 8.000000
47.297329 -6.891504 3.434500 16.000000
13.783637 -8.686740 1.308008 6.000000
11.742707 -17.396177 1.607609 36.000000
34.383881 28.152905 0.721380 31.000000
68.340591 18.913994 3.480465 6.000000
13.347676 -8.480500 1.272356 9.000000
11.667300 -17.421827 1.617061 27.000000
8.593653 6.983872 0.173959 1.000000
68.559990 18.704454 3.463258 16.000000
13.848915 -8.870379 1.331894 1.000000
11.624945 -17.490326 1.638080 29.000000
8.545372 6.892784 0.162886 8.000000
46.661526 12.546572 2.329375 5.000000
13.877153 -8.963797 1.343714 1.000000
11.551267 -17.531729 1.652349 24.000000
8.562880 6.855255 0.153165 1.000000
46.693111 12.371732 2.320222 26.000000
13.947009 -9.074607 1.362155 4.000000
11.509144 -17.587816 1.668984 8.000000
8.619345 6.848771 0.146038 1.000000
70.964890 18.524652 3.471592 5.000000
13.981726 -9.166821 1.371601 5.000000
11.462964 -17.658163 1.686453 25.000000
17.422407 13.739650 0.278840 6.000000
71.102257 18.295647 3.462324 1.000000
65.696945 -11.005685 4.798209 8.000000
13.984849 -9.242336 1.384057 6.000000
11.438240 -17.755478 1.710474 32.000000
17.374407 13.598808 0.258016 6.000000
65.549843 -11.251744 4.779058 13.000000
13.971010 -9.306940 1.394904 6.000000
11.415538 -17.863714 1.728032 18.000000
17.329475 13.461507 0.245123 6.000000
74.021820 -12.945503 5.412848 27.000000
13.975063 -9.380236 1.407444 6.000000
11.378523 -17.950451 1.751048 5.000000
17.309187 13.349130 0.228913 7.000000
73.798065 -13.185308 5.386832 217.000000
14.002084 -9.472998 1.419595 6.000000
11.349466 -18.043591 1.774988 7.000000
17.314476 13.252288 0.209310 6.000000
73.661858 -13.439758 5.367313 210.000000
14.042831 -9.572189 1.430092 9.000000
25.669735 -41.144051 4.063718 8.000000
17.370979 13.194850 0.197984 6.000000
73.527840 -13.693958 5.374290 155.000000
14.064523 -9.662664 1.444896 10.000000
25.935808 -41.895454 4.172270 16.000000
17.331570 13.065017 0.170469 3.000000
83.289665 -15.813036 6.076925 17.000000
14.075354 -9.742603 1.455512 8.000000
25.976049 -42.306145 4.238569 26.000000
17.419441 13.031406 0.159471 1.000000
20.250587 -3.921646 1.482167 28.000000
14.124726 -9.853545 1.473426 9.000000
15.291484 -25.100702 2.524929 6.000000
17.286539 12.833437 0.139034 22.000000
20.021049 -3.953382 1.462838 27.000000
14.143232 -9.940029 1.478966 10.000000
15.190738 -25.142273 2.544153 10.000000
17.349619 12.781896 0.127880 6.000000
19.914480 -4.004614 1.452500 24.000000
12.553183 -8.891438 1.324207 9.000000
15.101737 -25.193233 2.569787 34.000000
29.040987 6.353201 1.271953 2.000000
19.811476 -4.059505 1.449611 25.000000
14.202941 -10.138342 1.505214 15.000000
14.980381 -25.199770 2.585461 26.000000
28.893785 6.210117 1.248998 9.000000
19.704445 -4.112884 1.432279 10.000000
14.235791 -10.236991 1.518640 10.000000
14.871397 -25.216419 2.597275 10.000000
28.833893 6.086767 1.229979 19.000000
19.699240 -4.187202 1.429474 10.000000
14.258462 -10.332787 1.528185 14.000000
14.617280 -24.994444 2.584157 12.000000
28.925945 5.995540 1.196808 10.000000
14.302990 -10.441396 1.533740 15.000000
14.451793 -24.910604 2.585458 31.000000
28.903486 5.990885 1.144280 10.000000
14.300895 -10.439866 1.505498 12.000000
14.493355 -24.982246 2.557327 11.000000
28.868507 6.088811 1.123101 16.000000
19.781841 -4.204760 1.368081 15.000000
14.268120 -10.335988 1.473274 10.000000
14.659334 -25.056318 2.534652 17.000000
28.895037 6.205110 1.119845 22.000000
19.764093 -4.125334 1.348100 8.000000
14.236375 -10.237411 1.450890 8.000000
14.884265 -25.228174 2.521482 18.000000
17.770262 12.986824 0.019207 1.000000
28.989630 6.336664 1.114031 9.000000
19.847715 -4.070541 1.338619 21.000000
14.218440 -10.145660 1.423778 6.000000
15.009451 -25.238642 2.491612 23.000000
17.803055 13.111161 0.027012 1.000000
19.897427 -4.004797 1.330300 25.000000
14.201905 -10.059232 1.403311 5.000000
15.113439 -25.202778 2.462531 10.000000
17.228880 12.785967 0.041191 8.000000
19.980490 -3.948996 1.324214 16.000000
14.210736 -9.987472 1.391403 1.000000
26.992224 -44.639763 4.325490 9.000000
17.125832 12.807097 0.048521 9.000000
20.313448 -3.937498 1.341689 9.000000
14.235971 -9.927458 1.375060 2.000000
26.079157 -42.791664 4.102376 20.000000
83.382355 -15.845713 5.458846 8.000000
12.570577 -8.701035 1.197834 2.000000
26.018885 -42.342754 4.016067 23.000000
73.590019 -13.718830 4.775245 145.000000
12.730456 -8.742860 1.199160 4.000000
25.945307 -41.894459 3.938832 10.000000
73.679886 -13.456337 4.764719 184.000000
12.835906 -8.749497 1.192571 6.000000
73.804848 -13.199814 4.730224 175.000000
12.835706 -8.680628 1.175988 6.000000
11.376647 -18.072803 1.661958 8.000000
60.816349 15.151945 2.363928 1.000000
73.951851 -12.946568 4.723417 18.000000
12.954891 -8.692204 1.175765 6.000000
11.379013 -17.937376 1.634499 5.000000
60.798355 15.384349 2.387327 1.000000
97.853806 -16.779194 6.194104 49.000000
12.969064 -8.636215 1.166104 6.000000
11.426643 -17.867344 1.613306 29.000000
97.944412 -16.460575 6.178949 9.000000
13.030598 -8.608421 1.155088 6.000000
11.430430 -17.736555 1.582867 24.000000
8.664213 6.881956 0.065661 1.000000
97.958717 -16.058910 6.123559 195.000000
13.069745 -8.568900 1.142187 6.000000
11.471808 -17.658287 1.557450 19.000000
8.576434 6.863650 0.072855 1.000000
46.780220 12.377338 1.842039 1.000000
13.151396 -8.553676 1.143823 8.000000
11.547480 -17.639677 1.548255 10.000000
8.539523 6.885606 0.076584 1.000000
46.768318 12.557782 1.843370 24.000000
13.225728 -8.533204 1.128230 8.000000
11.593714 -17.569441 1.523650 12.000000
8.527036 6.924793 0.084358 1.000000
68.496513 18.661449 2.714871 14.000000
80.750458 -12.342134 4.981955 29.000000
13.259801 -8.489782 1.125839 9.000000
11.620094 -17.469797 1.500287 26.000000
34.412514 28.156288 0.372505 22.000000
68.373756 18.897482 2.737531 9.000000
80.774170 -12.057367 4.966484 156.000000
13.329544 -8.465714 1.115269 6.000000
11.681872 -17.430424 1.478314 28.000000
34.224102 28.212175 0.387065 34.000000
67.850327 19.007992 2.719214 5.000000
47.828438 -6.960365 2.913793 34.000000
13.698586 -8.629800 1.134973 8.000000
11.746397 -17.388552 1.460003 30.000000
34.004868 28.241409 0.416616 33.000000
67.592316 19.203171 2.723959 24.000000
47.772697 -6.790555 2.900558 16.000000
13.716773 -8.574520 1.119808 10.000000
11.833137 -17.385813 1.441104 23.000000
30.910089 25.863186 0.393929 28.000000
67.334229 19.396839 2.716405 5.000000
13.718929 -8.506096 1.108940 9.000000
11.891843 -17.335127 1.422075 20.000000
30.742237 25.914890 0.421070 36.000000
41.818630 -5.624375 2.514245 174.000000
13.651309 -8.398341 1.092666 8.000000
11.981397 -17.329170 1.410405 19.000000
30.711601 26.082214 0.450090 10.000000
60.542572 17.910542 2.480631 10.000000
41.878986 -5.476298 2.509253 205.000000
13.618766 -8.309669 1.076427 13.000000
12.059761 -17.313007 1.390314 17.000000
33.291302 28.473679 0.504644 35.000000
60.481304 18.133757 2.480828 9.000000
41.873032 -5.334349 2.493036 1.000000
13.624003 -8.244491 1.066070 6.000000
12.166830 -17.330931 1.376767 24.000000
33.118267 28.536524 0.534127 32.000000
13.811436 -8.292188 1.069992 7.000000
12.259778 -17.327929 1.361488 10.000000
33.084900 28.719738 0.565874 11.000000
65.077454 20.032871 2.711013 16.000000
13.971141 -8.318560 1.065744 6.000000
12.387627 -17.379641 1.346500 10.000000
33.028187 28.883459 0.582029 12.000000
65.590248 20.454205 2.735480 2.000000
13.284513 -7.843926 1.003055 5.000000
12.501415 -17.403969 1.333153 7.000000
32.933048 29.013962 0.612870 3.000000
65.512764 20.681240 2.759261 3.000000
41.362759 -4.661508 2.421927 7.000000
25.903484 -35.797409 2.718043 49.000000
32.583111 28.918472 0.638747 1.000000
65.335670 20.888973 2.778992 6.000000
41.220406 -4.499808 2.405396 8.000000
13.846183 -8.042503 1.021448 20.000000
26.074406 -35.756935 2.675692 35.000000
32.373524 28.935106 0.666934 3.000000
65.438354 21.186476 2.810693 2.000000
40.154449 -4.234575 2.342271 10.000000
13.737659 -7.912271 1.002961 4.000000
26.250992 -35.723324 2.641533 90.000000
32.259476 29.046562 0.697086 5.000000
65.482758 21.466331 2.840055 7.000000
40.155212 -4.085898 2.334358 10.000000
26.403074 -35.668686 2.620974 79.000000
31.844053 28.864298 0.720187 33.000000
41.293674 13.688566 1.785303 19.000000
40.175003 -3.946273 2.320556 8.000000
26.547192 -35.589855 2.575659 38.000000
31.687050 28.954544 0.741740 36.000000
41.226006 13.842051 1.799868 27.000000
17.902840 -23.818359 1.702397 32.000000
31.536186 29.029499 0.770628 30.000000
65.822281 22.369282 2.901575 5.000000
17.899199 -23.641243 1.673425 9.000000
31.355110 29.055487 0.790943 32.000000
65.827103 22.614697 2.929416 9.000000
53.589207 -4.669600 3.073385 1.000000
17.971466 -23.556786 1.646161 29.000000
31.176331 29.092751 0.818771 32.000000
19.166527 6.663240 0.861119 2.000000
53.820156 -4.500486 3.066796 1.000000
17.993784 -23.416090 1.609689 35.000000
30.996330 29.138050 0.839126 34.000000
18.986467 6.678742 0.854124 6.000000
54.020939 -4.317954 3.067826 1.000000
18.019207 -23.272127 1.578562 34.000000
30.834337 29.199387 0.874706 32.000000
18.896580 6.721338 0.865158 6.000000
82.690018 -6.333615 4.694712 1.000000
18.074341 -23.167421 1.555371 28.000000
30.731001 29.336414 0.897363 29.000000
66.115906 23.816225 3.031392 1.000000
82.697304 -6.000359 4.650168 1.000000
18.100567 -23.034790 1.519936 27.000000
30.653179 29.467316 0.927787 33.000000
66.374489 24.184580 3.071997 1.000000
18.126795 -22.894939 1.489531 18.000000
30.504530 29.519678 0.955895 28.000000
78.435730 -5.154698 4.435985 22.000000
16.668276 -8.747330 1.078799 9.000000
30.377747 29.613363 0.984950 10.000000
66.539406 24.785452 3.137427 1.000000
78.252274 -4.827241 4.410751 5.000000
16.708183 -8.682910 1.069226 1.000000
8.194940 -10.199738 0.646783 192.000000
30.190174 29.647093 1.004552 15.000000
66.325951 24.956713 3.131247 1.000000
8.204269 -10.135045 0.635458 170.000000
29.999069 29.676191 1.031282 30.000000
66.881943 25.446146 3.186905 5.000000
88.350662 -4.815832 4.946901 1.000000
8.216525 -10.074455 0.619897 124.000000
29.841661 29.727297 1.058856 28.000000
66.978325 25.764236 3.221076 5.000000
88.393517 -4.493290 4.932850 1.000000
8.239302 -10.030689 0.607617 118.000000
29.626131 29.729725 1.084389 35.000000
66.821465 25.998873 3.255929 15.000000
8.228446 -9.942948 0.597353 93.000000
29.509533 29.830597 1.106101 33.000000
66.967430 26.338675 3.267723 6.000000
8.233178 -9.874757 0.583822 165.000000
29.269835 29.826824 1.138090 27.000000
8.245438 -9.819567 0.571045 162.000000
29.171936 29.914476 1.167125 34.000000
8.236461 -9.736190 0.559027 196.000000
28.974617 29.930830 1.192717 35.000000
68.392494 27.743507 3.428935 3.000000
8.275644 -9.710107 0.548113 194.000000
28.812191 29.982161 1.219601 27.000000
68.317230 27.991081 3.455867 1.000000
8.267439 -9.632169 0.536461 179.000000
28.677366 30.061626 1.247580 27.000000
68.590897 28.397255 3.513908 1.000000
8.280118 -9.575702 0.523936 173.000000
28.482134 30.066410 1.279820 34.000000
68.697159 28.736643 3.550776 1.000000
8.259611 -9.481524 0.511643 15.000000
28.319929 30.115501 1.299149 32.000000
63.708290 -1.178769 3.495525 8.000000
8.245223 -9.395257 0.495504 15.000000
28.191683 30.200159 1.327206 26.000000
63.642292 -0.944222 3.491690 7.000000
22.440725 -10.364319 1.247861 34.000000
8.218640 -9.299290 0.483275 10.000000
27.995251 30.210962 1.351948 27.000000
68.837921 29.674782 3.640009 1.000000
22.592489 -10.334111 1.245491 18.000000
8.286170 -9.306732 0.474346 3.000000
27.844994 30.259995 1.378524 23.000000
34.771275 15.140635 1.854826 5.000000
8.390505 -9.354654 0.469568 9.000000
27.685892 30.309294 1.412003 29.000000
34.646385 15.237557 1.864374 8.000000
61.577503 -0.247189 3.367283 11.000000
8.433372 -9.336674 0.461344 6.000000
27.537025 30.369108 1.438732 32.000000
59.496109 -0.020768 3.253439 7.000000
8.474587 -9.319983 0.453100 6.000000
27.381981 30.400097 1.464490 43.000000
59.485329 0.166115 3.263275 13.000000
25.489721 -11.226368 1.347593 6.000000
27.235035 30.450031 1.490865 25.000000
34.404282 15.577523 1.913172 9.000000
27.063520 30.460953 1.515482 35.000000
34.556225 15.784612 1.937817 8.000000
18.920109 -20.360460 0.936599 20.000000
26.921066 30.525215 1.549328 32.000000
57.088863 0.777231 3.132087 9.000000
12.895151 -5.513554 0.661375 9.000000
18.977972 -20.273209 0.916370 64.000000
26.700762 30.510777 1.578815 23.000000
34.644554 16.125586 1.982627 8.000000
57.025734 0.985432 3.128800 17.000000
12.934093 -5.474219 0.652512 1.000000
18.970404 -20.116831 0.888283 34.000000
26.571642 30.588734 1.606129 19.000000
34.580067 16.250034 1.995705 8.000000
57.421047 1.202799 3.150710 3.000000
29.625755 -12.410952 1.492284 38.000000
19.020338 -20.022247 0.867879 38.000000
26.410757 30.607954 1.623732 28.000000
34.446121 16.334124 1.997925 8.000000
54.992157 1.334376 2.998404 17.000000
29.704294 -12.316072 1.471459 32.000000
19.052628 -19.916546 0.842099 34.000000
26.301664 30.719217 1.666685 28.000000
31.610554 15.131675 1.861197 7.000000
55.010529 1.546192 3.018974 10.000000
19.070312 -19.789316 0.825267 29.000000
26.113729 30.726967 1.690101 27.000000
9.444541 -9.729007 0.395323 38.000000
25.955072 30.768103 1.715273 24.000000
50.165993 24.467590 2.993511 7.000000
9.501340 -9.716009 0.384338 33.000000
25.808247 30.811636 1.740778 30.000000
49.948952 24.577932 3.014894 12.000000
9.521356 -9.668728 0.374299 40.000000
25.721117 30.915308 1.769936 33.000000
49.620251 24.620914 3.019358 11.000000
126.453026 5.344171 6.921031 24.000000
9.592209 -9.676284 0.368682 6.000000
25.546213 30.934994 1.800771 27.000000
126.632072 5.816772 6.931951 19.000000
15.966098 -15.977249 0.587526 29.000000
25.350264 30.938906 1.830296 26.000000
16.017603 -15.911721 0.579385 9.000000
25.253019 31.029547 1.858684 22.000000
48.142124 24.561396 3.021618 9.000000
57.267536 3.051379 3.146054 1.000000
16.118946 -15.895440 0.557218 8.000000
25.064489 31.051670 1.888867 10.000000
48.005981 24.714108 3.047098 28.000000
57.373920 3.278019 3.172688 1.000000
18.722816 -7.052366 0.849036 8.000000
16.281681 -15.944201 0.548977 21.000000
24.919935 31.082922 1.913608 15.000000
47.745319 24.801708 3.064565 30.000000
57.298496 3.464376 3.159086 1.000000
20.220814 -7.540146 0.908281 9.000000
16.408445 -15.950946 0.531295 23.000000
24.844234 31.211117 1.958022 9.000000
47.444309 24.856028 3.088310 31.000000
12.064619 -4.448481 0.541184 5.000000
16.636057 -16.054035 0.524645 31.000000
24.855961 31.461817 1.989067 10.000000
46.844906 24.761244 3.064459 26.000000
12.071807 -4.400938 0.531793 6.000000
16.788961 -16.083170 0.507305 26.000000
25.108576 32.010647 2.053803 9.000000
46.585049 24.842762 3.081132 31.000000
12.102130 -4.361807 0.527923 5.000000
16.961153 -16.134962 0.494453 23.000000
25.266260 32.455940 2.105207 10.000000
46.311989 24.905167 3.096431 31.000000
12.126866 -4.322953 0.523839 1.000000
17.154902 -16.199913 0.481887 22.000000
25.371679 32.838963 2.167578 10.000000
46.082481 24.999924 3.123921 31.000000
74.105492 5.832229 4.142937 12.000000
26.203011 -9.232677 1.130411 7.000000
17.338345 -16.253340 0.472915 32.000000
25.486687 33.226902 2.223944 10.000000
45.813961 25.051243 3.138771 32.000000
13.889923 -4.836983 0.593307 87.000000
17.498480 -16.294771 0.459107 32.000000
25.618057 33.652866 2.268363 10.000000
45.725697 25.231531 3.148486 12.000000
13.822911 -4.756912 0.579474 37.000000
17.703524 -16.353514 0.445929 26.000000
25.707010 34.027779 2.324593 11.000000
27.970203 15.568015 1.946653 13.000000
13.873460 -4.717508 0.578303 1.000000
17.889668 -16.410099 0.432218 10.000000
25.883394 34.511063 2.389181 11.000000
28.834633 16.187859 2.028310 8.000000
30.218990 -10.158072 1.247020 37.000000
10.405478 -9.474898 0.240730 8.000000
25.958414 34.876671 2.438335 11.000000
28.772991 16.285604 2.039545 8.000000
30.346523 -10.077300 1.239572 10.000000
10.466219 -9.460274 0.231480 9.000000
26.054535 35.275021 2.497885 12.000000
28.699173 16.382999 2.055924 8.000000
26.236914 35.782635 2.566177 12.000000
28.609148 16.457636 2.070722 8.000000
15.650474 -5.076089 0.626312 64.000000
26.348278 36.212101 2.621404 12.000000
28.743330 16.682039 2.102525 8.000000
15.566030 -4.979730 0.622128 51.000000
18.832632 -16.649988 0.359784 9.000000
26.465849 36.641857 2.685392 11.000000
43.740738 25.601006 3.233046 15.000000
15.626297 -4.938949 0.620979 1.000000
26.541962 37.032440 2.754753 13.000000
43.580093 25.701384 3.271788 34.000000
48.378712 -15.096084 1.902612 9.000000
26.413607 37.140095 2.787476 23.000000
43.304707 25.743132 3.275499 28.000000
19.907600 -6.131985 0.774745 28.000000
26.449032 37.466125 2.853208 13.000000
27.345039 16.391607 2.089630 32.000000
19.839241 -6.031404 0.767595 16.000000
26.605268 37.982151 2.917562 10.000000
29.691988 17.946711 2.292233 17.000000
37.689331 4.754587 2.170421 6.000000
19.823179 -5.947239 0.758891 19.000000
15.468130 -13.183043 0.223481 7.000000
29.764469 18.132675 2.321030 20.000000
37.703060 4.883390 2.172132 22.000000
19.823883 -5.875865 0.750941 26.000000
27.179853 39.399445 3.095292 15.000000
37.855949 5.057787 2.188780 6.000000
19.827240 -5.794135 0.746610 16.000000
27.112671 39.582237 3.136209 14.000000
64.994743 8.903172 3.771082 7.000000
19.877399 -5.729801 0.740472 14.000000
27.213747 40.058853 3.216604 9.000000
65.021927 9.138236 3.785986 1.000000
19.932159 -5.666544 0.734491 16.000000
27.313633 40.524632 3.280214 3.000000
35.754765 5.158710 2.082954 4.000000
17.118786 -4.798981 0.633274 8.000000
28.349201 42.379520 3.467022 15.000000
35.661190 5.278707 2.084929 19.000000
17.117207 -4.730939 0.626363 6.000000
14.179247 -11.560191 0.134108 26.000000
28.225798 42.499332 3.522825 25.000000
25.512571 16.309696 2.128028 10.000000
35.804317 5.427678 2.113417 9.000000
17.122450 -4.674538 0.622913 1.000000
14.151483 -11.459644 0.127129 31.000000
28.023100 42.563889 3.563509 16.000000
26.069040 -7.004688 0.937924 24.000000
14.154554 -11.368357 0.114070 1.000000
27.972145 42.778496 3.618927 16.000000
27.827671 18.071503 2.366780 34.000000
26.068130 -6.911839 0.932349 23.000000
19.773741 -15.773870 0.145688 7.000000
27.894855 43.003590 3.674254 17.000000
27.192053 17.800760 2.346762 9.000000
78.639259 12.807218 4.719632 8.000000
26.078783 -6.812459 0.931831 23.000000
19.700937 -15.592388 0.127169 8.000000
27.063164 17.858427 2.358338 14.000000
26.190844 -6.739285 0.930220 10.000000
19.701466 -15.486828 0.118092 9.000000
28.500380 44.633423 3.898191 11.000000
27.028700 17.971428 2.377872 10.000000
33.650459 5.727802 2.033939 8.000000
26.257803 -6.658876 0.931767 10.000000
19.734501 -15.396108 0.100477 7.000000
28.764400 45.430531 4.005314 15.000000
25.640245 17.184097 2.277497 14.000000
33.609219 5.847616 2.038703 34.000000
49.301559 -12.292260 1.721082 11.000000
19.875299 -15.378006 0.078948 1.000000
28.622705 45.540173 4.044352 18.000000
25.615974 17.297716 2.302387 9.000000
33.612827 5.969200 2.046153 6.000000
49.380577 -12.138172 1.731311 34.000000
19.763657 -15.187120 0.069604 1.000000
28.345587 45.468300 4.075741 15.000000
27.200146 18.512972 2.468180 26.000000
49.274754 -11.920817 1.708341 36.000000
19.858978 -15.144928 0.052307 7.000000
28.137611 45.487610 4.115592 1.000000
27.311939 18.735905 2.501980 10.000000
49.128029 -11.676766 1.692792 75.000000
14.882898 -11.255848 0.029311 7.000000
38.982330 26.942347 3.621260 28.000000
31.336588 5.921110 1.939369 5.000000
14.932141 -11.215445 0.022816 7.000000
38.824486 27.044062 3.640702 3.000000
31.251020 6.017998 1.952087 31.000000
14.973158 -11.160647 0.009778 1.000000
38.658394 27.129274 3.667153 38.000000
31.243111 6.135318 1.958563 17.000000
20.211571 -14.950316 0.000000 1.000000
30.218100 50.450794 4.752265 11.000000
38.401424 27.159548 3.693491 24.000000
20.250105 -14.864303 -0.008769 1.000000
28.938589 5.898143 1.827045 17.000000
20.140223 -14.675735 -0.026096 1.000000
25.254688 18.133972 2.485126 6.000000
28.754595 5.970493 1.832234 32.000000
22.877127 16.554195 2.276964 7.000000
28.919865 6.104916 1.849224 21.000000
13.670131 -9.808521 -0.032302 7.000000
30.094217 51.936138 5.082660 1.000000
22.757828 16.589209 2.285682 9.000000
28.999563 6.227557 1.876488 9.000000
13.644872 -9.714838 -0.043851 3.000000
29.855902 51.941978 5.125663 12.000000
22.703938 16.677700 2.301242 9.000000
29.655249 52.033382 5.187105 9.000000
22.655649 16.764299 2.331978 10.000000
28.806366 6.407320 1.877318 9.000000
55.624252 -38.991940 -0.237120 116.000000
8.795703 6.558504 0.917463 172.000000
28.797464 6.510918 1.893730 7.000000
29.230963 52.152931 5.293698 13.000000
8.747063 6.572256 0.924511 241.000000
29.178652 52.488346 5.391326 7.000000
8.679725 6.569189 0.929380 255.000000
18.354460 -12.567560 -0.100944 1.000000
8.662863 6.606504 0.939739 255.000000
8.665905 6.608824 0.953484 255.000000
18.367367 -12.477763 -0.085261 4.000000
29.204969 52.557285 5.471942 9.000000
8.678418 6.568200 0.948377 255.000000
14.249647 -9.756937 -0.051241 1.000000
29.148489 52.005779 5.383646 7.000000
8.725320 6.555919 0.949077 213.000000
14.263205 -9.843200 -0.036296 1.000000
29.297386 51.846275 5.335777 12.000000
8.805462 6.565780 0.951307 10.000000
28.790840 6.509420 1.996777 10.000000
14.184280 -9.869350 -0.021111 1.000000
29.511707 51.781521 5.287784 11.000000
22.654732 16.769739 2.421364 9.000000
55.587730 -38.966339 -0.047393 124.000000
29.788399 51.845486 5.262832 5.000000
22.732445 16.698641 2.418153 12.000000
30.170315 52.067463 5.243638 1.000000
22.751701 16.590826 2.394224 9.000000
28.904169 6.207071 1.989495 17.000000
14.251807 -10.146962 0.012214 1.000000
22.953959 16.609791 2.404106 9.000000
28.887337 6.092782 1.991962 26.000000
13.739201 -9.858080 0.026562 7.000000
25.314814 18.177145 2.622464 7.000000
28.684423 5.940259 1.981591 32.000000
13.646235 -9.867342 0.038209 3.000000
28.920416 5.883925 1.991289 11.000000
30.249660 50.523483 4.955220 10.000000
38.427467 27.177967 3.919246 13.000000
31.230934 6.234888 2.154373 10.000000
20.404552 -14.983151 0.092784 2.000000
30.450787 50.458935 4.917850 21.000000
31.219675 6.113740 2.146459 17.000000
20.076118 -14.855546 0.113333 6.000000
38.831734 27.049109 3.907370 3.000000
31.236658 6.003925 2.135019 26.000000
14.922920 -11.127254 0.094219 7.000000
31.199261 5.878244 2.136542 4.000000
14.929948 -11.217874 0.107560 7.000000
27.356359 18.766376 2.709954 19.000000
49.113064 -11.709441 2.019047 178.000000
14.800955 -11.206062 0.123127 8.000000
28.196575 45.246864 4.280135 1.000000
27.228373 18.532185 2.673168 31.000000
33.608482 6.077404 2.286439 5.000000
49.149586 -11.899616 2.022244 111.000000
19.792265 -15.099515 0.178143 16.000000
28.234268 44.939556 4.214215 4.000000
25.402948 17.160320 2.466518 10.000000
33.543518 5.956892 2.286707 10.000000
49.288952 -12.124773 2.056413 27.000000
14.044405 -10.796136 0.139132 1.000000
28.352535 44.780029 4.171278 7.000000
25.602654 17.158903 2.474371 27.000000
33.565517 5.833976 2.280761 30.000000
49.282261 -12.314859 2.075764 9.000000
14.119268 -10.936248 0.155856 6.000000
33.552639 5.705126 2.272483 12.000000
26.293653 -6.672853 1.113251 9.000000
14.106592 -11.009388 0.168654 4.000000
27.680614 43.034332 3.946151 14.000000
26.201103 -6.751678 1.115104 20.000000
19.741240 -15.523668 0.249849 6.000000
27.810183 42.889450 3.897316 21.000000
27.124964 17.756844 2.545831 10.000000
78.702820 12.803467 5.324113 20.000000
26.093260 -6.825972 1.130433 10.000000
14.099795 -11.171354 0.191527 6.000000
28.015419 42.861012 3.859095 16.000000
27.848362 18.091848 2.590289 35.000000
78.642639 12.497984 5.288989 15.000000
26.082361 -6.925358 1.135771 24.000000
14.205225 -11.335824 0.203012 7.000000
27.996292 42.507023 3.800264 10.000000
27.935818 18.003407 2.586432 10.000000
35.638641 5.529892 2.401765 9.000000
26.072306 -7.020205 1.141115 22.000000
14.147854 -11.375166 0.218631 31.000000
28.222311 42.510181 3.773950 16.000000
35.594017 5.395798 2.391162 27.000000
26.036379 -7.112979 1.150114 8.000000
14.137056 -11.452048 0.228639 20.000000
28.369577 42.409985 3.729056 16.000000
35.613964 5.265364 2.384879 23.000000
17.118258 -4.744095 0.766252 6.000000
14.191659 -11.582686 0.246196 2.000000
27.171675 40.298836 3.509520 15.000000
35.663067 5.139127 2.380573 10.000000
17.114923 -4.810788 0.773104 7.000000
14.349814 -11.799660 0.259417 1.000000
27.227011 40.078373 3.456076 15.000000
19.907324 -5.674507 0.903794 11.000000
14.379475 -11.912655 0.273780 1.000000
27.093628 39.569248 3.378653 15.000000
65.188591 8.918135 4.358617 23.000000
19.895683 -5.750118 0.911459 13.000000
14.408492 -12.026020 0.288275 1.000000
27.191647 39.401821 3.339257 21.000000
37.729420 5.020776 2.514732 9.000000
19.832041 -5.806809 0.916694 16.000000
27.256639 39.202560 3.288546 9.000000
37.693573 4.875473 2.504472 18.000000
19.800894 -5.876571 0.919856 22.000000
15.565502 -13.181834 0.338229 9.000000
26.699778 38.102921 3.180013 13.000000
29.731140 17.970375 2.569443 35.000000
37.725647 4.745790 2.498823 9.000000
19.826435 -5.963306 0.936534 22.000000
15.554883 -13.271047 0.356902 8.000000
26.569521 37.636799 3.108444 13.000000
27.275940 16.356659 2.335566 19.000000
19.847603 -6.049087 0.934947 31.000000
15.612101 -13.419045 0.373717 5.000000
26.439884 37.163307 3.037340 22.000000
43.328197 25.767332 3.675430 32.000000
19.882256 -6.139379 0.944911 16.000000
20.940367 -18.132719 0.522196 1.000000
26.567110 37.081192 3.005827 29.000000
43.599014 25.712543 3.681503 29.000000
48.305828 -15.101101 2.333650 9.000000
20.865952 -18.202528 0.541339 30.000000
26.508110 36.727367 2.944932 13.000000
43.832207 25.644268 3.666883 29.000000
15.642009 -4.952925 0.759406 39.000000
19.026525 -16.721094 0.508472 28.000000
26.410166 36.283848 2.878520 12.000000
28.730713 16.668013 2.369271 8.000000
15.585449 -4.997940 0.763269 8.000000
18.815130 -16.657932 0.522002 32.000000
26.295534 35.875713 2.821864 12.000000
28.784039 16.558243 2.351172 8.000000
15.747282 -5.113564 0.777900 1.000000
18.734201 -16.703299 0.538901 8.000000
26.131001 35.391472 2.767806 11.000000
26.023663 34.977081 2.704646 10.000000
28.732218 16.269148 2.320465 8.000000
30.380737 -10.094549 1.520937 32.000000
10.433991 -9.441075 0.321780 9.000000
25.922527 34.588387 2.643707 11.000000
28.774132 16.147289 2.295678 8.000000
30.173300 -10.160301 1.534860 42.000000
10.402801 -9.482429 0.334178 6.000000
25.815624 34.183952 2.589993 11.000000
27.940252 15.544958 2.213374 25.000000
29.998264 -10.223928 1.538940 38.000000
25.627762 33.677811 2.521680 10.000000
45.762180 25.241243 3.590346 12.000000
30.106434 -10.384112 1.557575 26.000000
17.693211 -16.366894 0.605887 34.000000
25.518492 33.292427 2.470091 10.000000
45.821018 25.065491 3.560601 28.000000
30.188143 -10.530351 1.558101 8.000000
17.493023 -16.295393 0.617677 26.000000
25.420990 32.890919 2.418732 10.000000
46.070995 24.983284 3.563696 20.000000
74.046425 5.788571 4.842029 18.000000
26.192583 -9.244424 1.373056 8.000000
17.316229 -16.249651 0.630123 25.000000
25.325348 32.531845 2.362715 10.000000
46.335255 24.907253 3.549381 33.000000
74.305847 5.547960 4.844637 3.000000
12.072596 -4.310733 0.638174 8.000000
17.143637 -16.206264 0.642481 21.000000
25.243172 32.205383 2.316412 10.000000
46.515457 24.795223 3.538050 31.000000
12.070594 -4.359965 0.643400 8.000000
16.978830 -16.168720 0.654902 34.000000
25.084059 31.761929 2.248597 10.000000
46.859264 24.779299 3.530052 28.000000
12.060548 -4.401603 0.648131 5.000000
16.818130 -16.133642 0.667263 24.000000
25.011652 31.432693 2.203635 10.000000
47.388706 24.816357 3.534271 28.000000
12.090189 -4.465101 0.655151 5.000000
16.606808 -16.042610 0.677230 31.000000
24.919458 31.093445 2.151060 32.000000
47.688675 24.761713 3.531337 30.000000
20.217661 -7.551031 1.104614 8.000000
16.436522 -15.994984 0.688698 22.000000
25.084148 31.064930 2.134467 18.000000
47.953770 24.676638 3.515887 14.000000
128.748245 7.310855 8.339187 25.000000
16.295355 -15.974313 0.701177 7.000000
25.243769 31.040308 2.110806 10.000000
128.510086 6.824895 8.322086 24.000000
16.083439 -15.882587 0.710354 30.000000
25.421824 31.026241 2.081072 10.000000
128.408539 6.370090 8.314019 10.000000
16.038174 -15.948849 0.726616 9.000000
25.561716 30.964771 2.055113 10.000000
128.342758 5.895351 8.285789 11.000000
12.108407 -4.723306 0.683421 2.000000
15.968658 -15.996553 0.741915 23.000000
25.711298 30.914474 2.022836 10.000000
49.491585 24.567835 3.505328 10.000000
12.076858 -4.762071 0.687165 5.000000
9.581610 -9.668967 0.456325 32.000000
25.835987 30.844753 1.996003 18.000000
49.855930 24.542971 3.505875 8.000000
12.097886 -4.816780 0.693825 3.000000
9.528358 -9.685978 0.464973 25.000000
25.982187 30.789343 1.963324 10.000000
50.135792 24.463692 3.490203 9.000000
12.112348 -4.874044 0.700244 1.000000
9.492507 -9.720543 0.476830 34.000000
26.141029 30.748209 1.938556 20.000000
55.108875 1.731866 3.546164 1.000000
12.030280 -4.889883 0.701028 2.000000
9.433993 -9.728329 0.482698 1.000000
26.288055 30.703323 1.913217 22.000000
31.633698 15.135967 2.163302 5.000000
54.970203 1.525855 3.536857 17.000000
12.162706 -5.000693 0.714513 3.000000
19.076769 -19.816772 0.999016 38.000000
26.466738 30.683655 1.882584 17.000000
34.289265 16.259745 2.321066 8.000000
54.940514 1.323528 3.534611 12.000000
12.111676 -5.031686 0.719482 2.000000
19.058630 -19.943718 1.025994 32.000000
26.629019 30.643982 1.857723 20.000000
34.217262 16.086836 2.299320 18.000000
57.234573 1.178906 3.681913 10.000000
29.642963 -12.424244 1.768846 9.000000
18.988400 -20.009600 1.045252 33.000000
26.766277 30.585640 1.831406 28.000000
34.548187 16.088066 2.304228 10.000000
57.103813 0.966842 3.673248 22.000000
12.986914 -5.499248 0.783556 27.000000
18.941835 -20.107618 1.066052 25.000000
26.921774 30.536757 1.813017 29.000000
34.430531 15.879979 2.285841 23.000000
56.975967 0.755802 3.684795 7.000000
12.837650 -5.491619 0.785538 1.000000
8.619819 -9.217786 0.498054 7.000000
27.097990 30.510473 1.767390 37.000000
34.247517 15.636377 2.243311 8.000000
8.572200 -9.234478 0.503863 1.000000
27.224922 30.438726 1.747306 36.000000
34.431763 15.582725 2.238743 34.000000
26.643343 -11.623581 1.645537 6.000000
8.495655 -9.216331 0.510017 1.000000
27.400063 30.430851 1.723421 30.000000
34.370579 15.403508 2.224482 35.000000
59.570339 0.166352 3.852256 8.000000
25.503437 -11.237724 1.592307 7.000000
8.481688 -9.269121 0.524393 1.000000
27.552687 30.375727 1.690156 35.000000
34.418316 15.288047 2.197896 13.000000
59.457798 -0.041509 3.813703 9.000000
18.782608 -20.678040 1.180594 26.000000
27.627554 30.234829 1.659299 34.000000
34.339672 15.109818 2.176352 9.000000
61.617786 -0.268860 3.952285 11.000000
18.770269 -20.802645 1.203745 29.000000
27.869024 30.286108 1.638662 26.000000
34.771126 15.147789 2.180238 6.000000
18.716974 -20.889730 1.224614 34.000000
27.976864 30.201689 1.610319 31.000000
22.611944 -10.347783 1.459962 51.000000
8.335586 -9.372110 0.556398 13.000000
28.169939 30.187428 1.586184 32.000000
22.460127 -10.378036 1.461272 10.000000
8.218210 -9.308621 0.561695 33.000000
28.350029 30.136969 1.553341 34.000000
63.652153 -1.199957 4.094616 9.000000
22.683819 -10.582458 1.487107 6.000000
8.213403 -9.372189 0.572428 165.000000
28.512392 30.108877 1.527768 23.000000
22.614424 -10.646361 1.498119 10.000000
8.259063 -9.490925 0.586718 213.000000
28.652529 30.046089 1.500624 30.000000
22.733025 -10.804160 1.508589 6.000000
8.256532 -9.558537 0.600070 216.000000
28.860106 30.042517 1.476598 31.000000
68.467651 28.080631 4.085548 10.000000
8.266748 -9.641574 0.610042 218.000000
28.978058 29.923931 1.432801 32.000000
68.284622 27.713627 4.042736 13.000000
19.662165 -9.517766 1.328422 9.000000
8.255426 -9.696664 0.620612 194.000000
29.168514 29.921413 1.408097 22.000000
67.038857 26.922268 3.937820 10.000000
19.496483 -9.525925 1.330982 31.000000
8.222773 -9.730337 0.629749 173.000000
29.290968 29.837940 1.379749 29.000000
67.325211 26.751129 3.898130 3.000000
8.234836 -9.817374 0.644635 59.000000
29.457026 29.787916 1.353141 33.000000
67.126091 26.401077 3.868616 5.000000
8.209813 -9.857222 0.654344 36.000000
29.626623 29.740601 1.326579 31.000000
66.782234 25.983610 3.805657 12.000000
8.224167 -9.948378 0.669684 39.000000
29.849358 29.745348 1.302213 35.000000
66.720436 25.678400 3.759209 7.000000
88.188110 -4.513712 5.663907 71.000000
8.222190 -10.020551 0.681583 35.000000
29.992722 29.680273 1.274454 26.000000
66.651993 25.371977 3.725125 1.000000
88.145912 -4.820102 5.677713 38.000000
8.193167 -10.056561 0.691164 99.000000
30.130453 29.598778 1.246175 13.000000
66.558823 25.057600 3.689867 10.000000
88.431511 -5.160873 5.697289 7.000000
8.190402 -10.128755 0.705458 101.000000
30.293024 29.541086 1.218848 7.000000
66.431847 24.745384 3.653205 5.000000
88.481720 -5.489282 5.701783 38.000000
16.793613 -8.738477 1.214266 9.000000
8.184239 -10.197351 0.715008 1.000000
30.527069 29.531176 1.186390 30.000000
66.358444 24.415154 3.619003 15.000000
78.408524 -5.139166 5.067560 14.000000
16.693111 -8.767797 1.219338 6.000000
18.122675 -22.742558 1.615651 18.000000
30.646900 29.450991 1.164973 32.000000
66.313545 24.149265 3.587468 7.000000
17.739491 -9.392576 1.305074 6.000000
18.119007 -22.909740 1.643254 33.000000
30.764097 29.337236 1.128013 29.000000
66.426270 23.914928 3.564093 1.000000
82.834450 -6.039378 5.327215 1.000000
13.965472 -7.466268 1.037948 4.000000
18.092588 -23.049467 1.674162 37.000000
30.796600 29.173847 1.088607 31.000000
18.996447 6.764331 1.007394 6.000000
82.805862 -6.342489 5.341390 7.000000
13.900788 -7.491064 1.040516 6.000000
18.038910 -23.146986 1.697216 32.000000
30.991261 29.143473 1.061986 37.000000
18.931942 6.663275 0.995648 6.000000
13.979280 -7.596450 1.056737 6.000000
18.023277 -23.302580 1.729565 28.000000
31.178789 29.105228 1.034955 36.000000
18.951849 6.592315 0.988396 1.000000
13.933358 -7.637775 1.063732 6.000000
18.003868 -23.454620 1.756655 40.000000
31.340773 29.042202 1.006944 29.000000
66.114464 22.726320 3.419239 4.000000
13.902083 -7.683863 1.066170 6.000000
17.954603 -23.560257 1.775427 40.000000
31.490414 28.977215 0.971131 32.000000
65.717216 22.320782 3.345874 9.000000
13.890930 -7.744300 1.073061 6.000000
31.678099 28.936220 0.943674 36.000000
41.299347 13.866675 2.084963 9.000000
13.861961 -7.794884 1.081388 9.000000
17.885544 -23.821306 1.837591 30.000000
31.862070 28.890759 0.923463 27.000000
41.330933 13.708922 2.084006 29.000000
13.816814 -7.833103 1.088348 7.000000
26.533512 -35.610409 2.770612 26.000000
32.194977 28.978315 0.892210 9.000000
65.473541 21.450655 3.261192 8.000000
40.331089 -4.118019 2.614549 45.000000
13.809167 -7.895787 1.098386 9.000000
26.359835 -35.649292 2.804945 39.000000
32.416992 28.963781 0.865054 7.000000
65.429253 21.170912 3.231041 8.000000
13.728116 -7.916350 1.097018 9.000000
26.222553 -35.723808 2.826886 37.000000
32.583218 28.898239 0.836241 5.000000
65.459900 20.916098 3.204707 2.000000
13.725941 -7.979070 1.104632 1.000000
26.045912 -35.757175 2.860717 35.000000
32.804268 28.890341 0.816424 4.000000
65.266846 20.603607 3.167773 1.000000
25.902626 -35.809383 2.888991 40.000000
33.084785 28.943146 0.782639 12.000000
65.406860 20.409542 3.159282 5.000000
41.279903 -4.805455 2.680195 10.000000
13.235169 -7.817906 1.085679 6.000000
12.530076 -17.450294 1.423128 6.000000
33.163349 28.777689 0.751095 18.000000
65.098885 20.027031 3.092849 21.000000
41.059292 -4.925099 2.674219 10.000000
14.006096 -8.345995 1.154398 7.000000
12.395834 -17.410437 1.427047 9.000000
33.109898 28.519245 0.716996 34.000000
65.101189 19.766842 3.065697 4.000000
40.961273 -5.065700 2.676260 3.000000
13.855193 -8.325040 1.152974 8.000000
12.265162 -17.354801 1.437599 9.000000
33.295925 28.487694 0.680725 34.000000
60.327652 18.076212 2.804725 7.000000
13.644923 -8.266915 1.146386 10.000000
12.149653 -17.312887 1.445616 9.000000
33.532345 28.457626 0.652507 15.000000
60.602070 17.928144 2.792453 10.000000
13.636750 -8.327175 1.156544 9.000000
12.045318 -17.305149 1.459584 9.000000
30.830191 25.970631 0.569921 37.000000
66.364441 19.368607 3.042594 8.000000
121.377068 -16.346113 7.941425 146.000000
13.665071 -8.413384 1.170000 9.000000
11.949903 -17.302980 1.474137 9.000000
30.909451 25.853479 0.541577 36.000000
67.175255 19.338346 3.052048 12.000000
121.169426 -16.770540 7.910370 230.000000
13.690529 -8.495105 1.177539 10.000000
11.874542 -17.329351 1.487404 10.000000
34.039394 28.260050 0.555984 29.000000
67.603317 19.193544 3.019127 24.000000
121.289925 -17.240517 7.922309 64.000000
13.718313 -8.582144 1.185466 8.000000
11.805125 -17.357679 1.497336 16.000000
34.260433 28.252165 0.534807 35.000000
67.750687 18.967327 3.010282 10.000000
47.650711 -6.942993 3.122411 23.000000
13.719803 -8.653203 1.199713 6.000000
11.741184 -17.387375 1.514934 30.000000
34.398987 28.155245 0.488798 25.000000
68.254143 18.838778 3.004802 9.000000
80.732864 -12.065608 5.278743 164.000000
13.351259 -8.479506 1.175361 9.000000
11.685379 -17.435656 1.530308 27.000000
8.521730 6.922954 0.114980 1.000000
68.503151 18.650415 3.000467 8.000000
80.736504 -12.368844 5.296225 15.000000
13.299625 -8.521828 1.184906 6.000000
11.606272 -17.468843 1.547520 25.000000
8.539323 6.885446 0.107217 10.000000
46.783310 12.553054 2.013224 11.000000
13.265087 -8.565158 1.192800 1.000000
11.566434 -17.541418 1.568800 20.000000
8.591885 6.876015 0.099877 1.000000
46.771896 12.383870 2.002495 10.000000
13.157025 -8.557337 1.188383 3.000000
11.535058 -17.620703 1.583551 18.000000
8.764380 6.956530 0.091791 1.000000
97.987801 -16.098804 6.438941 64.000000
13.180404 -8.648031 1.201923 1.000000
11.463323 -17.665464 1.605604 18.000000
65.681740 -11.038499 4.353707 26.000000
13.174561 -8.710135 1.212473 1.000000
11.419871 -17.733765 1.622991 25.000000
60.754200 15.373176 2.528004 1.000000
97.815994 -16.790287 6.435382 52.000000
13.132979 -8.745368 1.214079 1.000000
11.389925 -17.816778 1.641974 19.000000
60.825531 15.154233 2.506727 1.000000
73.952156 -12.973229 4.881619 37.000000
13.087891 -8.784755 1.221181 1.000000
11.375110 -17.931223 1.663767 5.000000
73.811638 -13.227617 4.862368 232.000000
12.987658 -8.790000 1.220476 2.000000
11.342058 -18.038799 1.688220 8.000000
73.673492 -13.481745 4.869617 228.000000
14.127662 -9.630013 1.339605 1.000000
11.355976 -18.187485 1.713852 1.000000
73.561378 -13.726776 4.878459 175.000000
14.036790 -9.647219 1.340474 1.000000
25.905624 -41.863022 3.969617 10.000000
83.324043 -15.864769 5.514854 19.000000
14.074204 -9.741807 1.350130 1.000000
26.031193 -42.362785 4.035437 23.000000
17.089788 12.780143 0.052143 12.000000
20.269363 -3.928952 1.338777 8.000000
14.113122 -9.841789 1.366216 1.000000
25.980236 -42.629353 4.095587 10.000000
17.164650 12.738299 0.033576 5.000000
19.985836 -3.950053 1.317427 10.000000
14.280456 -10.036471 1.392098 1.000000
26.974567 -44.610561 4.313500 5.000000
17.823195 13.125994 0.015453 1.000000
19.908113 -4.006949 1.316777 17.000000
14.275912 -10.111650 1.398331 1.000000
15.131817 -25.233425 2.455183 8.000000
17.968073 13.131388 -0.003884 1.000000
28.928764 6.318069 1.070249 10.000000
19.839529 -4.068862 1.313218 9.000000
14.256359 -10.172717 1.406038 6.000000
14.994363 -25.203257 2.467757 21.000000
18.161787 13.171111 -0.023494 1.000000
28.854559 6.191149 1.051185 10.000000
19.834473 -4.143637 1.310329 8.000000
14.206440 -10.215884 1.410946 6.000000
14.875913 -25.214018 2.478894 22.000000
18.092228 13.019747 -0.038903 1.000000
28.853144 6.080311 1.034856 27.000000
19.927193 -4.239291 1.306760 9.000000
14.295610 -10.355904 1.426485 6.000000
14.703886 -25.122406 2.485295 22.000000
28.944614 5.988873 1.011518 22.000000
19.971022 -4.321536 1.307034 21.000000
14.293785 -10.434676 1.430110 6.000000
14.558540 -25.084520 2.491549 16.000000
28.887739 5.977105 0.952832 10.000000
19.983080 -4.327797 1.257716 10.000000
12.170134 -8.884378 1.191169 5.000000
14.574442 -25.101828 2.457800 10.000000
28.861235 6.082016 0.937227 27.000000
19.970161 -4.248432 1.245184 7.000000
12.215896 -8.849334 1.173923 6.000000
14.738989 -25.182381 2.434810 18.000000
28.854803 6.185934 0.927403 21.000000
19.825432 -4.141748 1.217466 8.000000
