VERSION .7
FIELDS x y z intensity
SIZE 4 4 4 4
TYPE F F F F
COUNT 1 1 1 1
WIDTH 1216
HEIGHT 1
VIEWPOINT 0 0 0 1 0 0 0
POINTS 1216
DATA ascii
80.150116 -24.351467 -1.432922 21.000000
16.648014 -14.314498 -0.632459 32.000000
66.599457 39.481003 1.081092 25.000000
73.356430 8.695289 -0.051571 239.000000
16.617168 -14.389168 -0.617833 31.000000
66.935730 39.365238 1.030091 25.000000
73.457344 8.434350 -0.064525 231.000000
16.591082 -14.473323 -0.599604 37.000000
67.369377 39.288658 0.993700 14.000000
16.568270 -14.560704 -0.585294 34.000000
34.113750 19.727348 0.481472 3.000000
83.770050 9.026381 -0.088232 35.000000
16.515093 -14.621599 -0.569895 35.000000
51.210529 69.536469 1.914515 1.000000
33.930000 19.455494 0.471042 1.000000
83.703125 8.708941 -0.073439 158.000000
39.929554 -12.927687 -0.637339 8.000000
16.485537 -14.693239 -0.551270 31.000000
51.328987 69.164970 1.834255 1.000000
63.958752 36.377937 0.821935 161.000000
83.714539 8.400094 -0.102790 162.000000
39.948517 -13.095785 -0.631065 8.000000
16.478756 -14.806322 -0.537551 26.000000
31.526279 42.172729 1.075363 17.000000
64.183350 36.194984 0.797387 181.000000
83.819443 8.100425 -0.088184 15.000000
34.424847 -11.424936 -0.525470 6.000000
16.470688 -14.898082 -0.519504 24.000000
20.615486 27.367609 0.669857 7.000000
64.560326 36.096336 0.761688 173.000000
20.626625 27.184427 0.637341 8.000000
64.880783 35.964001 0.699167 7.000000
20.696089 27.069361 0.606672 8.000000
95.237305 52.357155 1.005348 26.000000
20.819824 27.025335 0.583568 8.000000
95.081902 51.818810 0.982795 24.000000
8.203149 -7.644208 -0.225084 28.000000
20.994024 27.055578 0.555907 8.000000
34.158722 -12.035888 -0.455142 7.000000
8.208018 -7.705147 -0.216163 11.000000
112.855782 8.426247 -0.138263 35.000000
34.175755 -12.182881 -0.443294 10.000000
49.823723 63.269199 1.138569 1.000000
94.618546 50.267216 0.766707 26.000000
112.726219 8.001217 -0.197240 38.000000
49.928009 62.970890 1.094089 1.000000
94.399857 49.729290 0.744900 27.000000
112.824692 7.592706 -0.157889 30.000000
50.226303 62.849876 1.011064 1.000000
73.493881 38.340046 0.520841 196.000000
7.305086 -7.059370 -0.163132 34.000000
73.385429 37.941948 0.475826 220.000000
7.272079 -7.079200 -0.155887 30.000000
73.377510 37.630009 0.446176 214.000000
7.253450 -7.105584 -0.148875 27.000000
30.613914 -11.671953 -0.314517 11.000000
7.242744 -7.152296 -0.140358 22.000000
50.215073 61.002472 0.717108 2.000000
93.813423 47.224277 0.458278 27.000000
7.273278 -7.235294 -0.132509 18.000000
50.186558 60.514442 0.644916 20.000000
93.901062 46.837811 0.402920 23.000000
7.564614 -7.580474 -0.130844 36.000000
94.807396 46.856735 0.350696 33.000000
7.418531 -7.486167 -0.119570 31.000000
94.933746 46.487019 0.295184 34.000000
27.536688 -10.963747 -0.237963 8.000000
7.142171 -7.260318 -0.106655 35.000000
53.720612 63.412449 0.478677 1.000000
94.984970 46.142712 0.258029 25.000000
7.121601 -7.287591 -0.099594 33.000000
53.902355 63.133862 0.376709 1.000000
93.146339 44.788265 0.162350 22.000000
27.571482 -11.212438 -0.223382 8.000000
7.095805 -7.319746 -0.094305 38.000000
28.483431 33.115044 0.175342 10.000000
93.219612 44.403576 0.144171 1.000000
27.333439 -11.226982 -0.201139 9.000000
7.129224 -7.405772 -0.084326 32.000000
27.194479 -11.275446 -0.195252 40.000000
7.135756 -7.461925 -0.079290 23.000000
94.629807 44.227184 0.036462 28.000000
26.729525 -11.208620 -0.171999 35.000000
7.067953 -7.450673 -0.066320 35.000000
95.214638 44.096210 -0.036627 23.000000
26.803387 -11.355285 -0.167661 39.000000
6.985777 -7.418313 -0.060468 34.000000
87.453758 40.150288 -0.083976 155.000000
26.931137 -11.514892 -0.158473 17.000000
6.969297 -7.447553 -0.053407 12.000000
92.192871 41.917591 -0.123731 29.000000
40.030296 -17.289486 -0.213093 23.000000
6.955594 -7.487731 -0.044593 27.000000
92.126968 41.480835 -0.176339 15.000000
39.815487 -17.370138 -0.197124 14.000000
18.296440 20.227768 -0.057125 7.000000
92.027122 41.030865 -0.228617 15.000000
39.564053 -17.433332 -0.173556 9.000000
6.920818 -7.560691 -0.026834 32.000000
18.376684 20.188633 -0.081001 12.000000
91.792168 40.561741 -0.262728 23.000000
39.516716 -17.577450 -0.158519 8.000000
91.788902 40.158836 -0.314756 24.000000
39.380730 -17.673624 -0.135607 8.000000
6.906752 -7.654590 -0.010797 36.000000
91.494934 39.631313 -0.348053 29.000000
39.163795 -17.765486 -0.120092 8.000000
6.905341 -7.709653 -0.001806 25.000000
91.462517 39.238682 -0.399518 29.000000
38.936501 -17.818302 -0.097155 8.000000
6.871114 -7.720104 0.005411 21.000000
91.472115 38.846455 -0.433626 35.000000
38.707558 -17.885403 -0.081863 8.000000
6.789799 -7.685276 0.014319 23.000000
25.627247 27.128492 -0.267054 9.000000
91.567177 38.453690 -0.485343 27.000000
76.939537 -1.531049 -0.188036 121.000000
38.449734 -17.953922 -0.059250 8.000000
6.966493 -7.949358 0.023983 10.000000
25.747942 27.075829 -0.293461 9.000000
91.403198 38.028763 -0.518360 32.000000
76.859055 -1.784440 -0.187853 252.000000
37.761257 -17.785202 -0.036425 8.000000
25.821362 26.963923 -0.325805 9.000000
91.148720 37.531574 -0.567748 29.000000
76.837006 -2.065728 -0.187816 88.000000
36.014519 -17.116360 -0.013919 8.000000
6.797744 -7.864156 0.041728 8.000000
25.926752 26.876085 -0.358481 9.000000
91.081741 37.114151 -0.600813 30.000000
76.743958 -2.344740 -0.187609 210.000000
34.490940 -16.547501 0.000000 7.000000
6.596291 -7.687873 0.049504 20.000000
26.150242 26.909672 -0.399503 7.000000
91.054344 36.714420 -0.685420 32.000000
32.900036 -15.932845 0.006380 7.000000
90.940247 36.299881 -0.717785 26.000000
77.029465 -2.918782 -0.201808 254.000000
31.470455 -15.396790 0.024459 7.000000
56.344250 57.156464 -0.966590 1.000000
90.719147 35.826706 -0.732023 28.000000
77.138206 -3.206075 -0.175172 254.000000
30.325102 -14.961266 0.053116 8.000000
56.475113 56.870773 -1.049196 22.000000
90.597870 35.395515 -0.797901 28.000000
77.200798 -3.492166 -0.202318 218.000000
29.211823 -14.539022 0.056950 7.000000
26.825987 -13.474471 0.073353 6.000000
6.546487 -7.918970 0.095045 30.000000
30.334513 30.123472 -0.619337 24.000000
90.191177 34.476738 -0.859486 1.000000
26.227858 -13.294642 0.076982 29.000000
6.355172 -7.739666 0.097883 194.000000
30.460239 30.016912 -0.656874 11.000000
90.372620 34.166996 -0.910608 10.000000
26.121046 -13.361063 0.092174 27.000000
6.268507 -7.694171 0.105665 12.000000
90.141029 33.702351 -0.940620 7.000000
25.396509 -13.108115 0.104751 9.000000
6.463050 -7.986901 0.118357 26.000000
89.963501 33.260662 -0.970973 25.000000
113.426682 -7.195829 -0.257875 203.000000
24.525633 -12.767237 0.115820 9.000000
6.353647 -7.907994 0.125712 37.000000
57.201420 55.142384 -1.414590 11.000000
89.962395 32.885960 -1.003092 30.000000
113.594109 -7.624570 -0.258317 22.000000
23.726110 -12.461769 0.126292 10.000000
6.334244 -7.948987 0.134830 23.000000
57.589855 55.111038 -1.502692 1.000000
23.066162 -12.223214 0.127573 8.000000
6.403973 -8.091401 0.144090 136.000000
57.436848 54.581795 -1.549056 19.000000
22.285032 -11.924103 0.136750 9.000000
6.329551 -8.060779 0.152056 255.000000
56.617340 53.409481 -1.589614 17.000000
78.759468 -6.157013 -0.193033 3.000000
21.712824 -11.710712 0.146394 8.000000
6.284254 -8.057962 0.160529 174.000000
56.734951 53.165970 -1.642262 1.000000
78.459579 -6.395410 -0.178610 10.000000
21.127094 -11.490181 0.155307 8.000000
6.347821 -8.198323 0.171933 81.000000
86.159843 80.092697 -2.587380 32.000000
93.363541 32.220573 -1.258449 1.000000
78.478111 -6.714150 -0.178712 17.000000
20.510521 -11.252458 0.163327 9.000000
6.226252 -8.102491 0.178364 119.000000
86.640297 80.005371 -2.676198 20.000000
93.783447 31.981297 -1.297113 24.000000
78.535126 -6.981441 -0.165132 9.000000
20.057846 -11.099947 0.172049 9.000000
86.819786 79.555679 -2.775105 39.000000
94.013298 31.675508 -1.333314 30.000000
78.690704 -7.313768 -0.151727 4.000000
19.453764 -10.858977 0.178873 9.000000
87.205109 79.322723 -2.881042 25.000000
94.625931 31.496202 -1.409994 14.000000
78.596275 -7.567961 -0.179154 1.000000
19.001753 -10.693833 0.182671 9.000000
6.255044 -8.324883 0.207211 32.000000
73.091652 -7.295516 -0.153844 35.000000
18.510136 -10.506676 0.189459 10.000000
6.172038 -8.274394 0.214429 21.000000
95.790054 31.105593 -1.494231 21.000000
73.029602 -7.559758 -0.153770 254.000000
18.172014 -10.403000 0.197352 19.000000
6.141531 -8.296775 0.225239 29.000000
73.003662 -7.853393 -0.140966 252.000000
18.138004 -10.471982 0.208365 22.000000
6.124304 -8.340280 0.234814 26.000000
31.919233 28.209972 -1.182446 3.000000
72.982162 -8.095987 -0.153791 249.000000
18.118563 -10.545255 0.215882 23.000000
6.087679 -8.348291 0.241687 24.000000
57.880577 50.795658 -2.191405 1.000000
72.947029 -8.362856 -0.153781 155.000000
18.075377 -10.609001 0.226805 29.000000
6.147753 -8.495909 0.254463 74.000000
58.121418 50.631138 -2.260806 1.000000
98.009621 30.245346 -1.736650 27.000000
79.226799 -9.377109 -0.181015 1.000000
18.044943 -10.680253 0.230573 16.000000
28.081863 24.265285 -1.114463 6.000000
11.549346 3.517769 -0.208631 1.000000
79.559204 -9.712266 -0.167866 5.000000
18.018375 -10.753898 0.249049 11.000000
6.266431 -8.791702 0.278942 9.000000
58.230045 49.979744 -2.384775 9.000000
11.757149 3.538500 -0.216458 1.000000
79.503250 -10.001307 -0.153838 1.000000
18.006357 -10.832148 0.256740 13.000000
6.079672 -8.592988 0.281155 83.000000
50.301270 42.855171 -2.099789 62.000000
11.741820 3.484774 -0.220205 1.000000
79.461105 -10.291991 -0.153829 1.000000
17.992064 -10.913557 0.268125 27.000000
5.984785 -8.524973 0.289126 38.000000
50.430164 42.646973 -2.144787 139.000000
11.668118 3.416418 -0.220709 1.000000
79.645897 -10.612884 -0.140237 1.000000
17.943293 -10.974136 0.279011 19.000000
5.946272 -8.533299 0.297786 26.000000
11.637186 3.361101 -0.228349 1.000000
79.633118 -10.894220 -0.154309 1.000000
17.900534 -11.034026 0.286284 13.000000
5.920521 -8.563085 0.305340 51.000000
11.654157 3.319774 -0.232673 1.000000
17.868334 -11.104758 0.297436 13.000000
6.190195 -9.020273 0.330425 32.000000
11.781673 3.309460 -0.239248 1.000000
17.840044 -11.178026 0.312346 10.000000
6.151268 -9.034348 0.341569 39.000000
11.624984 3.219524 -0.242144 1.000000
17.807362 -11.248649 0.316170 10.000000
6.127954 -9.067987 0.349678 35.000000
11.684848 3.190038 -0.247375 1.000000
59.805054 -9.076696 -0.095017 166.000000
17.809971 -11.337465 0.331660 26.000000
5.710469 -8.517327 0.336593 17.000000
11.585352 3.117292 -0.249215 1.000000
59.539173 -9.259718 -0.094648 137.000000
17.755527 -11.394470 0.342471 15.000000
5.630675 -8.462025 0.344284 17.000000
11.653475 3.094217 -0.256774 1.000000
85.141403 -13.530775 -0.150465 28.000000
17.721741 -11.455935 0.349918 10.000000
5.676571 -8.599171 0.356217 8.000000
4.578360 3.626162 -0.231512 1.000000
11.704407 3.057497 -0.261849 1.000000
85.120972 -13.878081 -0.135473 30.000000
17.719347 -11.551097 0.361822 16.000000
5.662777 -8.643750 0.366271 117.000000
4.603274 3.618518 -0.236194 5.000000
11.817108 3.040714 -0.268380 1.000000
84.961052 -14.171878 -0.120267 24.000000
17.685032 -11.621314 0.376767 15.000000
5.551919 -8.542676 0.370026 3.000000
4.600553 3.589176 -0.241499 10.000000
11.600293 2.939635 -0.269479 1.000000
39.317089 -6.706469 -0.055690 9.000000
9.940152 -6.584235 0.216444 56.000000
5.570635 -8.637310 0.382262 7.000000
4.609593 3.569129 -0.245362 7.000000
11.784472 2.944753 -0.277771 1.000000
38.999081 -6.785389 -0.048362 10.000000
9.889058 -6.597676 0.222033 8.000000
6.120368 -9.566474 0.432313 8.000000
4.594745 3.530771 -0.248947 5.000000
11.897997 2.922428 -0.286587 1.000000
84.856880 -15.100032 -0.120344 4.000000
9.921658 -6.674621 0.227514 1.000000
6.054640 -9.536906 0.437917 19.000000
4.599572 3.507742 -0.252556 1.000000
12.092136 2.927630 -0.295373 1.000000
84.575134 -15.339411 -0.105014 35.000000
9.882814 -6.696200 0.233385 1.000000
12.165947 2.898337 -0.299098 1.000000
84.533112 -15.652026 -0.090028 35.000000
17.687098 -12.083422 0.433737 9.000000
4.700721 3.530684 -0.265935 1.000000
12.210349 2.861663 -0.308691 1.000000
84.421112 -15.951535 -0.104965 34.000000
17.630331 -12.130587 0.440802 22.000000
5.555655 -8.963848 0.438316 10.000000
84.219681 -16.233400 -0.119757 34.000000
17.597948 -12.203582 0.448587 17.000000
5.513704 -8.965903 0.444834 8.000000
84.243004 -16.558359 -0.134861 37.000000
17.573458 -12.282227 0.456594 28.000000
5.496249 -9.011373 0.453470 7.000000
84.181740 -16.867014 -0.134861 25.000000
17.546698 -12.354915 0.464511 21.000000
13.629054 -22.521982 1.153965 12.000000
31.591482 6.911164 -0.858113 1.000000
76.251709 -15.569032 -0.108664 1.000000
17.562244 -12.462394 0.477410 12.000000
13.548463 -22.575195 1.177161 9.000000
31.704117 6.814138 -0.877479 7.000000
76.203903 -15.850436 -0.122263 20.000000
17.556973 -12.555658 0.486052 19.000000
13.509933 -22.690126 1.203780 10.000000
31.444633 6.637888 -0.892072 13.000000
17.533037 -12.631275 0.501701 31.000000
13.455508 -22.779238 1.229144 10.000000
31.546597 6.538728 -0.911160 20.000000
76.178513 -16.428631 -0.136013 8.000000
17.377407 -12.616160 0.498568 22.000000
12.760703 -21.784925 1.186209 15.000000
17.262400 -12.629540 0.500328 24.000000
17.279148 -12.641794 0.467166 25.000000
76.158173 -16.424244 -0.380739 15.000000
17.402676 -12.634506 0.442965 25.000000
12.736485 -21.743580 1.139883 13.000000
36.538689 -7.739880 -0.202082 7.000000
17.528151 -12.632402 0.422399 25.000000
13.474779 -22.811861 1.166034 20.000000
13.001381 2.794376 -0.422562 1.000000
76.326996 -15.889936 -0.489865 23.000000
17.574739 -12.568365 0.396002 19.000000
5.890764 -9.893622 0.490656 8.000000
76.315964 -15.596026 -0.516615 21.000000
17.561653 -12.466584 0.379684 19.000000
5.827795 -9.710592 0.472684 5.000000
84.127731 -16.871466 -0.614002 26.000000
17.550272 -12.362015 0.359716 18.000000
12.394663 2.806900 -0.406042 1.000000
84.232826 -16.571629 -0.659274 39.000000
17.579323 -12.286326 0.340665 26.000000
5.510085 -9.034058 0.415761 15.000000
11.921712 2.745770 -0.388738 1.000000
84.395744 -16.282612 -0.705085 34.000000
17.622387 -12.225085 0.318205 31.000000
5.546002 -9.018424 0.404871 16.000000
11.799785 2.763269 -0.380855 1.000000
84.518463 -15.985209 -0.735644 36.000000
17.650782 -12.149198 0.302949 26.000000
5.632945 -9.088552 0.397686 73.000000
11.843974 2.815080 -0.384708 1.000000
84.507278 -15.662498 -0.780047 28.000000
17.666504 -12.064831 0.283786 8.000000
5.629366 -9.008868 0.383960 3.000000
11.983289 2.899062 -0.385300 1.000000
39.152031 -7.115130 -0.368108 8.000000
9.882752 -6.698676 0.150039 1.000000
5.676965 -9.014869 0.373888 1.000000
11.385358 2.798619 -0.366402 1.000000
39.098892 -6.957533 -0.388162 9.000000
9.899046 -6.656899 0.139503 1.000000
6.063750 -9.551256 0.383215 7.000000
11.442967 2.857295 -0.366530 1.000000
38.956589 -6.785001 -0.393402 9.000000
9.898503 -6.603977 0.130845 59.000000
6.116760 -9.553486 0.372352 6.000000
11.351070 2.874371 -0.363890 1.000000
39.030273 -6.650536 -0.414630 9.000000
17.667093 -11.698030 0.214501 10.000000
11.335741 2.914742 -0.359649 1.000000
39.014862 -6.500852 -0.421115 8.000000
17.676512 -11.611297 0.203022 19.000000
76.675835 -12.514928 -0.840724 5.000000
17.702309 -11.535586 0.188079 16.000000
5.591112 -8.537608 0.304674 33.000000
85.020134 -13.526718 -0.976696 19.000000
17.746798 -11.476524 0.169681 11.000000
5.614306 -8.504848 0.291776 30.000000
59.504044 -9.264892 -0.693727 102.000000
17.788837 -11.411464 0.154926 18.000000
5.638562 -8.477085 0.282605 26.000000
59.817451 -9.067898 -0.707512 142.000000
17.796862 -11.324757 0.143588 18.000000
5.842583 -8.707807 0.280087 9.000000
11.005108 3.049918 -0.340930 1.000000
81.673904 -12.089685 -1.008758 4.000000
17.844837 -11.267965 0.125239 23.000000
75.236275 -10.881927 -0.942065 25.000000
17.835239 -11.170681 0.110191 21.000000
6.118650 -8.986442 0.267597 73.000000
17.876505 -11.114162 0.091848 17.000000
5.966315 -8.697292 0.250396 32.000000
76.140533 -10.443495 -1.006066 20.000000
17.940380 -11.058588 0.077244 28.000000
5.944309 -8.597490 0.235372 131.000000
17.955227 -10.977130 0.066115 14.000000
5.965826 -8.564547 0.225926 15.000000
17.974007 -10.898314 0.047693 13.000000
5.994459 -8.538753 0.213072 10.000000
18.010067 -10.838660 0.036687 28.000000
6.082065 -8.599553 0.205922 1.000000
28.023838 24.223690 -1.435966 7.000000
11.049214 3.365436 -0.326666 1.000000
78.969299 -9.654243 -1.110901 25.000000
18.034924 -10.768044 0.025662 13.000000
6.197812 -8.695430 0.197574 19.000000
11.036914 3.405944 -0.322635 30.000000
18.052198 -10.680294 0.010982 14.000000
6.193235 -8.625150 0.187198 26.000000
11.043438 3.452339 -0.323193 25.000000
72.982788 -8.379861 -1.064266 180.000000
18.099846 -10.619117 -0.007325 18.000000
6.069605 -8.387912 0.169877 25.000000
31.733164 28.055389 -1.545751 9.000000
11.040347 3.495843 -0.319430 18.000000
72.953186 -8.105662 -1.076208 193.000000
18.125677 -10.545160 -0.018300 25.000000
6.069482 -8.326390 0.160066 24.000000
11.032326 3.537845 -0.315524 17.000000
72.982216 -7.838201 -1.089019 230.000000
18.145037 -10.471819 -0.032908 18.000000
6.108919 -8.316286 0.151294 18.000000
57.466412 51.561661 -2.709636 1.000000
11.071679 3.595271 -0.312957 6.000000
73.030159 -7.572699 -1.102131 224.000000
18.200638 -10.415168 -0.043919 14.000000
6.187027 -8.358236 0.143392 25.000000
57.403694 51.850021 -2.674220 1.000000
11.025191 3.624899 -0.312017 1.000000
73.105507 -7.322673 -1.128527 18.000000
18.517649 -10.515214 -0.063183 9.000000
6.237186 -8.364779 0.131127 29.000000
57.248573 52.092190 -2.594721 9.000000
19.035290 -10.717082 -0.076253 10.000000
6.264852 -8.337936 0.123783 29.000000
57.116074 52.373928 -2.530111 1.000000
19.539091 -10.902134 -0.089819 9.000000
6.251740 -8.260287 0.113912 23.000000
56.976101 52.594448 -2.490980 22.000000
20.038736 -11.093941 -0.111934 9.000000
6.300245 -8.261276 0.101549 39.000000
57.036724 53.038906 -2.447683 8.000000
78.135620 -6.671112 -1.259299 34.000000
20.552589 -11.280204 -0.126849 9.000000
6.192037 -8.060877 0.090479 30.000000
56.715828 53.129459 -2.374369 1.000000
78.413437 -6.405426 -1.277124 10.000000
21.173073 -11.510399 -0.147218 9.000000
6.270559 -8.101460 0.080463 40.000000
21.734756 -11.722541 -0.159472 9.000000
6.366478 -8.166333 0.070484 8.000000
93.828613 -6.972670 -1.543744 1.000000
22.291306 -11.922455 -0.176486 9.000000
93.773743 -6.623089 -1.542432 1.000000
23.023865 -12.205948 -0.200124 10.000000
38.632690 37.255066 -1.480379 3.000000
89.895035 32.861332 -2.272317 23.000000
23.701271 -12.454001 -0.219634 10.000000
6.264450 -7.858588 0.042097 52.000000
38.528881 37.428467 -1.444119 14.000000
90.018524 33.281006 -2.244987 33.000000
89.044708 -5.633425 -1.479505 1.000000
24.518272 -12.757967 -0.241201 10.000000
38.353027 37.531845 -1.395813 1.000000
90.153458 33.706997 -2.251418 31.000000
25.471081 -13.146605 -0.270157 11.000000
30.466774 30.033831 -1.075442 11.000000
90.292229 34.136604 -2.207423 23.000000
88.903137 -4.970457 -1.523143 8.000000
26.157780 -13.374093 -0.297406 30.000000
6.159121 -7.551828 0.011906 34.000000
30.298422 30.077131 -1.043376 23.000000
90.288620 34.513988 -2.176654 27.000000
26.228647 -13.300797 -0.307975 26.000000
6.409415 -7.805727 0.003526 9.000000
38.325153 38.325153 -1.277293 1.000000
84.820930 -4.148436 -1.467498 8.000000
26.951647 -13.543481 -0.331675 7.000000
38.171112 38.451954 -1.229540 1.000000
90.584358 35.390236 -2.105069 26.000000
84.720711 -3.832328 -1.465511 7.000000
29.216339 -14.547634 -0.375977 9.000000
90.687187 35.814083 -2.076445 26.000000
30.385582 -14.991104 -0.419887 10.000000
90.872017 36.272644 -2.032453 26.000000
78.666801 -2.980824 -1.360376 28.000000
31.582806 -15.444925 -0.454094 7.000000
6.546259 -7.743711 -0.031856 21.000000
26.336641 27.110950 -0.771938 3.000000
78.931755 -2.701187 -1.378566 6.000000
32.966274 -15.972026 -0.492324 8.000000
6.548643 -7.689189 -0.040544 22.000000
25.920649 26.860376 -0.736281 9.000000
78.930710 -2.425340 -1.378391 20.000000
34.462238 -16.541130 -0.527102 7.000000
6.640522 -7.742158 -0.049846 255.000000
25.768116 26.917725 -0.702481 9.000000
79.308884 -2.146035 -1.384848 4.000000
35.994301 -17.114454 -0.570445 8.000000
6.613248 -7.653416 -0.058258 255.000000
25.746658 27.083944 -0.678372 9.000000
37.826653 -17.799871 -0.620241 9.000000
6.620876 -7.600358 -0.070371 82.000000
25.716238 27.251266 -0.647489 9.000000
91.395401 38.419090 -1.886315 20.000000
38.410728 -17.919378 -0.651038 8.000000
6.647974 -7.583231 -0.079207 43.000000
91.365311 38.801094 -1.836624 32.000000
38.734516 -17.897860 -0.677757 8.000000
6.672365 -7.555011 -0.087963 50.000000
91.462257 39.238571 -1.789323 31.000000
38.896545 -17.808229 -0.694437 8.000000
6.889390 -7.743360 -0.099495 27.000000
91.629745 39.708706 -1.795435 20.000000
39.115791 -17.735477 -0.734676 8.000000
6.956341 -7.763866 -0.110988 117.000000
91.681923 40.131092 -1.711964 20.000000
39.353722 -17.669754 -0.745455 8.000000
6.844012 -7.582396 -0.114100 25.000000
18.385126 20.204990 -0.357608 10.000000
39.434444 -17.549101 -0.776021 8.000000
6.912743 -7.607668 -0.125591 28.000000
18.274778 20.210911 -0.337669 7.000000
92.103966 41.084400 -1.637125 34.000000
39.608173 -17.452774 -0.785732 20.000000
6.977652 -7.622780 -0.133477 255.000000
92.048752 41.464939 -1.621209 29.000000
39.845478 -17.383223 -0.819530 18.000000
7.112554 -7.715903 -0.146533 24.000000
92.245529 41.941532 -1.574172 27.000000
40.069153 -17.306269 -0.845682 23.000000
7.001215 -7.539481 -0.152650 30.000000
82.455818 93.199341 -1.216287 10.000000
92.369324 42.407040 -1.507953 1.000000
26.609320 -11.377293 -0.560721 7.000000
7.025331 -7.510059 -0.157960 67.000000
82.193169 93.525604 -1.108316 10.000000
27.152174 -11.491873 -0.597008 17.000000
7.113070 -7.550847 -0.172016 28.000000
27.166351 -11.380647 -0.601542 101.000000
7.071808 -7.452131 -0.175737 19.000000
27.330185 -11.337302 -0.624955 21.000000
7.088580 -7.415184 -0.186223 8.000000
92.892334 44.267574 -1.365010 23.000000
7.124706 -7.401079 -0.195461 20.000000
92.984802 44.770550 -1.314953 29.000000
27.458351 -11.155263 -0.651875 6.000000
7.162103 -7.385557 -0.204724 50.000000
94.760765 45.992920 -1.250171 175.000000
7.262406 -7.434273 -0.212255 33.000000
7.513844 -7.635474 -0.230007 227.000000
94.193268 46.573669 -1.173786 30.000000
7.596605 -7.665864 -0.241143 29.000000
50.279705 60.648300 -0.151247 19.000000
93.634842 46.766258 -1.114349 34.000000
7.606841 -7.620129 -0.249980 14.000000
93.789230 47.273666 -1.063242 26.000000
7.641682 -7.599122 -0.257736 7.000000
30.797104 -11.729486 -0.805407 23.000000
7.498575 -7.402348 -0.261193 83.000000
7.392137 -7.246501 -0.265642 121.000000
73.377403 37.986500 -0.706653 5.000000
7.697915 -7.491125 -0.283146 138.000000
73.317764 38.297024 -0.664112 1.000000
99.604805 6.388784 -1.759607 1.000000
33.601440 -12.376242 -0.918909 10.000000
7.415989 -7.164040 -0.280813 9.000000
94.496979 49.801525 -0.801668 32.000000
99.762939 6.731187 -1.745328 1.000000
33.430225 -12.174216 -0.925428 14.000000
94.702553 50.311848 -0.748670 10.000000
100.091660 7.121984 -1.751523 1.000000
33.314938 -12.007253 -0.933499 52.000000
94.826385 50.802853 -0.694716 16.000000
100.209755 7.499633 -1.736515 1.000000
33.506294 -11.931055 -0.956207 30.000000
7.804896 -7.378144 -0.318764 22.000000
20.948772 27.006994 0.208792 8.000000
94.868584 51.273849 -0.639932 29.000000
33.455193 -11.774870 -0.965899 19.000000
7.882742 -7.397212 -0.328387 36.000000
20.802389 27.012453 0.238026 8.000000
94.996361 51.793697 -0.585415 27.000000
93.550629 7.691261 -1.605666 1.000000
33.998779 -11.839629 -0.993031 21.000000
7.873022 -7.334008 -0.336259 29.000000
20.712193 27.100225 0.273850 8.000000
95.283844 52.404392 -0.493467 24.000000
93.766434 8.055104 -1.577006 8.000000
33.691208 -11.581085 -0.995127 34.000000
20.608215 27.160166 0.309432 8.000000
33.814274 -11.498148 -1.010107 21.000000
20.607611 27.367094 0.340826 8.000000
64.644363 36.158134 -0.245625 3.000000
33.973877 -11.400477 -1.013500 31.000000
9.123567 -8.313457 -0.411621 19.000000
31.514668 42.172543 0.569717 10.000000
64.459251 36.365402 -0.206675 1.000000
34.128613 -11.313397 -1.041994 30.000000
9.178143 -8.304735 -0.425749 1.000000
51.462070 69.369583 1.010079 1.000000
37.109577 -12.150789 -1.145281 17.000000
16.479765 -14.802032 -0.777413 33.000000
51.352051 69.754128 1.103651 1.000000
34.070560 19.567711 -0.075431 8.000000
37.120193 -12.003807 -1.157874 25.000000
16.477449 -14.691194 -0.794048 24.000000
51.122414 69.952339 1.179579 1.000000
33.796894 19.551991 -0.040888 2.000000
37.212162 -11.897388 -1.159505 29.000000
16.508421 -14.610556 -0.804513 33.000000
51.017555 70.348656 1.274121 1.000000
16.568943 -14.556172 -0.820275 25.000000
66.719269 39.253616 0.000000 14.000000
73.433945 8.470622 -1.161242 14.000000
16.584091 -14.462129 -0.833778 37.000000
66.493233 39.449409 0.053976 23.000000
73.397636 8.739147 -1.148263 25.000000
16.607475 -14.380774 -0.851624 25.000000
27.378576 38.610966 0.826197 1.000000
66.187729 39.581165 0.094220 27.000000
73.236107 8.992263 -1.146243 36.000000
16.652040 -14.312903 -0.866567 33.000000
27.209667 38.643715 0.866220 27.000000
65.750999 39.647892 0.134006 22.000000
16.684919 -14.235166 -0.880893 24.000000
27.246695 39.013672 0.913702 9.000000
65.468437 39.805431 0.187218 27.000000
16.713516 -14.154043 -0.898802 24.000000
65.015091 39.856911 0.226268 20.000000
57.584099 -16.795139 -1.947932 7.000000
16.764795 -14.092283 -0.914092 19.000000
64.615959 39.923210 0.278389 26.000000
97.385040 13.374724 -1.458405 12.000000
57.626060 -16.578444 -1.947283 10.000000
16.785152 -14.004726 -0.927685 13.000000
64.371452 40.098881 0.317677 17.000000
97.048485 13.691097 -1.436997 8.000000
57.508228 -16.316561 -1.951712 12.000000
16.781879 -13.897985 -0.943733 10.000000
29.812744 18.723259 0.178188 12.000000
97.033020 14.051826 -1.386174 1.000000
16.890333 -13.883753 -0.954610 9.000000
29.824127 18.883186 0.190990 8.000000
16.896803 -13.795435 -0.975273 8.000000
25.952681 38.884991 1.175209 14.000000
29.791571 19.008575 0.228214 7.000000
24.568686 -6.679769 -0.857959 7.000000
16.967175 -13.739747 -0.987598 8.000000
25.928068 39.187897 1.230447 14.000000
29.830923 19.187895 0.247625 8.000000
102.855148 16.051516 -1.435434 23.000000
24.539761 -6.575409 -0.860541 6.000000
17.045630 -13.705038 -1.004675 8.000000
25.661375 39.050854 1.272575 14.000000
29.697319 19.256201 0.271811 18.000000
102.968903 16.456083 -1.401448 1.000000
24.336613 -6.425467 -0.852586 8.000000
17.060061 -13.613994 -1.017848 8.000000
25.713852 39.444965 1.331685 14.000000
29.751184 19.438976 0.291533 8.000000
24.359709 -6.336150 -0.861372 7.000000
17.089706 -13.535423 -1.031903 8.000000
25.911989 40.053837 1.390844 9.000000
29.704515 19.564211 0.329027 8.000000
24.334215 -6.234385 -0.864046 6.000000
17.154478 -13.484706 -1.044274 7.000000
25.637209 39.949394 1.441989 9.000000
29.744926 19.747519 0.348970 7.000000
13.246821 -3.342123 -0.469923 4.000000
17.124458 -13.359851 -1.054657 8.000000
21.405815 33.613346 1.245392 8.000000
29.737940 19.892788 0.374680 7.000000
13.123034 -3.259778 -0.469830 2.000000
9.263556 -7.172612 -0.577097 27.000000
21.231054 33.610176 1.284056 7.000000
13.071870 -3.196248 -0.465224 1.000000
9.281623 -7.132341 -0.582734 27.000000
21.112877 33.682926 1.325685 10.000000
13.078320 -3.147070 -0.474443 1.000000
9.335172 -7.119223 -0.592671 20.000000
20.999216 33.776058 1.361060 8.000000
13.050787 -3.089886 -0.475374 4.000000
9.456429 -7.157032 -0.607001 1.000000
20.998358 34.039093 1.417619 7.000000
29.223480 20.167456 0.471009 8.000000
13.066890 -3.043165 -0.475551 4.000000
17.307613 -12.999648 -1.123048 7.000000
22.454172 36.684982 1.569638 34.000000
29.161402 20.282801 0.496006 8.000000
13.029167 -2.984078 -0.476112 1.000000
17.398022 -12.977535 -1.141310 7.000000
22.272177 36.688972 1.603812 184.000000
38.201569 7.536403 -0.407771 10.000000
13.040017 -2.936304 -0.476112 1.000000
17.309158 -12.803429 -1.139636 7.000000
22.130054 36.743382 1.655283 121.000000
13.109155 -2.901429 -0.480592 1.000000
17.391548 -12.766019 -1.157077 7.000000
22.002018 36.835602 1.700794 23.000000
33.869564 6.940104 -0.343959 59.000000
13.124918 -2.852098 -0.485459 1.000000
17.445637 -12.707589 -1.172680 7.000000
20.662777 34.869362 1.642094 10.000000
61.605209 44.170082 1.309924 1.000000
33.848850 7.065228 -0.337974 81.000000
13.130313 -2.802912 -0.487622 1.000000
17.442873 -12.607985 -1.184451 8.000000
20.574450 35.012276 1.687860 1.000000
61.223522 44.237068 1.344808 1.000000
33.827785 7.190318 -0.319915 89.000000
12.988895 -2.722987 -0.481996 1.000000
17.468176 -12.529058 -1.194333 7.000000
61.132633 44.497021 1.399020 7.000000
33.767105 7.306876 -0.307532 104.000000
13.160211 -2.708585 -0.490330 4.000000
17.533632 -12.478936 -1.210745 7.000000
60.447273 44.305553 1.465201 1.000000
33.742844 7.418845 -0.289442 90.000000
13.263193 -2.679147 -0.491433 4.000000
17.529728 -12.388787 -1.215149 8.000000
37.114456 27.413162 0.926228 8.000000
33.613007 7.519558 -0.282551 90.000000
17.537535 -12.298170 -1.227559 7.000000
60.042984 44.705776 1.581129 6.000000
33.586742 7.636885 -0.258504 127.000000
17.578041 -12.230712 -1.234748 8.000000
36.870064 27.662706 1.021865 1.000000
33.529427 7.753207 -0.240260 120.000000
9.815662 -6.771371 -0.695928 9.000000
19.415991 34.712364 1.924373 10.000000
33.491199 7.873793 -0.216172 107.000000
39.161205 -7.314672 -1.453848 4.000000
9.829826 -6.733143 -0.695345 10.000000
19.245096 34.690510 1.968009 8.000000
39.133686 -7.161197 -1.451842 8.000000
9.825238 -6.677225 -0.699526 9.000000
39.076660 -7.150761 -1.394188 8.000000
9.813354 -6.669148 -0.688290 10.000000
19.427185 34.732376 1.967257 10.000000
33.496410 7.875018 -0.150141 174.000000
39.158966 -7.314254 -1.377189 7.000000
9.810026 -6.719580 -0.677286 9.000000
59.861713 44.863811 1.828260 3.000000
33.559177 7.760086 -0.144282 237.000000
13.831491 -2.643502 -0.479445 1.000000
9.810559 -6.772907 -0.666509 8.000000
37.155933 27.644773 1.099489 5.000000
33.587341 7.637022 -0.156306 224.000000
17.596687 -12.243686 -1.187263 7.000000
37.136673 27.419558 1.079815 7.000000
33.600494 7.510600 -0.150229 192.000000
84.333984 -16.759771 -2.837333 20.000000
17.552704 -12.308806 -1.164814 8.000000
60.173019 44.120686 1.719315 11.000000
33.657124 7.393840 -0.144345 188.000000
13.533803 -2.736269 -0.450809 2.000000
17.504055 -12.370643 -1.149579 7.000000
60.363155 43.904709 1.667782 6.000000
33.679054 7.269365 -0.156351 184.000000
13.582495 -2.797969 -0.450347 1.000000
17.516018 -12.475614 -1.142068 8.000000
60.588985 43.730316 1.643486 3.000000
33.690826 7.142771 -0.150272 142.000000
13.057871 -2.744585 -0.426320 1.000000
17.483465 -12.549269 -1.116572 7.000000
20.713835 34.955524 1.759817 10.000000
60.819397 43.574532 1.593343 4.000000
33.843998 7.045725 -0.162907 99.000000
13.512044 -2.891798 -0.439077 1.000000
17.433937 -12.610793 -1.101291 8.000000
20.754532 34.747070 1.717575 8.000000
60.857140 43.264904 1.551052 6.000000
33.879360 6.923628 -0.168989 66.000000
13.443053 -2.928602 -0.427567 1.000000
17.420496 -12.698587 -1.088286 7.000000
38.243103 7.669495 -0.183806 8.000000
13.428461 -2.972101 -0.425011 1.000000
17.374596 -12.762910 -1.069473 8.000000
38.209427 7.531025 -0.190320 18.000000
13.393171 -3.015826 -0.421843 2.000000
17.280128 -12.791290 -1.051491 8.000000
29.120321 20.231613 0.674649 9.000000
38.237995 7.384243 -0.203915 8.000000
13.366628 -3.066278 -0.411808 1.000000
17.361814 -12.950528 -1.044186 8.000000
20.990385 34.026169 1.556830 5.000000
29.244045 20.159054 0.650993 8.000000
38.250031 7.241247 -0.210631 7.000000
83.497322 -19.445799 -2.559437 18.000000
17.245211 -12.957486 -1.024793 8.000000
21.012892 33.784901 1.507579 10.000000
83.402885 -19.746349 -2.498855 19.000000
17.190485 -13.015218 -1.001740 8.000000
21.123287 33.699532 1.479245 9.000000
61.255276 41.613415 1.318462 1.000000
9.328103 -7.116407 -0.536884 22.000000
21.242140 33.614727 1.437233 8.000000
61.217438 41.260597 1.262829 7.000000
9.258692 -7.117290 -0.526217 22.000000
21.435167 33.659435 1.407467 7.000000
29.743111 19.888733 0.593311 8.000000
24.563280 -6.101550 -0.720228 10.000000
9.244679 -7.160577 -0.518729 19.000000
25.760876 40.142101 1.632280 7.000000
29.712719 19.718666 0.566425 8.000000
24.512156 -6.184324 -0.701726 19.000000
17.051294 -13.307560 -0.940585 27.000000
29.793465 19.615341 0.541681 7.000000
24.494286 -6.275394 -0.697452 17.000000
16.979357 -13.351841 -0.924202 23.000000
25.882511 39.703690 1.539131 11.000000
29.697235 19.388941 0.513809 7.000000
24.454620 -6.369951 -0.688217 25.000000
16.962132 -13.439201 -0.910804 28.000000
25.842104 39.325882 1.478818 10.000000
29.732224 19.271463 0.494750 10.000000
24.423813 -6.448489 -0.683536 37.000000
16.936680 -13.520373 -0.896936 31.000000
25.690077 38.798756 1.429842 14.000000
29.769157 19.140821 0.481837 8.000000
24.491974 -6.562604 -0.677255 33.000000
16.891626 -13.586071 -0.874443 29.000000
25.766338 38.605797 1.377552 13.000000
29.808016 18.997116 0.462717 10.000000
44.947750 -12.237309 -1.227976 7.000000
16.865477 -13.667146 -0.860497 30.000000
25.854187 38.446095 1.334600 1.000000
29.787485 18.852705 0.443016 11.000000
85.511467 -23.585897 -2.322812 19.000000
16.842823 -13.751363 -0.846704 30.000000
29.837763 18.717196 0.418049 10.000000
85.489067 -23.949413 -2.293785 28.000000
16.800480 -13.819722 -0.831906 28.000000
64.336670 40.061634 0.859848 15.000000
85.390709 -24.227535 -2.262285 26.000000
16.792585 -13.916736 -0.814975 36.000000
27.157728 39.455704 1.245908 8.000000
64.727570 39.992172 0.810077 25.000000
85.254425 -24.526850 -2.214561 28.000000
16.759680 -13.988436 -0.800482 29.000000
27.199175 39.222061 1.191506 10.000000
65.087212 39.885490 0.772770 21.000000
84.876778 -24.755398 -2.176213 18.000000
16.724018 -14.062988 -0.785960 27.000000
27.380558 39.176208 1.151418 9.000000
65.519669 39.820923 0.722634 20.000000
16.707090 -14.153611 -0.772291 28.000000
27.226940 38.668243 1.106241 14.000000
65.789467 39.655430 0.710594 21.000000
73.194702 9.220684 -0.515042 153.000000
80.299522 -24.060463 -1.975486 26.000000
16.689919 -14.244464 -0.750900 33.000000
27.380604 38.585274 1.065420 4.000000
66.133865 39.548958 0.659018 17.000000
73.227913 8.952340 -0.527918 255.000000
16.653149 -14.318913 -0.736252 31.000000
66.459282 39.413582 0.620357 26.000000
73.339584 8.693291 -0.541381 223.000000
16.600939 -14.380184 -0.720919 26.000000
66.823380 39.299164 0.581813 9.000000
73.453918 8.446945 -0.542004 235.000000
16.556120 -14.447912 -0.702071 27.000000
50.949909 70.178032 1.725730 1.000000
73.588654 8.189270 -0.555696 9.000000
16.525940 -14.528617 -0.687667 28.000000
51.251842 70.078079 1.621551 1.000000
33.848179 19.581659 0.245702 4.000000
16.520382 -14.626282 -0.674138 33.000000
51.449688 69.810165 1.559142 1.000000
34.010906 19.509775 0.225832 8.000000
83.866203 8.711113 -0.662241 1.000000
16.496935 -14.713735 -0.656069 30.000000
31.403145 42.330658 0.910805 1.000000
83.889648 8.432454 -0.662202 1.000000
16.466982 -14.785357 -0.641361 37.000000
31.525452 42.140942 0.854311 17.000000
34.150723 -11.333961 -0.741157 20.000000
9.171131 -8.301301 -0.345530 19.000000
20.659103 27.425512 0.527404 8.000000
34.023655 -11.430397 -0.739304 13.000000
9.081684 -8.281097 -0.336861 22.000000
20.688997 27.246872 0.489658 8.000000
33.929714 -11.537402 -0.725662 27.000000
20.749073 27.138662 0.465093 8.000000
95.254112 52.366390 0.322519 17.000000
34.270321 -11.793529 -0.721210 7.000000
20.822891 27.019558 0.428690 8.000000
95.045937 51.799210 0.302277 33.000000
34.038380 -11.853418 -0.698359 7.000000
20.964705 27.017796 0.399916 8.000000
94.909599 51.296021 0.244783 1.000000
34.018734 -11.986562 -0.673662 7.000000
94.814995 50.796749 0.187736 32.000000
33.682621 -12.007091 -0.667873 35.000000
7.797613 -7.373837 -0.252914 7.000000
94.625259 50.249603 0.130896 25.000000
100.558464 7.137560 -0.844576 16.000000
94.609741 49.797680 0.074641 21.000000
33.831318 -12.333657 -0.634833 7.000000
94.742882 49.425156 0.000000 15.000000
7.291833 -7.093475 -0.205987 38.000000
30.901701 -11.652133 -0.541869 8.000000
7.313394 -7.171813 -0.198466 33.000000
30.760685 -11.727912 -0.540146 10.000000
7.306221 -7.214980 -0.189989 15.000000
93.809669 47.222389 -0.201633 27.000000
27.741684 -10.693501 -0.467057 27.000000
7.294019 -7.255927 -0.181381 9.000000
50.285843 60.655701 0.288780 23.000000
93.780670 46.777760 -0.256074 28.000000
27.614023 -10.760706 -0.450047 29.000000
7.507594 -7.523335 -0.179954 112.000000
50.466293 60.421276 0.219841 1.000000
27.486019 -10.827030 -0.448605 27.000000
7.360451 -7.430151 -0.167949 22.000000
94.893997 46.488091 -0.368857 18.000000
94.888130 46.054741 -0.423403 1.000000
27.517715 -11.073210 -0.414188 6.000000
7.090707 -7.261045 -0.147030 43.000000
7.109370 -7.333739 -0.139058 23.000000
27.451971 -11.275668 -0.388499 8.000000
7.089458 -7.367037 -0.130272 32.000000
26.953432 -11.186529 -0.371833 102.000000
7.115573 -7.446022 -0.124038 30.000000
26.750996 -11.217624 -0.359478 37.000000
7.033250 -7.414091 -0.114156 29.000000
87.359184 40.458157 -0.621713 153.000000
26.580971 -11.261059 -0.342628 40.000000
6.988957 -7.421690 -0.104981 30.000000
87.456589 40.114628 -0.671737 187.000000
26.654589 -11.407655 -0.328931 101.000000
6.975414 -7.461917 -0.098055 29.000000
92.373520 41.960819 -0.743734 30.000000
39.981007 -17.284761 -0.478958 18.000000
6.874545 -7.405664 -0.088182 57.000000
92.147873 41.451565 -0.793597 27.000000
39.807652 -17.383261 -0.454894 15.000000
6.938886 -7.530139 -0.080424 234.000000
18.346201 20.289900 -0.181424 8.000000
91.974510 40.968925 -0.843529 23.000000
39.533379 -17.436296 -0.437403 9.000000
6.921408 -7.566638 -0.071593 28.000000
18.386684 20.185459 -0.200154 8.000000
91.757401 40.508099 -0.875315 28.000000
39.495319 -17.584450 -0.415020 8.000000
6.844566 -7.535279 -0.062186 86.000000
91.726036 40.131329 -0.908693 31.000000
39.557137 -17.752794 -0.401085 9.000000
6.912676 -7.655781 -0.055809 39.000000
91.676811 39.691097 -0.993876 23.000000
39.214077 -17.771791 -0.390749 8.000000
6.961345 -7.766722 -0.050970 23.000000
91.357048 39.155682 -1.040895 35.000000
38.978954 -17.854189 -0.366667 8.000000
6.857049 -7.712429 -0.041427 26.000000
91.508804 38.824333 -1.075699 36.000000
38.831688 -17.959209 -0.350963 8.000000
6.813562 -7.717601 -0.032343 23.000000
25.644136 27.165361 -0.436867 9.000000
91.474792 38.414894 -1.125591 28.000000
38.368820 -17.899826 -0.325145 8.000000
6.844563 -7.810226 -0.023563 111.000000
25.683416 27.017418 -0.468462 9.000000
91.342216 37.965996 -1.156773 32.000000
37.742210 -17.776232 -0.298539 8.000000
6.858563 -7.884315 -0.014591 41.000000
25.795809 26.937241 -0.501261 9.000000
91.332977 37.607445 -1.206795 27.000000
107.216492 -2.882467 -1.010887 112.000000
35.870720 -17.055693 -0.270363 8.000000
6.683357 -7.731824 -0.005351 8.000000
25.979813 26.912281 -0.535382 9.000000
91.468918 37.234692 -1.241085 1.000000
107.110260 -3.272514 -1.009991 173.000000
34.335747 -16.487791 -0.239325 7.000000
6.596940 -7.694063 0.003538 22.000000
26.219620 26.971643 -0.571214 8.000000
90.962425 36.658901 -1.283827 30.000000
106.952629 -3.660112 -1.008625 47.000000
32.884930 -15.939702 -0.210483 9.000000
90.840332 36.223244 -1.314365 29.000000
77.085350 -2.947847 -0.713600 34.000000
31.501469 -15.411963 -0.183625 9.000000
90.753265 35.803562 -1.362290 30.000000
77.190048 -3.208230 -0.714664 19.000000
30.346478 -14.984985 -0.159490 8.000000
90.535759 35.371250 -1.391193 23.000000
77.497437 -3.505584 -0.717624 17.000000
29.253807 -14.566290 -0.142593 9.000000
84.659897 -4.140560 -0.813673 12.000000
26.854752 -13.494790 -0.125894 7.000000
6.476166 -7.828340 0.044331 9.000000
30.312426 30.091034 -0.827569 20.000000
90.641762 34.648979 -1.490522 9.000000
26.232231 -13.296859 -0.107793 31.000000
6.361734 -7.747658 0.052491 40.000000
30.468275 30.024830 -0.866158 12.000000
90.248329 34.120003 -1.532517 14.000000
90.917183 -5.114896 -0.858255 4.000000
26.129948 -13.365616 -0.092206 26.000000
6.294003 -7.725466 0.062612 40.000000
69.315407 67.760262 -2.047390 24.000000
90.028137 33.624325 -1.560028 14.000000
91.025688 -5.487641 -0.859480 12.000000
25.392015 -13.117023 -0.074822 9.000000
6.224739 -7.697896 0.070842 51.000000
69.470551 67.462860 -2.112990 1.000000
89.993256 33.271664 -1.591004 32.000000
24.452612 -12.734649 -0.057742 9.000000
57.092815 55.056911 -1.786057 1.000000
89.888695 32.859016 -1.620433 29.000000
23.688761 -12.447427 -0.042034 9.000000
6.290927 -7.894629 0.089856 145.000000
57.321960 54.873840 -1.856207 17.000000
23.053322 -12.226719 -0.027327 9.000000
6.603063 -8.348937 0.104041 255.000000
57.387188 54.534603 -1.934784 20.000000
91.193871 32.580326 -1.757960 11.000000
22.417383 -11.984857 -0.022183 9.000000
56.654888 53.444901 -1.957886 1.000000
91.537430 32.343201 -1.796295 23.000000
21.717604 -11.713289 -0.008613 8.000000
6.361717 -8.163164 0.117414 61.000000
56.869015 53.272961 -2.026893 10.000000
78.384422 -6.416828 -0.727521 16.000000
21.178232 -11.522782 0.004208 9.000000
6.285584 -8.120872 0.125469 35.000000
57.018650 53.022099 -2.093281 1.000000
11.441978 3.944257 -0.234497 1.000000
78.086388 -6.680636 -0.724978 33.000000
20.511469 -11.262294 0.020420 10.000000
6.169030 -8.033828 0.132598 36.000000
57.127048 52.733788 -2.144467 1.000000
11.531992 3.928056 -0.240300 1.000000
20.001520 -11.068776 0.031919 8.000000
6.206122 -8.143751 0.144760 32.000000
57.116154 52.337315 -2.190969 1.000000
11.521188 3.881786 -0.244050 1.000000
19.467453 -10.866619 0.042803 9.000000
57.298763 52.119587 -2.258281 15.000000
11.364504 3.782670 -0.244619 1.000000
19.035351 -10.717116 0.053377 10.000000
6.294612 -8.383636 0.166521 28.000000
57.647129 52.051636 -2.345884 8.000000
11.430364 3.758113 -0.254142 1.000000
72.905869 -7.315529 -0.665014 181.000000
18.500275 -10.505348 0.055698 9.000000
6.215920 -8.336259 0.170616 30.000000
57.875603 51.892353 -2.402114 1.000000
11.482012 3.728516 -0.259201 1.000000
72.968086 -7.592007 -0.665830 242.000000
18.181402 -10.408374 0.069473 17.000000
6.156929 -8.317576 0.180632 26.000000
11.428873 3.665010 -0.261888 1.000000
73.022156 -7.842491 -0.653738 255.000000
18.151758 -10.479922 0.080480 21.000000
6.090793 -8.291610 0.188564 22.000000
31.822254 28.114372 -1.378954 8.000000
11.438640 3.617567 -0.265966 1.000000
73.005112 -8.137230 -0.641051 255.000000
18.118143 -10.557714 0.091499 15.000000
6.067622 -8.326891 0.199628 32.000000
11.278682 3.525879 -0.268164 1.000000
72.937759 -8.374691 -0.666330 164.000000
18.087334 -10.620263 0.095181 18.000000
6.060429 -8.375231 0.205719 9.000000
11.339203 3.499229 -0.273441 1.000000
18.067299 -10.693484 0.109929 20.000000
6.168014 -8.593190 0.221571 21.000000
28.100092 24.281034 -1.296865 7.000000
11.390114 3.469269 -0.278519 1.000000
18.040813 -10.767289 0.121008 18.000000
6.165361 -8.656295 0.231892 9.000000
58.009647 49.772991 -2.735992 6.000000
11.211179 3.369915 -0.277928 1.000000
18.005455 -10.835885 0.132040 14.000000
6.114921 -8.642808 0.240259 36.000000
50.304134 42.842464 -2.422882 31.000000
17.986948 -10.914748 0.139542 16.000000
5.945133 -8.474780 0.243961 29.000000
17.948675 -10.977428 0.150558 20.000000
5.932644 -8.513742 0.253606 32.000000
11.232763 3.242171 -0.293896 1.000000
17.920996 -11.050957 0.165364 19.000000
5.938068 -8.594876 0.264433 36.000000
11.095443 3.158526 -0.294028 1.000000
17.884541 -11.119157 0.176430 15.000000
5.980088 -8.717369 0.276821 22.000000
11.092359 3.113744 -0.299679 1.000000
17.858274 -11.189448 0.183912 12.000000
11.151767 3.086371 -0.305018 1.000000
17.825514 -11.260115 0.195039 21.000000
59.803299 -9.108468 -0.496238 167.000000
17.805090 -11.338725 0.210007 10.000000
59.511013 -9.265977 -0.483552 123.000000
17.759109 -11.401147 0.221007 17.000000
5.625674 -8.460912 0.303331 34.000000
85.161201 -13.579641 -0.707423 34.000000
17.735931 -11.473888 0.228590 18.000000
5.611234 -8.500195 0.311187 92.000000
85.002174 -13.873943 -0.721552 22.000000
17.731380 -11.563351 0.236466 21.000000
11.307459 2.907470 -0.332238 1.000000
38.974041 -6.508033 -0.324140 9.000000
17.676241 -11.619955 0.247375 15.000000
11.332461 2.869658 -0.336745 1.000000
39.004192 -6.660102 -0.317685 9.000000
17.639591 -11.684248 0.262205 10.000000
11.425228 2.848629 -0.343303 1.000000
39.039867 -6.806526 -0.311250 10.000000
9.895969 -6.607280 0.153689 7.000000
11.605298 2.848387 -0.354660 1.000000
39.068748 -6.959204 -0.318608 8.000000
9.904823 -6.665808 0.158374 1.000000
11.634971 2.810497 -0.359431 1.000000
39.131580 -7.118468 -0.312389 7.000000
9.897953 -6.711501 0.166988 1.000000
5.698126 -9.048472 0.382756 2.000000
11.761702 2.795526 -0.369363 1.000000
84.458321 -15.683921 -0.689682 21.000000
17.740461 -12.124420 0.307548 8.000000
5.610723 -8.979034 0.388240 78.000000
11.922536 2.787626 -0.380508 1.000000
84.493729 -16.011080 -0.675435 35.000000
17.634010 -12.146729 0.317686 30.000000
5.601285 -9.037470 0.399168 35.000000
12.492503 2.872641 -0.407317 1.000000
84.321564 -16.298832 -0.674532 37.000000
17.589279 -12.211214 0.325161 24.000000
5.535496 -9.001340 0.405951 21.000000
12.312777 2.783838 -0.403328 1.000000
84.212975 -16.567722 -0.689080 38.000000
17.566935 -12.286798 0.333023 16.000000
5.515326 -9.042650 0.414305 7.000000
84.229996 -16.891973 -0.704716 28.000000
17.542120 -12.365437 0.340903 13.000000
5.612906 -9.275314 0.431646 1.000000
76.447235 -15.622852 -0.653695 21.000000
17.553642 -12.470113 0.349531 19.000000
5.853712 -9.753778 0.464842 6.000000
13.050551 2.800178 -0.445117 1.000000
76.277100 -15.879550 -0.625535 25.000000
17.578915 -12.580627 0.366002 18.000000
5.839866 -9.808140 0.476437 4.000000
36.438824 -7.725372 -0.305560 5.000000
17.536995 -12.638776 0.373548 23.000000
13.452828 -22.774700 1.122508 22.000000
76.226852 -16.452978 -0.653318 18.000000
17.397047 -12.644333 0.379155 23.000000
12.669495 -21.629213 1.081286 9.000000
17.280144 -12.651786 0.381306 28.000000
17.270805 -12.640320 0.339951 21.000000
76.175743 -16.441948 -0.884126 20.000000
17.377975 -12.621205 0.318651 26.000000
12.599728 -21.510111 1.031745 13.000000
13.015264 2.740374 -0.499335 5.000000
36.442299 -7.726109 -0.448643 6.000000
17.523531 -12.633720 0.301653 17.000000
13.466794 -22.798342 1.063493 14.000000
12.892513 2.763915 -0.501925 1.000000
76.241058 -15.885928 -1.005891 24.000000
17.525276 -12.537614 0.274559 14.000000
5.861012 -9.843655 0.444115 7.000000
76.440285 -15.635331 -1.048616 20.000000
17.542799 -12.453199 0.251584 14.000000
5.548472 -9.245170 0.406677 23.000000
12.423086 2.758682 -0.486648 1.000000
84.265579 -16.914410 -1.215120 21.000000
17.520716 -12.354927 0.231999 23.000000
5.631689 -9.306354 0.398867 9.000000
12.110733 2.735935 -0.474802 1.000000
84.252792 -16.590832 -1.259021 32.000000
17.549873 -12.270304 0.209304 21.000000
5.565516 -9.124940 0.378847 28.000000
11.974098 2.751234 -0.467689 1.000000
84.337364 -16.286617 -1.274379 35.000000
17.580391 -12.200498 0.194218 28.000000
5.557279 -9.036762 0.363052 23.000000
84.347145 -15.968054 -1.288621 12.000000
17.588009 -12.110515 0.182628 12.000000
5.746908 -9.272428 0.363793 10.000000
39.144684 -7.276240 -0.618516 7.000000
9.909942 -6.775321 0.090096 1.000000
5.694752 -9.117049 0.345327 4.000000
39.177036 -7.126738 -0.632494 8.000000
9.853168 -6.681133 0.081034 3.000000
5.640436 -8.956861 0.328945 5.000000
39.047550 -6.969491 -0.650801 8.000000
9.891914 -6.659628 0.070764 1.000000
5.687917 -8.962723 0.318761 35.000000
38.984077 -6.810822 -0.656231 9.000000
9.899654 -6.612239 0.064412 82.000000
5.782855 -9.038921 0.310976 11.000000
39.082352 -6.680469 -0.678235 8.000000
17.628273 -11.676750 0.092262 10.000000
5.746867 -8.913975 0.294398 69.000000
11.255903 2.894213 -0.430223 1.000000
39.079155 -6.518575 -0.684637 7.000000
17.675179 -11.614840 0.077519 14.000000
5.793256 -8.914019 0.285814 18.000000
76.715790 -12.535197 -1.356837 15.000000
17.709463 -11.553464 0.059048 18.000000
5.808066 -8.868897 0.273906 16.000000
86.436409 -13.798454 -1.573702 32.000000
17.730722 -11.474909 0.047920 18.000000
5.680996 -8.605874 0.253818 7.000000
85.280342 -13.293555 -1.596964 21.000000
