VERSION .7
FIELDS x y z intensity
SIZE 4 4 4 4
TYPE F F F F
COUNT 1 1 1 1
WIDTH 1237
HEIGHT 1
VIEWPOINT 0 0 0 1 0 0 0
POINTS 1237
DATA ascii
11.745782 -20.352493 -0.250188 21.000000
12.629894 2.583357 -1.637706 1.000000
11.731719 -2.592268 -1.254316 1.000000
17.415651 -12.783710 -1.412207 7.000000
11.809023 -20.298082 -0.282818 33.000000
12.236282 2.551836 -1.587925 1.000000
11.754861 -2.552231 -1.264272 1.000000
17.402515 -12.680830 -1.430191 8.000000
11.960499 -20.394333 -0.321883 26.000000
4.316872 3.156003 -0.675546 1.000000
12.003660 2.549267 -1.558939 1.000000
11.774084 -2.509103 -1.267418 1.000000
17.491915 -12.648082 -1.460209 8.000000
12.032446 -20.345755 -0.346568 36.000000
4.313548 3.177898 -0.673994 1.000000
12.056993 2.606814 -1.569284 1.000000
11.850468 -2.480009 -1.283200 1.000000
17.492319 -12.550999 -1.479043 6.000000
12.105693 -20.307487 -0.379652 26.000000
4.322072 3.208683 -0.674296 1.000000
11.518904 2.536811 -1.500506 1.000000
11.902205 -2.445337 -1.298547 1.000000
17.510376 -12.471595 -1.499500 7.000000
5.100675 -8.488949 -0.172866 8.000000
4.279805 3.199373 -0.667459 1.000000
11.389419 2.547924 -1.484731 1.000000
12.008111 -2.421260 -1.313449 1.000000
9.817727 -6.943623 -0.849310 3.000000
4.260828 3.225947 -0.660930 1.000000
11.272707 2.569374 -1.470849 1.000000
12.060119 -2.385781 -1.324684 1.000000
9.738502 -6.829110 -0.854683 7.000000
12.301164 -20.152542 -0.473952 9.000000
4.336143 3.308043 -0.670624 1.000000
11.118055 2.579072 -1.449927 1.000000
12.155939 -2.358472 -1.340810 1.000000
9.712672 -6.760544 -0.858644 8.000000
6.003518 -9.758578 -0.244000 12.000000
4.316490 3.318148 -0.665603 1.000000
11.157722 2.627295 -1.456228 1.000000
12.476979 -2.371085 -1.379692 1.000000
9.689169 -6.696597 -0.866999 10.000000
6.039083 -9.736248 -0.257997 20.000000
4.237958 3.282561 -0.651546 1.000000
11.113348 2.666027 -1.447828 1.000000
12.754114 -2.375350 -1.411656 6.000000
9.711232 -6.654400 -0.876905 21.000000
6.046389 -9.672487 -0.268817 26.000000
10.930491 2.664567 -1.421279 1.000000
12.771542 -2.330194 -1.421801 1.000000
9.734919 -6.618329 -0.887178 14.000000
6.055931 -9.612933 -0.283621 28.000000
10.863809 2.686509 -1.413759 1.000000
13.155669 -2.355228 -1.466048 1.000000
6.075891 -9.570381 -0.294868 25.000000
10.825026 2.721067 -1.406103 1.000000
13.447793 -2.354272 -1.504818 1.000000
10.829399 2.764405 -1.407977 1.000000
13.696096 -2.346038 -1.534086 4.000000
5.488255 -8.509579 -0.288148 35.000000
10.732256 2.785545 -1.392859 1.000000
14.017758 -2.348283 -1.574162 4.000000
5.487800 -8.444016 -0.297130 37.000000
10.751488 2.830631 -1.394657 1.000000
14.236329 -2.331288 -1.605383 1.000000
5.656645 -8.637677 -0.319067 33.000000
10.784413 2.881607 -1.398310 5.000000
14.500060 -2.317342 -1.636702 3.000000
5.610989 -8.499824 -0.325408 33.000000
10.677466 2.899002 -1.382019 1.000000
14.748174 -2.301591 -1.671658 5.000000
5.723396 -8.604625 -0.344628 30.000000
10.686882 2.941651 -1.380628 1.000000
14.888851 -2.267678 -1.689312 5.000000
5.775448 -8.617497 -0.356825 15.000000
10.695608 2.986268 -1.379224 1.000000
15.147426 -2.250286 -1.720409 1.000000
5.801188 -8.587676 -0.367334 36.000000
10.669743 3.023256 -1.377376 1.000000
15.598229 -2.256077 -1.773399 3.000000
6.100728 -8.963483 -0.399477 20.000000
10.705667 3.079914 -1.379650 1.000000
6.165648 -8.991230 -0.413103 24.000000
10.657743 3.104430 -1.370859 7.000000
19.506552 -2.675534 -2.229376 8.000000
6.235240 -9.021642 -0.427048 34.000000
10.661029 3.147823 -1.368817 1.000000
19.476446 -2.598713 -2.228306 8.000000
6.297794 -9.044486 -0.442654 56.000000
10.624666 3.185532 -1.359954 1.000000
19.456333 -2.520030 -2.228349 7.000000
6.326189 -9.017974 -0.453989 34.000000
10.633040 3.226511 -1.362388 1.000000
19.386187 -2.438733 -2.222731 8.000000
10.635829 3.269976 -1.360329 1.000000
19.383976 -2.366318 -2.231826 7.000000
6.444955 -9.048849 -0.485048 18.000000
10.632670 3.313744 -1.361543 1.000000
19.249470 -2.274918 -2.218744 8.000000
6.490712 -9.046101 -0.499741 149.000000
10.654264 3.363366 -1.359940 1.000000
19.296772 -2.208825 -2.226683 8.000000
6.219142 -8.600884 -0.487539 72.000000
10.604494 3.390445 -1.351221 1.000000
19.136488 -2.119450 -2.210681 9.000000
5.972404 -8.199224 -0.476596 9.000000
10.662679 3.454230 -1.356345 1.000000
19.109528 -2.042219 -2.210043 9.000000
10.622318 3.484225 -1.346887 1.000000
19.086470 -1.969028 -2.213313 9.000000
10.656589 3.538779 -1.352868 1.000000
19.014093 -1.891156 -2.207481 8.000000
10.587128 3.560905 -1.339843 1.000000
19.203451 -1.838934 -2.232080 8.000000
6.124748 -8.101307 -0.534029 10.000000
6.152532 -8.079277 -0.548209 187.000000
6.275965 -8.178996 -0.567361 33.000000
14.598969 13.824877 -1.996228 1.000000
5.793432 -3.128578 -0.637467 1.000000
6.292021 -8.140924 -0.573445 30.000000
14.542501 13.872857 -1.974195 6.000000
5.799881 -3.104658 -0.643875 8.000000
6.367326 -8.176246 -0.592089 26.000000
14.534703 13.962647 -1.961983 1.000000
5.647950 -0.391972 -0.661071 10.000000
5.815318 -3.085553 -0.647809 9.000000
6.358473 -8.106347 -0.599455 80.000000
14.709723 14.234814 -1.978213 6.000000
5.619515 -0.367337 -0.659557 16.000000
5.830591 -3.066323 -0.652898 23.000000
6.523922 -8.254792 -0.623253 20.000000
14.783422 14.411432 -1.977031 6.000000
5.600883 -0.345508 -0.658210 21.000000
5.867958 -3.058572 -0.659321 25.000000
6.505662 -8.172881 -0.629757 39.000000
14.923756 14.655297 -1.980866 6.000000
5.577266 -0.324513 -0.655298 25.000000
5.900612 -3.048142 -0.668755 15.000000
6.463273 -8.058833 -0.635458 52.000000
14.917172 14.756619 -1.968684 6.000000
5.563428 -0.303252 -0.654523 26.000000
5.973424 -3.058071 -0.679282 8.000000
6.425520 -7.960391 -0.638246 31.000000
15.060775 15.003057 -1.975822 7.000000
5.554584 -0.282355 -0.653356 24.000000
6.472675 -7.953274 -0.652332 32.000000
15.095000 15.147783 -1.964997 8.000000
5.540518 -0.260315 -0.653542 24.000000
6.499961 -7.930099 -0.663069 35.000000
15.085863 15.249999 -1.955970 9.000000
5.536360 -0.239787 -0.653924 22.000000
6.287092 -7.613307 -0.648887 71.000000
15.051993 15.327720 -1.939947 9.000000
5.527278 -0.219100 -0.652752 25.000000
6.278726 -7.554710 -0.654181 116.000000
15.063174 15.451986 -1.925895 7.000000
5.518155 -0.197520 -0.651581 26.000000
6.143302 -3.002928 -0.712666 1.000000
6.359672 -7.589917 -0.673324 22.000000
15.266658 15.770484 -1.939632 6.000000
5.503839 -0.176811 -0.650784 30.000000
6.257693 -7.420728 -0.668566 2.000000
15.475909 16.104336 -1.950134 6.000000
5.504450 -0.156638 -0.650784 33.000000
15.621051 16.375082 -1.952095 6.000000
5.505011 -0.135501 -0.650784 30.000000
6.429057 -7.508863 -0.701639 8.000000
15.657468 16.528391 -1.943830 6.000000
5.490577 -0.115011 -0.649023 28.000000
7.188405 -3.419457 -0.845087 1.000000
6.521199 -7.560215 -0.719175 255.000000
15.669846 16.663363 -1.928810 6.000000
5.485998 -0.094801 -0.648436 32.000000
7.070511 -3.306052 -0.836898 1.000000
6.518929 -7.501814 -0.726350 49.000000
15.739011 16.860315 -1.924647 6.000000
5.481356 -0.073669 -0.647850 31.000000
7.095715 -3.286197 -0.842591 1.000000
15.864356 17.113962 -1.922663 6.000000
5.476624 -0.053529 -0.647263 31.000000
6.611076 -7.498794 -0.749917 8.000000
15.893991 17.272480 -1.909169 7.000000
5.481523 -0.033485 -0.649763 28.000000
16.151018 17.681423 -1.926779 8.000000
5.481724 -0.012438 -0.648806 23.000000
7.288424 -3.304642 -0.872188 1.000000
6.856265 -7.665622 -0.793152 32.000000
16.164217 17.820398 -1.910407 9.000000
5.466952 0.005725 -0.646089 35.000000
6.901195 -7.664553 -0.804459 5.000000
16.076778 17.855070 -1.882478 10.000000
5.471859 0.025786 -0.646676 27.000000
15.988659 17.876062 -1.858034 11.000000
5.476693 0.045883 -0.647263 27.000000
6.773292 -7.415102 -0.802746 40.000000
15.867853 17.866112 -1.826060 10.000000
5.476477 0.066911 -0.647263 29.000000
6.809879 -7.400501 -0.816228 28.000000
15.730773 17.843060 -1.796921 16.000000
5.466265 0.086825 -0.646089 29.000000
6.909348 -2.949938 -0.844016 1.000000
6.787861 -7.325092 -0.817538 36.000000
15.636949 17.868233 -1.768667 16.000000
5.460721 0.106758 -0.647409 37.000000
6.887671 -2.910883 -0.844024 3.000000
6.827578 -7.313999 -0.831394 30.000000
15.559333 17.905277 -1.741970 8.000000
5.470424 0.127962 -0.646676 26.000000
6.902604 -2.887422 -0.847197 1.000000
6.891385 -7.328320 -0.844728 24.000000
15.471533 17.923943 -1.718013 7.000000
5.465006 0.145970 -0.646089 28.000000
7.072690 -7.471320 -0.872952 133.000000
15.575559 18.172316 -1.711404 7.000000
5.454620 0.165701 -0.643963 24.000000
6.918658 -2.833317 -0.854464 1.000000
7.138408 -7.482980 -0.890238 24.000000
15.901064 18.690296 -1.728858 7.000000
5.463869 0.186983 -0.645135 27.000000
7.215692 -2.932923 -0.892951 1.000000
7.272131 -7.567429 -0.914522 8.000000
15.939737 18.882177 -1.714930 8.000000
5.457887 0.208717 -0.646456 28.000000
7.090259 -2.843081 -0.883867 1.000000
7.155934 -7.394674 -0.905707 33.000000
15.961274 19.048899 -1.698598 10.000000
5.457086 0.228720 -0.646456 30.000000
7.098888 -7.282125 -0.905836 34.000000
15.844708 19.037672 -1.671188 9.000000
5.456367 0.247772 -0.645502 23.000000
7.072636 -7.202194 -0.907991 22.000000
15.712524 19.013441 -1.638291 7.000000
5.460606 0.268024 -0.644181 29.000000
7.078417 -7.160428 -0.914538 32.000000
15.624679 19.062460 -1.606854 7.000000
5.464557 0.290211 -0.643811 29.000000
7.115720 -7.143095 -0.926454 26.000000
15.493124 19.023548 -1.577963 7.000000
5.463285 0.309271 -0.645721 28.000000
7.138794 -7.118886 -0.935252 31.000000
15.405292 19.071545 -1.546728 7.000000
5.472026 0.331808 -0.645936 28.000000
7.219699 -7.141994 -0.952815 34.000000
15.230566 18.976891 -1.513846 7.000000
5.460984 0.349318 -0.644766 27.000000
7.369537 -7.236969 -0.978176 51.000000
15.196095 19.076757 -1.491721 7.000000
5.474691 0.371307 -0.644606 35.000000
7.429650 -7.245231 -0.993758 43.000000
14.990780 18.968002 -1.449059 7.000000
5.468315 0.392933 -0.643066 33.000000
7.480561 -7.241576 -1.006181 72.000000
14.860772 18.932220 -1.421475 7.000000
5.472046 0.411445 -0.642690 27.000000
7.941208 -2.887225 -1.010567 1.000000
14.813911 19.008764 -1.398008 7.000000
5.470202 0.432436 -0.644606 31.000000
8.114576 -2.916629 -1.037369 1.000000
14.641190 18.929827 -1.363103 7.000000
5.473865 0.452919 -0.642313 30.000000
8.126552 -2.882552 -1.038874 1.000000
14.588048 18.997778 -1.339158 7.000000
5.477116 0.473407 -0.642894 27.000000
8.023314 -2.816014 -1.027488 4.000000
14.425352 18.929127 -1.305584 7.000000
5.485262 0.495337 -0.643094 25.000000
7.944933 -2.752733 -1.020494 9.000000
7.079946 -6.609091 -0.982093 8.000000
14.381093 19.008316 -1.282541 6.000000
5.478576 0.514984 -0.641554 33.000000
7.902505 -2.707173 -1.016783 1.000000
7.086730 -6.571580 -0.986822 9.000000
14.165359 18.866486 -1.240555 7.000000
5.481707 0.535554 -0.641172 37.000000
8.020597 -2.711702 -1.038068 1.000000
7.075685 -6.508705 -0.991812 10.000000
14.094342 18.909010 -1.211217 7.000000
5.489491 0.557602 -0.642328 34.000000
8.086026 -2.703977 -1.045370 1.000000
7.081902 -6.471200 -0.998132 15.000000
13.993230 18.910767 -1.187611 8.000000
5.507279 0.579810 -0.643674 32.000000
8.118921 -2.681933 -1.052889 2.000000
7.101241 -6.441270 -1.005981 10.000000
13.894997 18.922667 -1.160506 8.000000
5.515104 0.601080 -0.643861 29.000000
7.139917 -6.426554 -1.018128 10.000000
13.747312 18.859184 -1.125082 8.000000
5.522738 0.623379 -0.644043 32.000000
7.185271 -6.419861 -1.026335 11.000000
13.652548 18.874123 -1.094457 9.000000
5.525460 0.644204 -0.643648 21.000000
7.237834 -6.419276 -1.039015 15.000000
13.534805 18.849554 -1.065933 8.000000
4.470316 2.665901 -0.458114 1.000000
5.537968 0.666245 -0.644399 17.000000
7.261991 -6.397802 -1.049685 11.000000
13.437675 18.852842 -1.039165 9.000000
5.550396 0.687404 -0.646120 24.000000
8.653780 -2.680448 -1.133225 9.000000
7.314631 -6.396713 -1.062478 10.000000
13.334493 18.853905 -1.012293 9.000000
5.567412 0.712214 -0.647436 21.000000
8.724842 -2.667452 -1.144478 3.000000
7.380844 -6.402512 -1.076983 13.000000
13.220603 18.831968 -0.976444 9.000000
5.604499 0.737846 -0.649060 10.000000
11.513447 -3.471730 -1.510644 1.000000
7.431581 -6.403460 -1.088214 14.000000
13.149557 18.870497 -0.955949 6.000000
5.631670 0.760431 -0.651490 14.000000
11.558362 -3.439109 -1.523425 1.000000
7.473157 -6.391707 -1.099553 16.000000
13.055389 18.882528 -0.926035 5.000000
5.658343 0.786167 -0.653910 9.000000
11.523292 -3.382750 -1.517159 1.000000
7.552615 -6.411885 -1.116533 10.000000
13.054871 19.023392 -0.910536 1.000000
11.510771 -3.333298 -1.522392 1.000000
7.577394 -6.380758 -1.126907 10.000000
11.499636 -3.282268 -1.519241 1.000000
7.632200 -6.383773 -1.138940 9.000000
20.374720 30.127302 -1.346344 1.000000
5.822402 0.869125 -0.670729 7.000000
11.496756 -3.235923 -1.521520 1.000000
7.696817 -6.390021 -1.153925 13.000000
20.273577 30.227213 -1.309155 5.000000
6.035488 0.923559 -0.693502 4.000000
11.508025 -3.193621 -1.525689 1.000000
7.734895 -6.373888 -1.163215 15.000000
20.184931 30.300385 -1.265034 9.000000
11.510120 -3.146653 -1.528587 1.000000
7.792171 -6.373277 -1.175430 15.000000
20.041939 30.349072 -1.219212 9.000000
19.199545 3.023736 -2.197294 4.000000
11.545002 -3.110758 -1.535938 1.000000
7.866863 -6.381835 -1.193578 10.000000
20.059837 30.607985 -1.188428 9.000000
19.242666 3.102847 -2.200071 2.000000
11.556344 -3.066268 -1.540111 1.000000
7.910531 -6.373880 -1.204181 11.000000
19.904493 30.603436 -1.147278 8.000000
19.221186 3.175153 -2.195549 7.000000
11.495019 -3.004943 -1.534677 83.000000
7.958500 -6.360013 -1.216603 13.000000
19.342455 3.268059 -2.203820 7.000000
11.491550 -2.959082 -1.532755 255.000000
8.021482 -6.366871 -1.232062 9.000000
21.470488 33.533772 -1.153957 7.000000
11.516727 -2.918458 -1.538824 253.000000
21.241573 33.432659 -1.092569 10.000000
14.885990 2.627481 -1.687528 3.000000
11.522014 -2.874897 -1.542327 246.000000
21.125755 33.495251 -1.057735 10.000000
14.279749 2.577052 -1.614784 3.000000
11.531950 -2.832519 -1.546472 239.000000
20.951040 33.476643 -1.006550 10.000000
11.552118 -2.790483 -1.549838 244.000000
5.232709 -4.005051 -0.817264 9.000000
20.899494 33.681175 -0.954899 10.000000
11.557445 -2.746978 -1.549191 241.000000
5.203550 -3.952573 -0.813916 9.000000
11.553423 -2.699196 -1.547252 36.000000
5.217432 -3.933045 -0.819618 9.000000
13.129837 2.571212 -1.472354 1.000000
11.644853 -2.675585 -1.562414 1.000000
5.187545 -3.880780 -0.818426 8.000000
19.407509 32.007771 -0.777551 7.000000
12.760639 2.547511 -1.422796 1.000000
11.692735 -2.641505 -1.571785 1.000000
5.173397 -3.840703 -0.818538 9.000000
21.612736 35.927006 -0.826998 121.000000
12.503055 2.543776 -1.392853 1.000000
11.673484 -2.590087 -1.569972 1.000000
5.155580 -3.796856 -0.819085 9.000000
21.518440 36.054585 -0.776884 72.000000
12.182622 2.525117 -1.353783 1.000000
11.721110 -2.555615 -1.579367 1.000000
5.140972 -3.757114 -0.819089 9.000000
21.876934 36.947708 -0.734505 7.000000
12.125327 2.557417 -1.346212 1.000000
11.754364 -2.517772 -1.584728 1.000000
5.138302 -3.726349 -0.819861 10.000000
11.792508 -2.478623 -1.592856 1.000000
5.115123 -3.681006 -0.819596 9.000000
11.913135 2.604018 -1.313971 1.000000
11.879188 -2.451414 -1.603339 1.000000
5.136182 -3.667662 -0.825292 10.000000
11.384706 2.532269 -1.252584 1.000000
11.931962 -2.414576 -1.611361 1.000000
5.122025 -3.644072 -0.825342 9.000000
29.951235 52.255497 -0.735891 1.000000
11.351742 2.568637 -1.243821 1.000000
12.037971 -2.390133 -1.624483 1.000000
5.102596 -3.602154 -0.823405 9.000000
29.937101 52.656021 -0.666043 1.000000
11.240471 2.588869 -1.228637 1.000000
12.158271 -2.367733 -1.641735 1.000000
5.111469 -3.580419 -0.824930 9.000000
29.829676 52.895966 -0.582957 1.000000
11.159121 2.613239 -1.212692 1.000000
12.400978 -2.365613 -1.673269 1.000000
5.103852 -3.547270 -0.824909 9.000000
29.801386 53.279621 -0.511445 1.000000
11.087402 2.639347 -1.197896 4.000000
12.609618 -2.357548 -1.697965 5.000000
5.100756 -3.516149 -0.825521 10.000000
29.693516 53.546478 -0.427463 1.000000
10.996094 2.660235 -1.183088 1.000000
12.750225 -2.333204 -1.715679 5.000000
5.109161 -3.494388 -0.828102 9.000000
46.206234 83.289673 -0.615093 11.000000
10.998154 2.658702 -1.167290 1.000000
12.752569 -2.333633 -1.697580 2.000000
5.115530 -3.513178 -0.822510 11.000000
11.065886 2.632184 -1.173447 1.000000
12.685904 -2.371811 -1.683032 3.000000
5.120984 -3.541972 -0.817531 10.000000
29.862017 52.953312 -0.488088 1.000000
11.187045 2.617719 -1.183243 1.000000
12.400929 -2.365604 -1.635161 1.000000
5.149224 -3.589477 -0.818563 9.000000
30.075359 52.877720 -0.562731 1.000000
11.327434 2.606816 -1.197073 1.000000
12.134757 -2.360956 -1.596807 1.000000
5.155638 -3.624788 -0.816296 9.000000
30.105303 52.503056 -0.612679 1.000000
11.336951 2.563210 -1.201131 1.000000
11.954806 -2.377959 -1.572262 1.000000
5.151105 -3.649886 -0.810970 10.000000
11.477563 2.550820 -1.212956 1.000000
11.981107 -2.428874 -1.568205 1.000000
5.166636 -3.689409 -0.808781 9.000000
11.549585 2.522440 -1.223752 1.000000
11.876211 -2.450799 -1.549132 1.000000
5.158159 -3.728400 -0.802902 9.000000
12.122834 2.601124 -1.283473 1.000000
11.818272 -2.488346 -1.538580 1.000000
5.172982 -3.768056 -0.802815 9.000000
21.835876 36.863689 -0.620713 7.000000
12.040046 2.535041 -1.275839 1.000000
11.751136 -2.519225 -1.528900 1.000000
5.199810 -3.816847 -0.802284 9.000000
12.282588 2.539131 -1.304970 1.000000
11.670354 -2.544549 -1.513182 1.000000
5.198315 -3.845147 -0.798493 9.000000
21.631727 35.930180 -0.688123 81.000000
12.579597 2.552489 -1.333259 1.000000
11.671150 -2.589569 -1.510265 3.000000
5.216688 -3.888399 -0.796582 9.000000
19.391384 31.956013 -0.652458 5.000000
12.822522 2.552885 -1.362618 1.000000
11.647576 -2.629167 -1.504217 3.000000
5.246610 -3.940698 -0.797540 10.000000
13.257121 2.586529 -1.405353 1.000000
11.613052 -2.672546 -1.494853 5.000000
5.252585 -3.975382 -0.793659 9.000000
20.929991 33.954788 -0.786767 1.000000
11.603686 -2.715211 -1.490694 11.000000
5.281843 -4.028058 -0.795601 8.000000
20.982533 33.762367 -0.832671 10.000000
11.555548 -2.748658 -1.481583 31.000000
5.314835 -4.084115 -0.796887 8.000000
20.996382 33.523067 -0.863106 10.000000
11.536989 -2.786829 -1.474131 31.000000
5.363198 -4.152631 -0.800413 8.000000
21.112776 33.448792 -0.904528 10.000000
14.153581 2.549181 -1.506462 1.000000
11.546473 -2.833949 -1.472446 39.000000
21.331230 33.522041 -0.957187 9.000000
14.795211 2.603470 -1.576281 4.000000
11.502802 -2.867971 -1.464006 26.000000
8.136095 -6.356615 -1.205584 16.000000
21.398993 33.370781 -0.996534 8.000000
20.522020 3.541080 -2.188826 96.000000
11.521061 -2.919556 -1.463534 20.000000
8.105597 -6.380766 -1.197223 26.000000
20.618673 3.472583 -2.205010 121.000000
11.514549 -2.967147 -1.459995 18.000000
8.016813 -6.358605 -1.178495 20.000000
20.034601 30.756477 -1.006063 5.000000
20.855970 3.437726 -2.232820 84.000000
11.514496 -3.007887 -1.459136 8.000000
7.982611 -6.379282 -1.167862 11.000000
20.064459 30.568466 -1.040519 9.000000
20.887682 3.364363 -2.238614 7.000000
11.508641 -3.053611 -1.451433 10.000000
7.932880 -6.387323 -1.155000 13.000000
20.054737 30.322393 -1.066271 14.000000
20.806166 3.273041 -2.232294 7.000000
11.531409 -3.104937 -1.451499 9.000000
7.863737 -6.379299 -1.141170 13.000000
29.773455 44.660290 -1.639918 143.000000
20.798361 3.193743 -2.230186 7.000000
11.510864 -3.144697 -1.446127 2.000000
7.795207 -6.371220 -1.122152 12.000000
20.662567 3.091728 -2.218023 7.000000
11.523107 -3.195640 -1.444961 1.000000
7.745550 -6.378130 -1.111270 16.000000
23.864483 35.260948 -1.382686 8.000000
20.732416 3.024533 -2.228014 7.000000
11.507506 -3.236781 -1.436016 9.000000
7.692558 -6.381950 -1.094656 19.000000
23.924023 35.097614 -1.431336 4.000000
5.919938 0.817247 -0.637604 5.000000
11.510368 -3.283159 -1.433627 3.000000
7.639044 -6.384967 -1.085089 15.000000
23.966318 34.897301 -1.470954 1.000000
5.809588 0.779293 -0.626427 7.000000
11.517234 -3.332991 -1.431821 5.000000
7.585893 -6.387915 -1.072101 19.000000
5.777788 0.753480 -0.623724 7.000000
11.510183 -3.376719 -1.428226 6.000000
7.541509 -6.395665 -1.060248 15.000000
5.726150 0.725412 -0.618878 9.000000
11.512485 -3.423271 -1.425807 4.000000
7.484696 -6.394794 -1.046860 18.000000
5.718917 0.702195 -0.618817 13.000000
11.514599 -3.469885 -1.423378 8.000000
7.458266 -6.419652 -1.036027 10.000000
5.706749 0.679479 -0.616212 10.000000
11.535381 -3.524519 -1.419071 1.000000
7.390282 -6.408439 -1.021209 10.000000
13.473153 18.888664 -0.927811 1.000000
5.699218 0.657406 -0.616148 9.000000
11.527838 -3.568462 -1.413337 1.000000
7.356176 -6.426250 -1.011127 9.000000
13.615295 18.926769 -0.960892 5.000000
5.676778 0.633743 -0.614475 9.000000
11.557800 -3.624210 -1.414344 2.000000
7.344434 -6.463607 -1.004135 11.000000
13.668332 18.875124 -0.980817 6.000000
5.664342 0.610344 -0.612871 8.000000
11.562731 -3.674579 -1.416663 1.000000
7.347402 -6.514161 -0.999139 9.000000
13.760018 18.862778 -1.007160 8.000000
5.656545 0.588539 -0.612794 9.000000
11.559579 -3.720279 -1.409346 30.000000
7.353806 -6.568137 -0.994585 8.000000
13.911846 18.910999 -1.041446 9.000000
5.653611 0.567295 -0.613250 8.000000
14.009283 18.918646 -1.064870 9.000000
5.640702 0.545125 -0.612629 8.000000
8.080289 -2.666043 -0.979982 1.000000
14.152531 18.966343 -1.095301 7.000000
5.642754 0.523462 -0.612629 8.000000
14.259847 18.971636 -1.127534 7.000000
5.614820 0.500122 -0.610389 8.000000
14.310473 18.894405 -1.150931 7.000000
5.591744 0.477415 -0.608677 8.000000
7.896031 -2.703416 -0.950907 5.000000
14.445268 18.934687 -1.181450 7.000000
5.603445 0.456749 -0.609755 8.000000
8.079009 -2.799187 -0.969637 1.000000
14.583804 18.971682 -1.212207 7.000000
5.580196 0.434272 -0.608036 8.000000
8.054949 -2.823960 -0.964967 1.000000
14.695011 18.978870 -1.241138 7.000000
5.546802 0.413172 -0.605227 8.000000
7.978965 -2.831770 -0.952671 1.000000
7.592162 -7.187085 -0.977190 14.000000
14.868089 19.057695 -1.275229 6.000000
5.528514 0.390470 -0.603064 8.000000
7.800581 -7.438784 -0.998030 20.000000
14.970706 19.051727 -1.303765 7.000000
5.524972 0.367937 -0.603489 8.000000
15.070790 19.028246 -1.331602 7.000000
5.506441 0.346436 -0.601322 8.000000
15.183146 19.026409 -1.360928 7.000000
5.492684 0.325364 -0.600657 8.000000
7.223499 -7.044196 -0.904021 9.000000
15.286056 19.025614 -1.385855 7.000000
5.474041 0.303171 -0.598487 9.000000
7.452888 -7.316266 -0.928411 9.000000
15.404831 19.036964 -1.416320 6.000000
5.489902 0.283870 -0.601074 8.000000
7.295559 -7.214518 -0.903077 16.000000
15.542945 19.064327 -1.448430 7.000000
5.485849 0.265424 -0.600531 9.000000
7.178088 -7.150578 -0.879301 28.000000
15.665437 19.078203 -1.479572 7.000000
5.476981 0.242003 -0.599444 9.000000
7.167691 -7.190244 -0.872170 242.000000
15.842422 19.150198 -1.515771 7.000000
5.472683 0.223633 -0.599856 9.000000
7.219025 -7.295021 -0.870838 19.000000
15.863426 19.039875 -1.537462 7.000000
5.473536 0.201662 -0.599856 9.000000
7.199751 -7.329078 -0.862719 165.000000
16.047558 19.117956 -1.574747 7.000000
5.474207 0.182555 -0.599856 9.000000
7.267187 -7.452166 -0.866748 1.000000
16.145512 19.098873 -1.599720 7.000000
5.464904 0.162195 -0.598768 10.000000
7.097465 -2.912330 -0.815811 1.000000
7.151727 -7.385167 -0.843401 10.000000
16.327538 19.171228 -1.637263 7.000000
5.475294 0.142419 -0.600812 10.000000
6.995145 -2.900346 -0.802593 1.000000
7.283992 -7.577124 -0.853036 233.000000
16.406317 19.121305 -1.664621 7.000000
5.475821 0.120439 -0.600812 9.000000
6.870199 -2.878094 -0.785518 1.000000
7.023577 -7.365180 -0.817055 33.000000
16.484859 19.077690 -1.692344 7.000000
5.471239 0.101232 -0.600267 9.000000
6.965324 -7.352760 -0.804215 28.000000
16.710915 19.196625 -1.730628 7.000000
5.471573 0.081178 -0.600267 9.000000
6.899452 -2.951409 -0.783428 1.000000
6.892373 -7.326808 -0.788141 16.000000
16.816074 19.181810 -1.761413 7.000000
5.481774 0.061235 -0.601358 10.000000
6.902660 -2.982758 -0.781049 4.000000
6.896654 -7.385412 -0.781075 33.000000
16.535053 18.722374 -1.751062 7.000000
5.476998 0.040149 -0.600812 9.000000
6.969545 -3.042023 -0.785849 1.000000
6.934487 -7.480704 -0.777715 35.000000
16.277369 18.301449 -1.747070 7.000000
6.047692 2.721748 -0.663124 1.000000
5.481869 0.020092 -0.603271 9.000000
16.226835 18.110525 -1.755840 7.000000
6.083627 2.713696 -0.669596 1.000000
5.482116 0.000000 -0.601358 9.000000
16.222519 17.985344 -1.765908 7.000000
6.125281 2.705403 -0.674266 1.000000
5.506831 -0.018261 -0.605045 8.000000
16.243507 17.882706 -1.791062 9.000000
5.491705 -0.039298 -0.604365 9.000000
7.328997 -3.289171 -0.820236 1.000000
7.088909 -7.870268 -0.768547 11.000000
16.331938 17.860699 -1.815510 10.000000
5.511423 -0.057718 -0.606553 9.000000
7.070933 -3.234341 -0.784327 1.000000
6.900269 -7.712111 -0.741786 10.000000
16.453417 17.861649 -1.847300 11.000000
5.521086 -0.079985 -0.607647 9.000000
7.030158 -3.252857 -0.775908 1.000000
16.561531 17.847301 -1.877728 20.000000
5.525725 -0.100311 -0.608194 9.000000
7.000524 -3.270350 -0.769869 1.000000
16.669443 17.825823 -1.907900 16.000000
5.545174 -0.121964 -0.610381 9.000000
7.226837 -3.373001 -0.797440 1.000000
6.564834 -7.498950 -0.684691 196.000000
16.764278 17.796041 -1.932744 9.000000
5.554626 -0.142543 -0.611475 8.000000
6.977208 -3.321980 -0.760429 1.000000
6.591450 -7.582596 -0.679653 94.000000
16.702120 17.618828 -1.944771 7.000000
5.588841 -0.163920 -0.615304 8.000000
16.602818 17.373857 -1.946179 7.000000
5.588171 -0.185379 -0.615304 8.000000
6.984485 -3.388472 -0.758437 1.000000
16.479269 17.130478 -1.950085 7.000000
5.622113 -0.207136 -0.620114 8.000000
16.352741 16.868828 -1.952203 7.000000
5.646145 -0.228747 -0.622853 8.000000
16.271681 16.674212 -1.956388 6.000000
5.660207 -0.249110 -0.624497 8.000000
6.111722 -3.045861 -0.655118 1.000000
6.686869 -7.977579 -0.654905 10.000000
16.002939 16.279024 -1.940965 6.000000
5.679127 -0.272788 -0.625696 8.000000
6.095407 -3.068337 -0.649877 1.000000
6.661211 -8.006393 -0.644313 117.000000
16.071815 16.229671 -1.962169 6.000000
5.678192 -0.291619 -0.625696 9.000000
6.013416 -3.054740 -0.638761 7.000000
6.540090 -7.919672 -0.624604 27.000000
15.883974 15.928393 -1.960125 6.000000
5.691862 -0.315235 -0.627336 8.000000
5.971368 -3.060966 -0.633119 30.000000
6.512816 -7.942954 -0.613848 30.000000
15.736295 15.665048 -1.954328 6.000000
5.695798 -0.335400 -0.626888 9.000000
5.943253 -3.072798 -0.627737 24.000000
6.480911 -7.963394 -0.602798 54.000000
15.535357 15.341350 -1.944752 18.000000
5.704107 -0.358872 -0.629975 9.000000
5.914048 -3.086534 -0.622376 27.000000
6.465886 -8.001822 -0.596788 24.000000
15.606502 15.309718 -1.962677 20.000000
5.742889 -0.380436 -0.631344 9.000000
5.898863 -3.106171 -0.614930 21.000000
6.349515 -7.916992 -0.576282 38.000000
15.615564 15.212009 -1.980142 19.000000
5.765954 -0.404206 -0.636087 9.000000
5.883682 -3.124459 -0.613309 8.000000
6.297336 -7.908333 -0.563428 48.000000
15.712665 15.194757 -2.008460 7.000000
5.789328 -0.427173 -0.637809 8.000000
6.429582 -8.135423 -0.568848 70.000000
15.573036 14.949665 -2.002594 6.000000
5.842231 -0.452612 -0.643816 8.000000
6.312129 -8.044372 -0.550198 25.000000
15.406113 14.681301 -2.000423 6.000000
5.974316 -0.485930 -0.657513 5.000000
6.390327 -8.205782 -0.548710 35.000000
6.190955 -8.007271 -0.523359 109.000000
20.585419 -1.819094 -2.270556 4.000000
6.103887 -8.012497 -0.499682 10.000000
10.653785 3.620620 -1.282026 1.000000
20.766747 -1.915506 -2.287667 5.000000
6.110880 -8.082964 -0.493812 70.000000
10.652019 3.578593 -1.282290 1.000000
20.556740 -1.972147 -2.265314 7.000000
6.139897 -8.180549 -0.487726 18.000000
10.650068 3.534550 -1.288423 1.000000
20.544035 -2.046946 -2.268372 7.000000
6.140010 -8.243459 -0.479343 26.000000
10.649366 3.486922 -1.292580 6.000000
20.488132 -2.117243 -2.252127 7.000000
10.646264 3.446859 -1.294767 5.000000
20.514429 -2.192360 -2.263133 7.000000
10.649529 3.402794 -1.297520 6.000000
20.421875 -2.265420 -2.250278 8.000000
10.618438 3.350018 -1.300106 1.000000
20.636038 -2.365774 -2.271148 7.000000
6.209774 -8.591086 -0.451701 68.000000
10.629992 3.310874 -1.305936 5.000000
20.375462 -2.415201 -2.239850 7.000000
6.433395 -8.966219 -0.458665 176.000000
10.665352 3.279053 -1.312743 7.000000
20.070831 -2.453722 -2.203765 5.000000
6.489282 -9.111085 -0.453180 41.000000
10.663169 3.233621 -1.314880 1.000000
20.159948 -2.539644 -2.218146 5.000000
6.104331 -8.637427 -0.417411 10.000000
10.669753 3.192961 -1.318182 2.000000
20.229301 -2.627328 -2.223268 7.000000
6.427319 -9.162135 -0.429943 23.000000
10.661451 3.147948 -1.323592 1.000000
20.353506 -2.712122 -2.237894 7.000000
6.279729 -9.021901 -0.412674 42.000000
10.667483 3.107268 -1.328819 1.000000
20.554794 -2.815657 -2.264810 7.000000
6.197358 -8.970177 -0.395977 31.000000
10.678890 3.066157 -1.332697 1.000000
6.160586 -8.983849 -0.384207 25.000000
10.674830 3.022685 -1.338657 6.000000
15.608984 -2.263195 -1.713410 1.000000
5.959149 -8.758753 -0.364388 35.000000
4.275361 3.523082 -0.624340 1.000000
10.690166 2.984748 -1.343130 7.000000
15.291337 -2.268938 -1.682088 4.000000
5.819683 -8.618297 -0.346795 17.000000
10.638881 2.926441 -1.339173 31.000000
14.953956 -2.274923 -1.643210 2.000000
5.824414 -8.693839 -0.338003 31.000000
4.388836 3.562896 -0.648073 1.000000
10.696533 2.900170 -1.352934 1.000000
14.709089 -2.295492 -1.619889 1.000000
5.755485 -8.656145 -0.324858 29.000000
10.730606 2.867230 -1.359841 1.000000
14.559062 -2.326772 -1.596484 2.000000
5.579531 -8.455379 -0.305972 29.000000
4.308105 3.447741 -0.641365 1.000000
10.726187 2.823969 -1.361890 1.000000
14.270537 -2.334333 -1.568327 1.000000
5.628060 -8.597301 -0.299589 42.000000
10.755473 2.787564 -1.370145 5.000000
14.021920 -2.346465 -1.539428 3.000000
5.489242 -8.449462 -0.284967 32.000000
10.779113 2.751569 -1.379748 1.000000
13.723732 -2.350771 -1.507671 1.000000
5.495054 -8.523388 -0.277955 28.000000
10.793470 2.713135 -1.384248 1.000000
13.387213 -2.343666 -1.469235 1.000000
5.496297 -8.594320 -0.265355 63.000000
10.822131 2.676202 -1.394500 1.000000
13.275520 -2.374294 -1.460304 1.000000
9.769594 -6.594638 -0.882134 17.000000
6.060966 -9.550553 -0.284347 20.000000
10.922980 2.658697 -1.410216 1.000000
12.890269 -2.356506 -1.414284 1.000000
9.729376 -6.619526 -0.872426 26.000000
6.049080 -9.605777 -0.271484 24.000000
4.347565 3.326370 -0.670199 1.000000
10.999475 2.634650 -1.424851 1.000000
12.764024 -2.381805 -1.403673 6.000000
9.713523 -6.660953 -0.869054 9.000000
6.027197 -9.649280 -0.262153 19.000000
4.309023 3.269541 -0.667020 1.000000
11.149051 2.625253 -1.446972 1.000000
12.628004 -2.404352 -1.391944 6.000000
9.714279 -6.713951 -0.860957 15.000000
6.014663 -9.704441 -0.253111 22.000000
4.355134 3.281829 -0.676335 1.000000
11.201102 2.594216 -1.460639 1.000000
12.234065 -2.375845 -1.345072 1.000000
9.703306 -6.756540 -0.857921 6.000000
5.998301 -9.750099 -0.241789 3.000000
4.267233 3.191137 -0.666530 1.000000
11.175935 2.545264 -1.462230 1.000000
12.068584 -2.391833 -1.330050 1.000000
9.735995 -6.832422 -0.856759 1.000000
4.340049 3.233794 -0.680859 1.000000
11.310966 2.530373 -1.482727 1.000000
12.011463 -2.426299 -1.320399 1.000000
9.796882 -6.928880 -0.855926 1.000000
4.359466 3.223481 -0.685892 1.000000
11.503718 2.529257 -1.510948 1.000000
11.938965 -2.457233 -1.315563 1.000000
17.557749 -12.514577 -1.522839 7.000000
5.120824 -8.529224 -0.178860 4.000000
4.246708 3.116095 -0.671955 1.000000
11.910056 2.570694 -1.569495 1.000000
11.880790 -2.492849 -1.310197 1.000000
17.463797 -12.544390 -1.507354 7.000000
12.122982 -20.360722 -0.405350 26.000000
4.305637 3.135122 -0.685126 1.000000
12.020190 2.548393 -1.591488 1.000000
11.759982 -2.512536 -1.295758 1.000000
17.450663 -12.632173 -1.498871 6.000000
12.046959 -20.394661 -0.380375 26.000000
12.232507 2.546592 -1.625005 1.000000
11.789556 -2.564073 -1.300044 1.000000
17.420786 -12.708114 -1.492733 7.000000
11.950614 -20.393785 -0.354819 18.000000
11.720718 -2.596275 -1.299902 1.000000
17.389008 -12.778170 -1.482470 6.000000
11.808088 -20.320946 -0.336385 27.000000
11.702345 -2.632945 -1.298825 1.000000
17.402397 -12.886498 -1.483831 8.000000
11.754730 -20.392654 -0.312237 20.000000
11.675423 -2.626888 -1.321201 1.000000
17.354378 -12.855633 -1.510228 6.000000
11.790558 -20.446562 -0.341936 22.000000
11.713181 -2.590316 -1.332868 1.000000
17.417953 -12.808805 -1.534613 8.000000
11.831423 -20.352926 -0.378046 39.000000
12.284816 2.557482 -1.678746 1.000000
11.702490 -2.542999 -1.336931 1.000000
17.447140 -12.732004 -1.559586 7.000000
11.937539 -20.371473 -0.408018 29.000000
11.999019 2.543904 -1.640954 1.000000
11.773108 -2.517489 -1.352547 1.000000
17.479792 -12.657908 -1.588641 7.000000
12.027081 -20.352896 -0.441545 36.000000
12.003974 2.593158 -1.640800 1.000000
11.791287 -2.476218 -1.359973 1.000000
17.474380 -12.561241 -1.599261 7.000000
12.080451 -20.297350 -0.470030 20.000000
11.505514 2.529651 -1.573923 1.000000
11.979382 -2.469910 -1.389262 1.000000
17.494576 -12.478760 -1.619542 7.000000
5.159068 -8.592923 -0.215196 8.000000
11.481208 2.570562 -1.571937 1.000000
11.978802 -2.421878 -1.390267 1.000000
9.762316 -6.909547 -0.913983 1.000000
5.170795 -8.544728 -0.224903 2.000000
11.274113 2.567624 -1.540753 1.000000
12.011484 -2.382695 -1.397367 1.000000
9.704137 -6.817652 -0.916713 10.000000
4.285598 3.270665 -0.689655 1.000000
11.191939 2.592094 -1.532852 1.000000
12.277355 -2.388700 -1.438327 1.000000
9.683287 -6.750130 -0.924836 10.000000
5.996958 -9.755546 -0.287865 10.000000
4.276935 3.291306 -0.684639 9.000000
11.114885 2.619256 -1.519608 1.000000
12.427276 -2.370630 -1.457101 1.000000
6.140758 -4.220426 -0.595586 4.000000
6.035117 -9.737441 -0.301987 9.000000
10.975072 2.628804 -1.501800 1.000000
12.606675 -2.354721 -1.481600 5.000000
6.176428 -4.211694 -0.602797 3.000000
6.039773 -9.669413 -0.312477 28.000000
4.258420 3.324649 -0.678668 82.000000
10.984159 2.675618 -1.504438 1.000000
12.829420 -2.347696 -1.513678 1.000000
6.099875 -9.690188 -0.329835 30.000000
4.266075 3.355865 -0.677995 63.000000
10.979599 2.717176 -1.501149 1.000000
13.170107 -2.360185 -1.555209 1.000000
5.818641 -9.175789 -0.324368 41.000000
4.269670 3.384099 -0.676670 72.000000
10.902774 2.740610 -1.488016 1.000000
13.393366 -2.349562 -1.585356 1.000000
5.597819 -8.753066 -0.322888 74.000000
4.277087 3.415576 -0.674975 24.000000
10.753391 2.747002 -1.465115 1.000000
13.665781 -2.343300 -1.623884 3.000000
5.522513 -8.569262 -0.331066 38.000000
4.299706 3.459524 -0.676630 8.000000
10.815225 2.805064 -1.474930 1.000000
13.894387 -2.330109 -1.652516 1.000000
5.503177 -8.474149 -0.340489 34.000000
4.306732 3.491258 -0.674835 5.000000
10.723380 2.825232 -1.459935 23.000000
14.161691 -2.321604 -1.690902 2.000000
5.633729 -8.609241 -0.359290 31.000000
4.324935 3.532361 -0.676744 4.000000
10.684219 2.856833 -1.456020 255.000000
14.586273 -2.336342 -1.745791 4.000000
5.656781 -8.575702 -0.369525 25.000000
4.228082 3.479169 -0.658732 1.000000
10.674167 2.896106 -1.452159 255.000000
14.761633 -2.306331 -1.768350 6.000000
5.675184 -8.545074 -0.379728 25.000000
4.276896 3.545706 -0.663440 1.000000
10.663455 2.937205 -1.448298 253.000000
14.842693 -2.263299 -1.785027 5.000000
5.727114 -8.551832 -0.395394 26.000000
10.647843 2.974935 -1.447649 244.000000
15.213988 -2.262888 -1.831393 1.000000
5.793025 -8.585279 -0.408736 79.000000
10.642124 3.015430 -1.444437 246.000000
15.590766 -2.257775 -1.878479 1.000000
6.082644 -8.943622 -0.440090 35.000000
10.630951 3.056410 -1.440576 253.000000
6.974437 -4.353036 -0.743867 1.000000
6.172817 -9.008426 -0.457701 34.000000
10.634682 3.099727 -1.436714 244.000000
18.182755 -2.497194 -2.201511 6.000000
6.956032 -4.306202 -0.745975 1.000000
6.212417 -8.998690 -0.471689 28.000000
10.608436 3.136321 -1.434784 1.000000
18.014265 -2.406816 -2.183246 6.000000
6.996668 -4.295967 -0.755864 1.000000
6.290670 -9.040982 -0.488593 38.000000
10.673349 3.198098 -1.441185 1.000000
18.046850 -2.340674 -2.195756 6.000000
6.986401 -4.254481 -0.758824 1.000000
6.264552 -8.936745 -0.495591 26.000000
10.657291 3.235901 -1.436656 1.000000
18.000751 -2.267640 -2.192334 6.000000
6.984447 -4.218277 -0.762673 1.000000
5.860298 -8.298275 -0.473753 20.000000
10.635548 3.273953 -1.433434 1.000000
18.008562 -2.201603 -2.195501 6.000000
7.094718 -4.246102 -0.780126 1.000000
6.446353 -9.057502 -0.532056 23.000000
10.647627 3.320444 -1.432735 1.000000
17.873552 -2.115474 -2.181222 6.000000
6.451413 -8.997960 -0.541500 18.000000
10.579111 3.341672 -1.421218 1.000000
17.841360 -2.045385 -2.179544 6.000000
6.184148 -8.561927 -0.529490 62.000000
10.676625 3.415560 -1.426048 1.000000
17.892063 -1.991108 -2.188108 6.000000
6.221043 -8.553110 -0.539471 18.000000
10.606812 3.438177 -1.418476 1.000000
17.766239 -1.901800 -2.178056 6.000000
10.655876 3.497292 -1.422765 1.000000
4.428108 4.078991 -0.645531 1.000000
10.662522 3.542816 -1.419399 1.000000
6.641510 -8.923265 -0.604379 59.000000
4.406250 4.088812 -0.639219 1.000000
6.678095 -8.907332 -0.620467 30.000000
4.333521 4.050983 -0.625583 7.000000
6.668167 -8.832908 -0.626508 13.000000
4.304480 4.053501 -0.619358 7.000000
5.740388 -3.157110 -0.665456 1.000000
4.406252 4.178455 -0.629668 9.000000
5.708299 -0.459279 -0.705185 25.000000
5.703473 -3.109634 -0.664433 9.000000
5.679981 -0.438048 -0.702513 30.000000
5.718901 -3.090908 -0.668346 10.000000
6.278372 -8.129128 -0.619226 18.000000
5.651927 -0.414060 -0.698841 19.000000
5.729778 -3.069705 -0.672884 23.000000
6.264812 -8.050405 -0.625696 35.000000
14.165870 13.622600 -2.003227 1.000000
5.633483 -0.391955 -0.697379 27.000000
5.762431 -3.060070 -0.681152 23.000000
6.292468 -8.027966 -0.636378 130.000000
14.002511 13.564638 -1.973393 6.000000
5.614833 -0.369984 -0.696892 25.000000
5.795187 -3.050287 -0.688320 20.000000
6.075769 -7.696019 -0.622051 24.000000
14.118959 13.768497 -1.978844 6.000000
5.591329 -0.346878 -0.694797 25.000000
5.863101 -3.058643 -0.700885 9.000000
6.318181 -7.948736 -0.654844 33.000000
14.183207 13.932933 -1.977469 6.000000
5.587609 -0.326094 -0.694182 25.000000
6.133351 -7.661153 -0.644953 39.000000
14.367752 14.223041 -1.992982 6.000000
5.583448 -0.305321 -0.696494 30.000000
6.399007 -7.933209 -0.680546 27.000000
14.317241 14.277314 -1.968281 6.000000
5.560045 -0.282633 -0.691461 17.000000
6.454142 -7.938988 -0.693925 37.000000
14.357071 14.422370 -1.966670 6.000000
5.545933 -0.261540 -0.691550 22.000000
6.223474 -7.598186 -0.678182 35.000000
14.485353 14.648067 -1.972742 6.000000
5.546776 -0.240238 -0.692519 27.000000
6.167544 -7.481829 -0.679725 38.000000
14.608250 14.886236 -1.975209 6.000000
5.537704 -0.219513 -0.691282 31.000000
6.209821 -7.471801 -0.691298 53.000000
14.648578 15.037186 -1.969618 6.000000
5.543430 -0.199393 -0.691900 27.000000
6.222593 -7.434224 -0.700031 21.000000
14.703687 15.194239 -1.965180 9.000000
5.514280 -0.177147 -0.689150 31.000000
6.202380 -3.006365 -0.765820 1.000000
6.330363 -7.512225 -0.717967 1.000000
14.690707 15.292592 -1.948527 9.000000
5.509878 -0.158717 -0.688530 30.000000
14.621452 15.327232 -1.924058 9.000000
5.515431 -0.136721 -0.689150 27.000000
14.653602 15.484919 -1.913945 6.000000
5.501034 -0.115230 -0.687291 31.000000
6.503428 -7.544937 -0.761208 255.000000
14.927375 15.879369 -1.937400 6.000000
5.496459 -0.094981 -0.686671 28.000000
7.248401 -3.418568 -0.904592 1.000000
6.523395 -7.520198 -0.769515 94.000000
14.971796 16.038441 -1.927264 6.000000
5.496783 -0.073876 -0.686671 25.000000
7.025423 -3.247689 -0.883204 1.000000
6.494618 -7.431818 -0.773300 84.000000
15.019462 16.208191 -1.913832 6.000000
5.487094 -0.053632 -0.685432 28.000000
15.203682 16.528090 -1.929217 6.000000
5.487254 -0.033520 -0.685432 32.000000
7.048194 -3.195720 -0.891308 1.000000
15.251412 16.696575 -1.918804 6.000000
5.477300 -0.012428 -0.685148 33.000000
7.046391 -3.162340 -0.893636 1.000000
6.904353 -7.724811 -0.844518 22.000000
15.385347 16.967674 -1.923335 6.000000
5.477432 0.003824 -0.684192 25.000000
7.065487 -3.142803 -0.898835 1.000000
7.015444 -7.805127 -0.862812 9.000000
15.397734 17.106918 -1.908438 6.000000
5.477381 0.023900 -0.684192 35.000000
15.560959 17.397873 -1.914926 7.000000
5.482203 0.045929 -0.684812 35.000000
6.862328 -7.517843 -0.858322 34.000000
15.601203 17.572058 -1.898892 10.000000
5.477025 0.066918 -0.684192 32.000000
6.759800 -7.353803 -0.852818 33.000000
15.597112 17.691450 -1.881042 13.000000
5.476773 0.085080 -0.684192 27.000000
7.082188 -3.025193 -0.911502 1.000000
6.793791 -7.341766 -0.862823 28.000000
15.552934 17.772232 -1.862818 14.000000
5.476406 0.106109 -0.684192 29.000000
6.955597 -2.941021 -0.897826 1.000000
6.813242 -7.308865 -0.872428 30.000000
15.482426 17.823053 -1.837310 10.000000
5.480657 0.128202 -0.686726 29.000000
6.919808 -2.896038 -0.898470 1.000000
6.881441 -7.325428 -0.889927 37.000000
15.369060 17.817797 -1.810569 21.000000
5.475242 0.146243 -0.686104 28.000000
7.084850 -2.937539 -0.922703 1.000000
6.980439 -7.381607 -0.908495 81.000000
15.262721 17.826204 -1.781008 17.000000
5.479958 0.167428 -0.683855 24.000000
7.020635 -7.369817 -0.919159 54.000000
15.156388 17.827600 -1.751208 14.000000
5.474348 0.187342 -0.683236 21.000000
6.972714 -2.829908 -0.910637 1.000000
7.166178 -7.470211 -0.947546 26.000000
15.124278 17.922531 -1.730382 10.000000
5.473625 0.207405 -0.683236 26.000000
6.964853 -2.794206 -0.914784 1.000000
7.106438 -7.353792 -0.945076 29.000000
15.101272 18.028923 -1.710539 7.000000
5.472549 0.228411 -0.685148 25.000000
7.136050 -2.832568 -0.939979 1.000000
7.090046 -7.278136 -0.949736 31.000000
15.099974 18.155745 -1.692702 7.000000
5.476751 0.248698 -0.684812 34.000000
7.161079 -7.304998 -0.965177 10.000000
15.224960 18.443106 -1.689108 7.000000
5.475756 0.269725 -0.684812 32.000000
7.267530 -7.359436 -0.986812 9.000000
15.544199 18.964273 -1.706055 9.000000
5.470133 0.289550 -0.681324 31.000000
7.303304 -7.336521 -0.998603 9.000000
15.459966 19.003145 -1.678667 7.000000
5.473751 0.309864 -0.683855 28.000000
7.274134 -7.258915 -1.000369 20.000000
15.344480 18.996260 -1.647627 7.000000
5.477473 0.331178 -0.684474 34.000000
7.526268 -2.864975 -1.000215 1.000000
7.411911 -7.344945 -1.024978 35.000000
15.231955 18.998993 -1.621665 6.000000
5.466439 0.350625 -0.682280 29.000000
7.471220 -2.812712 -0.995767 1.000000
7.335022 -7.215660 -1.023375 90.000000
15.107727 18.979414 -1.585716 7.000000
5.470187 0.371002 -0.681941 30.000000
7.528462 -2.799810 -1.006162 1.000000
7.117607 -6.945781 -0.997908 118.000000
14.980313 18.961563 -1.554215 7.000000
5.478619 0.392712 -0.683176 31.000000
7.519235 -2.766540 -1.006473 4.000000
7.054250 -6.838432 -0.994502 225.000000
14.828797 18.905071 -1.520069 7.000000
5.477499 0.412817 -0.680299 29.000000
7.571745 -2.751401 -1.016300 4.000000
6.990210 -6.724479 -0.990378 72.000000
14.738918 18.932974 -1.492734 7.000000
5.485843 0.433672 -0.681529 29.000000
7.622503 -2.741265 -1.024760 8.000000
6.939927 -6.631938 -0.988597 33.000000
14.643482 18.946453 -1.456196 7.000000
5.484256 0.454743 -0.680568 29.000000
7.716939 -2.741809 -1.037485 15.000000
6.912920 -6.557824 -0.991405 10.000000
14.495578 18.897833 -1.431678 6.000000
5.477490 0.474402 -0.680914 32.000000
7.768368 -2.728057 -1.048888 25.000000
6.878353 -6.477301 -0.991371 9.000000
14.379165 18.882189 -1.397582 7.000000
5.475951 0.494496 -0.678995 79.000000
7.858749 -2.724408 -1.061082 19.000000
6.899904 -6.445531 -1.000738 10.000000
14.323071 18.945366 -1.373593 7.000000
5.469189 0.515064 -0.677423 76.000000
7.942868 -2.721000 -1.078533 18.000000
6.947232 -6.444478 -1.012697 10.000000
14.173644 18.891253 -1.336946 7.000000
5.477261 0.536085 -0.677687 65.000000
7.994592 -2.707576 -1.084266 17.000000
6.976608 -6.426565 -1.018726 9.000000
14.069675 18.889675 -1.308608 7.000000
5.490070 0.557661 -0.679520 61.000000
8.051130 -2.693871 -1.093600 11.000000
7.009077 -6.411392 -1.031934 10.000000
13.939345 18.844824 -1.281774 8.000000
5.502778 0.578365 -0.682319 63.000000
8.149491 -2.693609 -1.113228 19.000000
7.072337 -6.421806 -1.046211 14.000000
13.838391 18.859375 -1.246383 9.000000
5.525433 0.603182 -0.682468 26.000000
8.226051 -2.682333 -1.123742 10.000000
7.126781 -6.419236 -1.060610 13.000000
13.732078 18.852106 -1.218235 9.000000
5.538098 0.625112 -0.683324 29.000000
8.297272 -2.670354 -1.135156 15.000000
7.168231 -6.409138 -1.070071 18.000000
13.605126 18.822395 -1.188699 8.000000
5.536000 0.644454 -0.682351 23.000000
8.371847 -2.663749 -1.147263 14.000000
7.218323 -6.410980 -1.084606 10.000000
13.500044 18.801142 -1.160372 9.000000
5.548501 0.666530 -0.683198 36.000000
8.437929 -2.650757 -1.158119 20.000000
7.267146 -6.406851 -1.096968 11.000000
13.405660 18.814871 -1.133927 9.000000
5.556228 0.688126 -0.681481 22.000000
8.532698 -2.644575 -1.174482 15.000000
7.323648 -6.409112 -1.108825 10.000000
13.311048 18.834696 -1.103790 9.000000
5.577793 0.714532 -0.685483 22.000000
8.598823 -2.630565 -1.185442 16.000000
7.377475 -6.406363 -1.121881 10.000000
13.203681 18.807863 -1.075662 9.000000
5.580433 0.733687 -0.685105 20.000000
8.645972 -2.610373 -1.193823 9.000000
7.428022 -6.407174 -1.135004 16.000000
13.103995 18.812111 -1.045082 8.000000
5.612494 0.758839 -0.686369 26.000000
7.469563 -6.395408 -1.146459 13.000000
12.987833 18.784819 -1.013083 10.000000
5.619490 0.781768 -0.686582 29.000000
7.530027 -6.399496 -1.160874 14.000000
12.874725 18.760887 -0.985489 9.000000
5.646190 0.806588 -0.689191 22.000000
11.559018 -3.347269 -1.601392 1.000000
7.583017 -6.396811 -1.174199 10.000000
12.758654 18.738592 -0.958072 8.000000
5.687518 0.833775 -0.693586 15.000000
11.518251 -3.289756 -1.598318 1.000000
7.624656 -6.384252 -1.185816 16.000000
12.701235 18.809103 -0.931400 6.000000
11.539234 -3.250053 -1.603826 1.000000
7.687775 -6.384780 -1.198713 13.000000
20.264919 30.214308 -1.454849 6.000000
11.541537 -3.202921 -1.606681 1.000000
7.734736 -6.380560 -1.213382 13.000000
20.124432 30.243874 -1.414610 9.000000
11.500080 -3.146066 -1.603531 1.000000
7.784130 -6.373506 -1.226367 11.000000
20.044584 30.353079 -1.365574 9.000000
5.881902 0.946340 -0.712503 5.000000
11.510993 -3.103749 -1.607692 1.000000
7.868562 -6.394607 -1.241356 13.000000
19.966675 30.465837 -1.329306 9.000000
6.084615 0.999665 -0.736365 3.000000
11.522283 -3.059383 -1.611854 1.000000
7.910412 -6.380619 -1.253264 12.000000
19.945631 30.678398 -1.290618 9.000000
11.552047 -3.022005 -1.618702 1.000000
7.963877 -6.375706 -1.267062 8.000000
19.717232 30.560003 -1.244603 1.000000
11.500128 -2.963431 -1.614116 61.000000
21.338474 33.327583 -1.305872 10.000000
14.883409 2.573486 -1.790380 1.000000
11.482607 -2.911944 -1.610075 65.000000
21.161095 33.305988 -1.260758 10.000000
14.780519 2.614185 -1.779197 3.000000
11.473430 -2.864902 -1.611510 55.000000
21.053118 33.405922 -1.206424 10.000000
14.375949 2.597004 -1.723876 1.000000
11.522561 -2.830212 -1.618982 36.000000
5.174688 -3.993686 -0.837356 8.000000
20.984848 33.556705 -1.160820 10.000000
11.494333 -2.778649 -1.613574 56.000000
5.157215 -3.950125 -0.837942 8.000000
20.889296 33.664742 -1.120504 10.000000
11.517799 -2.739679 -1.623867 30.000000
5.115927 -3.888832 -0.833474 7.000000
31.369633 50.950752 -1.608593 10.000000
11.624705 -2.717989 -1.637456 1.000000
5.113731 -3.857672 -0.836492 8.000000
31.101255 50.912064 -1.541415 154.000000
13.125289 2.567943 -1.561635 1.000000
11.638858 -2.676346 -1.642305 1.000000
5.060018 -3.788132 -0.828795 8.000000
19.283354 31.828064 -0.909488 6.000000
12.663877 2.525896 -1.498691 1.000000
11.649328 -2.631700 -1.640220 1.000000
5.053390 -3.754347 -0.831039 9.000000
21.619177 35.966133 -0.974273 28.000000
12.542397 2.551780 -1.483199 1.000000
11.677678 -2.593156 -1.647117 1.000000
5.046817 -3.720835 -0.831050 9.000000
21.478649 36.016472 -0.929663 99.000000
12.309744 2.551466 -1.452335 1.000000
11.691827 -2.549230 -1.651976 1.000000
5.031835 -3.681398 -0.831893 9.000000
30.249529 51.128792 -1.244399 80.000000
12.183917 2.571996 -1.436391 1.000000
11.710495 -2.508375 -1.655434 1.000000
5.016516 -3.642038 -0.833756 9.000000
30.123285 51.343895 -1.184574 7.000000
