VERSION .7
FIELDS x y z intensity
SIZE 4 4 4 4
TYPE F F F F
COUNT 1 1 1 1
WIDTH 1222
HEIGHT 1
VIEWPOINT 0 0 0 1 0 0 0
POINTS 1222
DATA ascii
12.900792 -12.501738 -0.957201 2.000000
24.668676 30.637821 -0.899498 33.000000
24.024036 12.420977 -1.161896 7.000000
22.110943 1.325251 -1.234534 7.000000
13.492137 -5.041820 -0.875903 9.000000
12.844757 -12.539052 -0.940739 7.000000
24.759228 30.531490 -0.933231 33.000000
23.868797 12.230056 -1.166282 5.000000
21.856466 1.229620 -1.220066 7.000000
13.707431 -5.179606 -0.883405 8.000000
17.110821 -16.826502 -1.236691 10.000000
24.920933 30.501699 -0.976377 27.000000
23.910795 12.146385 -1.180324 6.000000
21.895510 1.151327 -1.225840 7.000000
17.800829 -6.801036 -1.142136 19.000000
17.105967 -16.939587 -1.219543 8.000000
25.093395 30.494905 -1.013443 28.000000
23.553049 11.856254 -1.174345 6.000000
21.919712 1.068218 -1.226957 7.000000
17.450424 -6.740557 -1.111401 7.000000
16.910164 -16.868896 -1.189087 8.000000
25.237375 30.420168 -1.048834 30.000000
23.086060 11.515317 -1.166996 7.000000
21.873611 0.985624 -1.224166 7.000000
13.086732 -13.150843 -0.907384 7.000000
25.507330 30.538906 -1.090587 13.000000
22.908152 11.321914 -1.169305 7.000000
21.866888 0.905025 -1.227427 7.000000
25.799629 30.670624 -1.140503 15.000000
23.002769 11.263963 -1.185459 7.000000
21.860081 0.824496 -1.226867 7.000000
12.230311 -4.879400 -0.766164 38.000000
25.953093 30.624498 -1.184390 10.000000
22.926504 11.122624 -1.192791 7.000000
21.838011 0.743520 -1.225467 7.000000
12.203457 -4.920609 -0.758694 8.000000
13.133445 -13.486566 -0.871294 15.000000
12.075716 14.148846 -0.565075 6.000000
22.953693 11.041933 -1.205660 7.000000
21.835598 0.663323 -1.225187 7.000000
12.199575 -4.971105 -0.752660 5.000000
13.074035 -13.524381 -0.854185 3.000000
11.993580 13.948746 -0.574904 6.000000
22.744741 10.829200 -1.205612 7.000000
21.802734 0.582349 -1.227034 7.000000
17.856339 -18.607412 -1.153041 33.000000
11.942792 13.787136 -0.589164 6.000000
22.435896 10.581456 -1.200196 7.000000
21.759806 0.501399 -1.224506 7.000000
17.547297 -18.413603 -1.114989 26.000000
11.885380 13.624468 -0.599777 6.000000
22.365366 10.448157 -1.207322 6.000000
21.636719 0.419224 -1.217485 7.000000
10.488354 -4.408898 -0.634100 3.000000
15.094708 -15.956627 -0.935971 95.000000
11.875508 13.512851 -0.612492 6.000000
22.022224 10.189692 -1.199511 7.000000
21.653082 0.340154 -1.218328 7.000000
10.389613 -4.412270 -0.625152 8.000000
14.934084 -15.903184 -0.910547 194.000000
11.851652 13.386437 -0.627472 7.000000
22.095167 10.125288 -1.214212 6.000000
21.609259 0.260248 -1.215800 7.000000
10.396613 -4.460290 -0.620611 1.000000
14.892645 -15.970407 -0.892326 172.000000
11.818131 13.255061 -0.638761 9.000000
21.654085 9.827286 -1.200468 6.000000
21.575155 0.176986 -1.213834 7.000000
10.421721 -4.516361 -0.617129 1.000000
8.773111 -9.477415 -0.516449 10.000000
11.829377 13.170177 -0.658413 8.000000
21.664717 9.741055 -1.215791 6.000000
21.769920 0.098789 -1.232387 7.000000
15.637522 -6.844870 -0.924477 10.000000
8.775743 -9.550237 -0.509592 8.000000
11.815707 13.067530 -0.667553 12.000000
21.698000 9.665111 -1.228228 6.000000
21.595417 0.018846 -1.222496 7.000000
15.517019 -6.860003 -0.906955 6.000000
14.643494 -16.053543 -0.834743 24.000000
11.817043 12.977657 -0.683472 8.000000
21.539148 9.504387 -1.229711 6.000000
21.460373 -0.048692 -1.218611 7.000000
14.480512 -15.986594 -0.809778 23.000000
11.884384 12.955904 -0.699982 8.000000
21.457422 9.378978 -1.231365 6.000000
21.565117 -0.124208 -1.220800 7.000000
14.340309 -6.459838 -0.829782 8.000000
14.417861 -16.023901 -0.790405 27.000000
11.999268 12.985281 -0.716304 6.000000
21.474154 9.288247 -1.246650 6.000000
21.549467 -0.210628 -1.219953 7.000000
13.944488 -6.343116 -0.794812 5.000000
14.312887 -16.024971 -0.769090 34.000000
11.952203 12.844109 -0.726150 26.000000
21.348406 9.149939 -1.245712 6.000000
21.409309 -0.280263 -1.204566 7.000000
17.509956 -19.742750 -0.921521 27.000000
11.947424 12.744985 -0.741343 38.000000
21.220329 9.003125 -1.248409 6.000000
21.437664 -0.359225 -1.213736 7.000000
17.467825 -19.841265 -0.895410 35.000000
12.021047 12.729690 -0.758318 6.000000
21.264902 8.921477 -1.261025 4.000000
21.441038 -0.445382 -1.214018 7.000000
12.789276 -5.988213 -0.717849 44.000000
17.431665 -19.947126 -0.874155 32.000000
12.051085 12.672589 -0.775766 16.000000
18.546354 7.708712 -1.105323 6.000000
21.594152 -0.520208 -1.222779 7.000000
12.659227 -5.983989 -0.704425 5.000000
17.398453 -20.049940 -0.852803 39.000000
12.109936 12.650204 -0.789100 15.000000
18.532393 7.623369 -1.113343 6.000000
21.547188 -0.598104 -1.220235 7.000000
17.391079 -20.176220 -0.832448 44.000000
12.180849 12.622454 -0.808820 7.000000
18.374718 7.479885 -1.112636 7.000000
21.365229 -0.671429 -1.210062 7.000000
17.375462 -20.322493 -0.807572 34.000000
12.261347 12.613023 -0.826474 1.000000
21.432468 -0.752183 -1.214018 7.000000
11.372972 -5.527326 -0.616231 1.000000
17.317802 -20.398790 -0.784825 51.000000
12.427072 12.694539 -0.850191 1.000000
17.484592 6.961500 -1.071944 6.000000
21.449442 -0.839002 -1.211402 7.000000
11.285670 -5.536122 -0.605999 29.000000
17.298191 -20.527716 -0.759206 40.000000
6.690543 6.784619 -0.466027 23.000000
17.167887 6.769534 -1.064071 6.000000
21.381123 -0.911088 -1.215210 7.000000
11.189497 -5.539917 -0.595368 1.000000
17.278086 -20.649706 -0.742671 36.000000
6.663460 6.712486 -0.470861 31.000000
17.122309 6.679152 -1.069377 6.000000
21.347719 -0.988063 -1.213509 7.000000
11.316924 -5.654746 -0.594395 3.000000
17.241869 -20.745817 -0.720509 37.000000
17.157772 6.613753 -1.079586 6.000000
21.373707 -1.075265 -1.211475 7.000000
19.038113 -9.600166 -0.998045 8.000000
17.181099 -20.842339 -0.697873 20.000000
6.912690 6.864598 -0.502036 1.000000
17.123299 6.535328 -1.082467 6.000000
21.320175 -1.143464 -1.208649 7.000000
19.105644 -9.722215 -0.992197 9.000000
7.984480 -9.755128 -0.312490 51.000000
6.882836 6.780293 -0.509723 1.000000
17.155766 6.475780 -1.095859 5.000000
21.235678 -1.217004 -1.211552 7.000000
19.092558 -9.803819 -0.982116 11.000000
7.901531 -9.726300 -0.301883 26.000000
7.007271 6.852450 -0.525652 1.000000
17.176405 6.404916 -1.105159 6.000000
21.315994 -1.300008 -1.212659 7.000000
19.012602 -9.850987 -0.968618 13.000000
7.867757 -9.754102 -0.286573 32.000000
12.985175 12.614308 -0.980449 13.000000
17.325085 6.391561 -1.113283 5.000000
21.246744 -1.373965 -1.201542 7.000000
18.830887 -9.844549 -0.946328 9.000000
7.844604 -9.798673 -0.276077 23.000000
13.072306 12.601751 -1.002438 9.000000
17.661604 6.442266 -1.149849 6.000000
21.346363 -1.458992 -1.203724 8.000000
18.640472 -9.832165 -0.927507 16.000000
13.160259 12.602611 -1.021923 9.000000
17.985176 6.485701 -1.176059 6.000000
21.360369 -1.538625 -1.212323 9.000000
18.189945 -9.679912 -0.903246 173.000000
13.270834 12.615580 -1.042942 9.000000
17.956732 6.401168 -1.179336 8.000000
20.976482 -1.588275 -1.187174 10.000000
17.879160 -9.594759 -0.878827 35.000000
9.779997 -12.481863 -0.307239 8.000000
13.370770 12.617613 -1.063250 8.000000
17.937126 6.320179 -1.186516 6.000000
20.015053 -1.589279 -1.133083 9.000000
17.664557 -9.563147 -0.848922 8.000000
9.692304 -12.468260 -0.289442 5.000000
13.452673 12.602007 -1.082224 8.000000
17.907942 6.236206 -1.189710 6.000000
19.785706 -1.640588 -1.116941 27.000000
17.409487 -9.499846 -0.827770 7.000000
16.916077 -21.910547 -0.483170 32.000000
13.521605 12.578251 -1.097168 9.000000
17.958593 6.180134 -1.198218 6.000000
19.778959 -1.720000 -1.116941 58.000000
17.108801 -9.425095 -0.811851 6.000000
16.886839 -22.047167 -0.455659 29.000000
13.629823 12.577238 -1.121335 9.000000
17.843525 6.067482 -1.198957 6.000000
19.802547 -1.795203 -1.115156 15.000000
16.886852 -9.383666 -0.789436 6.000000
8.096020 -10.650664 -0.205494 6.000000
13.725912 12.581889 -1.142110 10.000000
17.774977 5.971581 -1.206017 6.000000
19.760654 -1.864452 -1.120124 25.000000
16.477909 -9.235630 -0.761988 6.000000
16.813417 -22.279779 -0.409241 25.000000
13.819721 12.566164 -1.165345 8.000000
17.796343 5.906260 -1.212562 6.000000
19.788660 -1.940295 -1.118626 69.000000
16.248692 -9.185582 -0.739889 5.000000
16.773890 -22.397663 -0.376080 26.000000
13.939165 12.581751 -1.184681 8.000000
17.774797 5.826873 -1.216187 6.000000
19.746845 -2.009294 -1.113196 21.000000
16.015379 -9.131307 -0.727561 6.000000
16.689793 -22.448259 -0.356417 10.000000
14.033566 12.587177 -1.205855 7.000000
17.672215 5.721598 -1.214237 6.000000
19.764898 -2.077374 -1.114596 28.000000
15.628646 -8.983241 -0.698808 6.000000
16.717443 -22.658426 -0.329287 29.000000
14.171817 12.617757 -1.233705 6.000000
17.725521 5.667163 -1.229512 6.000000
19.836361 -2.158421 -1.122558 9.000000
15.397092 -8.925383 -0.680581 23.000000
16.683746 -22.770424 -0.305472 26.000000
14.336784 12.670739 -1.260784 1.000000
17.607586 5.558408 -1.229621 6.000000
21.172903 -2.382406 -1.194950 9.000000
15.006465 -8.772584 -0.658655 9.000000
16.634556 -22.887102 -0.281485 16.000000
16.373880 14.364566 -1.450561 4.000000
17.656969 5.499533 -1.238070 6.000000
21.198086 -2.471451 -1.193185 9.000000
14.810944 -8.731277 -0.642458 6.000000
10.294412 -14.268305 -0.156614 9.000000
16.511990 14.378970 -1.477310 4.000000
17.624140 5.418526 -1.240832 6.000000
21.259167 -2.550056 -1.197092 10.000000
14.749159 -8.767859 -0.629173 5.000000
10.361454 -14.472726 -0.142906 7.000000
16.227528 14.027007 -1.469816 6.000000
17.547577 5.324672 -1.246920 6.000000
21.308418 -2.642774 -1.196694 9.000000
14.477204 -8.678162 -0.610074 6.000000
10.296472 -14.488544 -0.124092 4.000000
16.046932 13.768465 -1.467418 5.000000
17.600006 5.270212 -1.255708 6.000000
21.338886 -2.722219 -1.195165 10.000000
14.220511 -8.591908 -0.588904 6.000000
6.653148 -9.434933 -0.068509 10.000000
15.919465 13.562906 -1.466095 5.000000
17.609217 5.202719 -1.261436 6.000000
21.258287 -2.798707 -1.195025 9.000000
14.039912 -8.553190 -0.571227 5.000000
6.591527 -9.417174 -0.060187 1.000000
15.339530 12.972089 -1.429440 6.000000
17.790133 5.185351 -1.286024 6.000000
21.407413 -2.890591 -1.200158 10.000000
13.849721 -8.500425 -0.561793 6.000000
6.571704 -9.455442 -0.050244 1.000000
15.103350 12.677708 -1.420388 6.000000
17.966780 5.165469 -1.303974 6.000000
21.396467 -2.969005 -1.203928 7.000000
13.806053 -8.543445 -0.549941 6.000000
8.773132 -12.717381 -0.053931 9.000000
15.148948 12.621628 -1.434154 5.000000
18.181896 5.155242 -1.324835 6.000000
21.336224 -3.040394 -1.197384 18.000000
13.492207 -8.424319 -0.527665 6.000000
16.351706 -23.907906 -0.070775 33.000000
15.197979 12.568396 -1.451728 5.000000
18.363539 5.134103 -1.343379 6.000000
21.423939 -3.133053 -1.199153 9.000000
13.269843 -8.346766 -0.511831 6.000000
16.282227 -23.985575 -0.035418 35.000000
15.296914 12.556087 -1.474137 6.000000
18.473795 5.088531 -1.360089 9.000000
21.417456 -3.212326 -1.195649 15.000000
13.081710 -8.298702 -0.500386 7.000000
24.232672 -35.980572 -0.015142 46.000000
15.237463 12.414092 -1.481261 6.000000
18.559244 5.038957 -1.371758 10.000000
21.375727 -3.286220 -1.197770 10.000000
12.915443 -8.253420 -0.484359 8.000000
24.093031 -36.044151 0.030267 28.000000
15.072510 12.188064 -1.477886 6.000000
18.595930 4.975808 -1.386620 10.000000
21.413061 -3.372343 -1.196752 10.000000
12.697536 -8.186140 -0.472137 9.000000
23.916531 -36.065514 0.060423 67.000000
14.890770 11.951107 -1.469169 6.000000
18.464554 4.868204 -1.375484 6.000000
21.405691 -3.451631 -1.193243 10.000000
12.570000 -8.163054 -0.457925 8.000000
23.797562 -36.132050 0.105716 29.000000
14.816292 11.802308 -1.477499 6.000000
18.519714 4.810220 -1.395056 6.000000
21.461653 -3.541409 -1.200886 9.000000
12.389597 -8.110614 -0.447259 7.000000
23.648516 -36.193848 0.135827 34.000000
14.772409 11.679111 -1.485379 6.000000
18.421270 4.712646 -1.386330 6.000000
21.408722 -3.617171 -1.194892 10.000000
12.182012 -8.035607 -0.433127 23.000000
9.586136 -14.783941 0.073806 26.000000
14.623670 11.478791 -1.485976 6.000000
18.379454 4.630243 -1.395200 6.000000
21.350836 -3.687930 -1.196200 8.000000
12.027870 -7.997351 -0.418594 5.000000
9.523603 -14.800422 0.092153 10.000000
14.535079 11.323400 -1.485693 6.000000
18.382101 4.555921 -1.400710 6.000000
21.484877 -3.792230 -1.200662 8.000000
11.969654 -8.022064 -0.407520 5.000000
9.469444 -14.846889 0.107573 26.000000
14.626698 11.317035 -1.507458 6.000000
18.328585 4.478195 -1.405426 6.000000
21.417927 -3.853693 -1.201437 10.000000
11.791191 -7.965241 -0.397465 5.000000
9.420013 -14.872238 0.125978 1.000000
14.512825 11.136083 -1.507174 3.000000
18.258663 4.383517 -1.405295 6.000000
21.461615 -3.950561 -1.197127 35.000000
11.705695 -7.967134 -0.385625 10.000000
22.911016 -36.480843 0.345865 33.000000
14.377860 10.949029 -1.508035 4.000000
18.293058 4.320925 -1.419910 6.000000
21.549824 -4.048513 -1.206706 23.000000
11.602336 -7.959166 -0.378263 24.000000
10.904703 -17.505516 0.187184 7.000000
14.178554 10.715377 -1.495496 2.000000
18.133701 4.213172 -1.409601 6.000000
21.294792 -4.081461 -1.189459 10.000000
11.639082 -8.047267 -0.370535 7.000000
10.828542 -17.505556 0.201191 6.000000
14.176616 10.632502 -1.509862 4.000000
17.977949 4.107594 -1.409263 6.000000
20.830328 -4.064100 -1.164262 9.000000
11.662978 -8.127131 -0.364793 8.000000
10.860951 -17.702648 0.221124 2.000000
14.078348 10.478396 -1.513808 6.000000
17.968544 4.032913 -1.417000 6.000000
20.403784 -4.058565 -1.144887 9.000000
11.753280 -8.251153 -0.363500 10.000000
10.710598 -17.595079 0.237290 1.000000
13.907452 10.272202 -1.503535 6.000000
17.919436 3.952960 -1.418419 6.000000
20.144321 -4.083765 -1.127562 10.000000
12.016955 -8.502183 -0.362333 12.000000
10.493448 -17.381468 0.255153 5.000000
13.875226 10.170013 -1.517190 5.000000
17.898485 3.879600 -1.431705 5.000000
19.912270 -4.120008 -1.122609 37.000000
12.050881 -8.592637 -0.361718 14.000000
10.486543 -17.507864 0.274282 5.000000
13.858973 10.080224 -1.526435 5.000000
17.819464 3.794146 -1.430660 5.000000
19.961468 -4.202902 -1.122632 23.000000
12.047925 -8.657312 -0.352216 9.000000
10.386904 -17.479637 0.294567 7.000000
13.688801 9.879941 -1.518544 5.000000
17.739817 3.709272 -1.432713 5.000000
18.979385 -4.068828 -1.068231 197.000000
12.153863 -8.801163 -0.351013 4.000000
10.266794 -17.422602 0.310622 9.000000
13.585979 9.730193 -1.520815 6.000000
17.626240 3.614942 -1.431889 5.000000
11.820289 -8.622663 -0.337136 8.000000
10.208297 -17.462410 0.328350 18.000000
13.511155 9.608977 -1.529289 3.000000
17.442705 3.510731 -1.431551 6.000000
17.603392 -3.909025 -1.001842 9.000000
10.141631 -17.495232 0.338857 28.000000
13.317758 9.464437 -1.532912 6.000000
17.293173 3.480634 -1.456469 4.000000
11.577254 -8.513676 -0.353721 27.000000
10.124252 -17.465250 0.317131 33.000000
13.225314 9.475379 -1.517854 5.000000
17.202198 3.527975 -1.449886 3.000000
18.424339 -4.020524 -1.100550 15.000000
11.781692 -8.597659 -0.374285 5.000000
10.197982 -17.451756 0.289301 9.000000
13.356631 9.643743 -1.528271 6.000000
17.173645 3.590890 -1.451714 6.000000
18.921553 -4.056429 -1.139522 30.000000
11.739933 -8.501417 -0.387155 6.000000
10.274740 -17.436087 0.264933 7.000000
13.330531 9.706542 -1.521023 5.000000
17.189610 3.660036 -1.454188 5.000000
19.209013 -4.044473 -1.169686 9.000000
11.667742 -8.387212 -0.398866 15.000000
10.379102 -17.473454 0.241216 5.000000
13.467340 9.874663 -1.534482 6.000000
17.132252 3.713515 -1.450477 5.000000
19.511887 -4.033615 -1.190710 9.000000
11.616680 -8.286098 -0.411034 9.000000
10.429905 -17.420200 0.216173 4.000000
13.391655 9.894843 -1.521189 4.000000
17.186401 3.791255 -1.459321 6.000000
19.721161 -4.001564 -1.220202 15.000000
11.628922 -8.233735 -0.422892 11.000000
10.571349 -17.510504 0.189211 2.000000
13.479964 10.036681 -1.523558 6.000000
17.080505 3.833599 -1.445361 5.000000
20.166006 -4.014927 -1.254011 9.000000
11.634239 -8.173647 -0.431929 8.000000
10.663709 -17.524935 0.164703 3.000000
13.487541 10.119372 -1.519696 6.000000
17.017080 3.888055 -1.441246 6.000000
20.194633 -3.943732 -1.265698 10.000000
11.626844 -8.104966 -0.445405 9.000000
10.693535 -17.436598 0.142802 1.000000
13.534840 10.232605 -1.514314 6.000000
17.143230 3.983047 -1.456249 5.000000
20.076395 -3.844305 -1.260977 10.000000
11.638237 -8.052689 -0.459597 7.000000
10.823194 -17.503738 0.118532 6.000000
13.620688 10.376184 -1.519128 4.000000
17.148409 4.050552 -1.451748 6.000000
20.024406 -3.765555 -1.271200 10.000000
11.556170 -7.933430 -0.465001 10.000000
10.923952 -17.529596 0.097334 6.000000
13.582988 10.426359 -1.513151 5.000000
17.026846 4.087784 -1.442716 6.000000
19.964241 -3.678533 -1.270073 10.000000
11.733443 -7.992014 -0.485836 6.000000
22.890343 -36.447926 0.150238 39.000000
13.742721 10.629246 -1.519996 3.000000
17.133024 4.179749 -1.449902 6.000000
19.883627 -3.588378 -1.274720 10.000000
11.806521 -7.981600 -0.497667 5.000000
9.404259 -14.853098 0.042956 34.000000
13.885239 10.821044 -1.527753 3.000000
17.156033 4.255223 -1.447009 6.000000
19.798147 -3.498074 -1.271933 9.000000
11.885278 -7.971529 -0.507254 5.000000
9.447999 -14.807565 0.024525 7.000000
13.830855 10.860377 -1.510678 4.000000
17.038843 4.292510 -1.438442 6.000000
19.790951 -3.422048 -1.274176 10.000000
12.042922 -8.013423 -0.527893 30.000000
9.523975 -14.812358 0.000000 29.000000
13.963482 11.047493 -1.520185 4.000000
17.173147 4.393344 -1.444901 6.000000
19.694239 -3.331031 -1.281156 10.000000
12.109430 -7.993799 -0.539664 5.000000
9.575479 -14.773152 -0.015363 1.000000
13.954890 11.124100 -1.511129 5.000000
17.219635 4.472544 -1.450182 6.000000
19.612562 -3.243322 -1.278545 10.000000
12.291418 -8.052473 -0.561928 5.000000
23.636786 -36.189686 -0.098074 21.000000
13.996217 11.241186 -1.510589 6.000000
17.184340 4.530674 -1.442354 6.000000
19.520216 -3.154593 -1.282159 10.000000
12.471328 -8.105165 -0.579190 5.000000
14.118625 11.424879 -1.512349 5.000000
17.254519 4.616879 -1.446517 6.000000
19.560997 -3.087659 -1.287556 11.000000
12.756840 -8.224374 -0.599006 5.000000
14.058361 11.461635 -1.494447 4.000000
17.169817 4.664937 -1.434656 6.000000
19.394436 -2.988554 -1.279303 10.000000
12.777945 -8.171837 -0.614495 5.000000
14.201700 11.665408 -1.504531 6.000000
17.296743 4.767565 -1.446712 6.000000
19.365124 -2.911416 -1.286954 10.000000
13.071765 -8.295594 -0.638055 6.000000
14.190368 11.743465 -1.494936 6.000000
17.212440 4.812277 -1.434847 6.000000
19.340889 -2.835322 -1.288071 13.000000
13.423106 -8.449709 -0.662008 6.000000
14.201819 11.840911 -1.484463 4.000000
17.280996 4.899803 -1.442050 6.000000
19.222992 -2.742683 -1.282912 10.000000
13.618644 -8.503264 -0.686953 5.000000
14.273807 11.989886 -1.480199 6.000000
17.263405 4.963247 -1.435780 6.000000
19.257401 -2.675611 -1.287953 9.000000
13.899871 -8.608212 -0.710978 6.000000
8.768328 -12.719912 -0.151003 7.000000
14.412992 12.197181 -1.489311 1.000000
17.221651 5.019654 -1.427526 6.000000
19.221910 -2.598904 -1.295135 10.000000
13.994854 -8.596230 -0.722836 5.000000
6.548104 -9.428509 -0.126227 1.000000
14.418290 12.292639 -1.481195 4.000000
17.183607 5.080231 -1.419685 6.000000
19.156891 -2.518651 -1.293511 10.000000
14.194731 -8.650905 -0.749038 6.000000
6.573938 -9.392044 -0.138067 6.000000
14.631069 12.566944 -1.494228 6.000000
17.131687 5.133235 -1.413799 6.000000
19.076244 -2.436955 -1.297569 10.000000
14.307108 -8.647636 -0.764985 5.000000
6.658457 -9.442462 -0.151250 1.000000
14.695024 12.715768 -1.491862 6.000000
17.041683 5.174410 -1.401672 6.000000
19.079876 -2.366380 -1.300588 10.000000
14.432609 -8.651429 -0.778824 5.000000
10.307641 -14.509623 -0.251633 9.000000
14.795862 12.898162 -1.489660 6.000000
16.875376 5.191544 -1.383348 6.000000
17.949255 -2.159385 -1.222971 7.000000
14.729684 -8.756282 -0.811102 7.000000
10.386759 -14.508070 -0.274069 10.000000
14.794416 12.992640 -1.477018 6.000000
16.694429 5.202932 -1.370069 6.000000
17.818098 -2.077383 -1.216653 8.000000
14.987793 -8.839059 -0.832742 16.000000
10.404996 -14.426883 -0.291851 3.000000
14.964261 13.239260 -1.481276 6.000000
16.533092 5.219210 -1.352300 7.000000
17.760941 -2.004765 -1.215374 8.000000
15.071316 -8.814025 -0.847800 6.000000
16.603453 -22.844307 -0.492943 26.000000
15.090182 13.444861 -1.480645 6.000000
16.333868 5.222228 -1.331539 6.000000
17.743162 -1.936925 -1.216794 9.000000
15.491946 -8.983979 -0.879002 6.000000
16.641489 -22.729385 -0.516305 30.000000
15.227994 13.658500 -1.487835 6.000000
16.219509 5.254394 -1.314871 6.000000
17.674982 -1.867073 -1.217897 7.000000
15.655156 -9.009387 -0.902363 6.000000
16.685713 -22.615419 -0.549451 31.000000
15.140708 13.690283 -1.466758 6.000000
16.025307 5.256459 -1.294759 6.000000
17.736712 -1.801630 -1.224768 7.000000
16.059378 -9.156393 -0.936475 6.000000
16.710526 -22.484343 -0.577028 38.000000
15.515001 14.132421 -1.496981 6.000000
16.095827 5.345011 -1.302031 6.000000
17.628376 -1.725371 -1.226161 9.000000
16.309601 -9.220015 -0.962204 6.000000
16.747505 -22.362432 -0.604741 52.000000
15.361535 14.095996 -1.461549 6.000000
16.039181 5.391549 -1.287156 6.000000
17.674522 -1.664510 -1.225825 9.000000
16.656458 -9.335704 -0.990666 6.000000
16.800989 -22.271395 -0.633090 51.000000
15.326259 14.157530 -1.451674 5.000000
16.099766 5.477671 -1.290635 7.000000
17.684484 -1.606302 -1.232368 8.000000
16.915270 -9.403320 -1.017649 8.000000
16.827644 -22.137495 -0.660168 35.000000
13.613650 12.668307 -1.277542 6.000000
16.150715 5.561138 -1.290348 7.000000
17.704948 -1.542755 -1.236508 6.000000
17.202457 -9.480603 -1.050018 136.000000
8.061719 -10.529048 -0.328722 6.000000
13.440396 12.599319 -1.252687 7.000000
16.088064 5.605605 -1.283985 6.000000
18.162815 -1.515597 -1.268089 7.000000
17.425007 -9.520158 -1.071892 70.000000
16.890097 -21.892689 -0.714402 34.000000
13.360845 12.612654 -1.233261 9.000000
16.133663 5.687891 -1.283274 6.000000
18.749762 -1.495396 -1.311975 6.000000
17.560261 -9.510646 -1.088547 28.000000
9.703634 -12.487332 -0.422400 19.000000
13.257457 12.607268 -1.211939 9.000000
16.199093 5.774610 -1.278001 6.000000
18.874733 -1.432451 -1.320325 6.000000
17.661390 -9.489807 -1.106899 23.000000
9.741632 -12.450793 -0.438822 29.000000
13.146422 12.602562 -1.187250 8.000000
16.171717 5.838123 -1.268628 6.000000
18.860199 -1.355225 -1.322234 6.000000
17.579838 -9.355238 -1.109884 15.000000
9.755033 -12.369761 -0.453793 1.000000
13.072838 12.615476 -1.171640 7.000000
16.225155 5.924723 -1.274515 6.000000
18.893982 -1.294689 -1.330937 6.000000
17.597004 -9.289626 -1.119469 10.000000
12.949904 12.593233 -1.149119 3.000000
16.348969 6.037937 -1.276796 6.000000
18.829113 -1.214324 -1.329323 6.000000
17.602139 -9.202175 -1.138303 9.000000
7.822311 -9.774323 -0.386865 35.000000
6.921457 6.775626 -0.609382 1.000000
16.327145 6.097974 -1.270712 6.000000
18.857927 -1.153400 -1.331080 5.000000
17.543400 -9.097520 -1.142929 10.000000
7.882919 -9.776389 -0.401252 28.000000
6.886293 6.790807 -0.600000 1.000000
16.370619 6.182676 -1.266640 6.000000
18.886694 -1.085693 -1.336139 6.000000
17.471109 -8.975076 -1.146285 10.000000
7.910472 -9.740779 -0.411883 34.000000
6.886510 6.840988 -0.593697 1.000000
16.487612 6.296007 -1.277469 6.000000
18.865644 -1.015122 -1.334378 6.000000
17.415739 -8.873762 -1.150985 10.000000
7.964831 -9.734588 -0.426039 8.000000
16.441786 6.347654 -1.266436 6.000000
18.834532 -0.940934 -1.331912 6.000000
17.521797 -8.839385 -1.169389 9.000000
17.182365 -20.851290 -0.938792 39.000000
6.697472 6.749103 -0.564893 21.000000
16.544468 6.457073 -1.266813 5.000000
18.896940 -0.874630 -1.346044 6.000000
11.285686 -5.641599 -0.758441 1.000000
17.206966 -20.725891 -0.964224 36.000000
6.659090 6.759799 -0.553771 1.000000
16.604612 6.550776 -1.266985 6.000000
18.740570 -0.798569 -1.334688 6.000000
11.207541 -5.551286 -0.758390 19.000000
17.253195 -20.627274 -0.995469 38.000000
12.501396 12.783847 -1.027851 3.000000
16.611210 6.617121 -1.259747 6.000000
18.877926 -0.735116 -1.344270 6.000000
11.301438 -5.551200 -0.774522 1.000000
17.275517 -20.522604 -1.016475 51.000000
12.288174 12.658289 -0.998683 1.000000
16.640638 6.706368 -1.254570 6.000000
18.790777 -0.662756 -1.337882 6.000000
17.295639 -20.379892 -1.040870 40.000000
12.185493 12.640504 -0.981621 150.000000
16.706497 6.797396 -1.254901 6.000000
18.882572 -0.596708 -1.347567 6.000000
17.346600 -20.295908 -1.063002 26.000000
12.062781 12.614161 -0.960529 14.000000
16.730421 6.885536 -1.249246 6.000000
18.894787 -0.521179 -1.348279 6.000000
17.384277 -20.189693 -1.088715 36.000000
12.024896 12.658316 -0.945568 12.000000
16.783974 6.979620 -1.245584 6.000000
18.836662 -0.453779 -1.344010 6.000000
12.692684 -6.005226 -0.893266 5.000000
17.385513 -20.042097 -1.107377 38.000000
11.955004 12.677473 -0.928469 15.000000
16.817032 7.069229 -1.246844 6.000000
18.808279 -0.384125 -1.341875 5.000000
17.415287 -19.935406 -1.127976 38.000000
11.897684 12.705250 -0.909178 12.000000
16.814764 7.140908 -1.235795 6.000000
18.794601 -0.314936 -1.340808 6.000000
17.467646 -19.848047 -1.154387 39.000000
11.878772 12.778607 -0.896039 10.000000
16.775318 7.196843 -1.225225 6.000000
18.890381 -0.247289 -1.347567 6.000000
13.808377 -6.348225 -0.990785 7.000000
17.483139 -19.726379 -1.173900 18.000000
11.828995 12.818959 -0.880561 10.000000
16.822264 7.290103 -1.227383 6.000000
18.855780 -0.177717 -1.351659 6.000000
14.300716 -6.505159 -1.037999 6.000000
14.310940 -16.028421 -0.983258 29.000000
11.815158 12.893982 -0.864517 6.000000
16.846682 7.374144 -1.215009 6.000000
18.831839 -0.108465 -1.343298 6.000000
14.399363 -6.492487 -1.046359 6.000000
14.415890 -16.027336 -1.001508 18.000000
11.795205 12.967307 -0.851195 6.000000
16.874493 7.460135 -1.215744 6.000000
18.916185 -0.039618 -1.359251 6.000000
8.707428 -9.619812 -0.616442 7.000000
11.758134 13.022119 -0.836612 1.000000
16.868465 7.524440 -1.207388 6.000000
18.926424 0.023123 -1.356664 6.000000
8.705247 -9.546839 -0.625107 25.000000
11.807707 13.159904 -0.827612 1.000000
16.876036 7.595015 -1.196752 6.000000
18.996508 0.092835 -1.355038 6.000000
15.549232 -6.812693 -1.148392 1.000000
8.766910 -9.543967 -0.636088 25.000000
11.902620 13.363903 -0.825172 1.000000
16.868309 7.673114 -1.195131 6.000000
18.875847 0.164727 -1.353089 6.000000
10.443132 -4.529971 -0.780028 1.000000
8.765726 -9.476070 -0.649408 209.000000
11.854218 13.408185 -0.803307 2.000000
16.798363 7.708630 -1.175784 3.000000
18.915565 0.227807 -1.349346 6.000000
10.408996 -4.469906 -0.780222 12.000000
14.876613 -15.964383 -1.116882 226.000000
11.847257 13.494946 -0.793461 1.000000
16.806400 7.787015 -1.175091 1.000000
18.934074 0.297440 -1.357379 6.000000
10.392798 -4.417905 -0.783730 1.000000
14.934216 -15.908888 -1.139732 154.000000
11.850675 13.599051 -0.781252 1.000000
19.381832 9.066742 -1.346229 5.000000
18.912785 0.373050 -1.355949 6.000000
10.541868 -4.435724 -0.799758 1.000000
15.273045 -16.150791 -1.180517 55.000000
11.736004 13.567543 -0.755008 1.000000
19.395752 9.168330 -1.334705 5.000000
18.906305 0.442250 -1.355592 6.000000
15.562741 -16.342489 -1.218243 8.000000
11.802839 13.741460 -0.749721 1.000000
19.205009 9.164434 -1.312697 6.000000
18.939453 0.512487 -1.358094 6.000000
17.069920 -17.794130 -1.352691 17.000000
11.762706 13.796721 -0.728191 2.000000
19.368292 9.321329 -1.318432 6.000000
19.052441 0.582105 -1.362989 6.000000
13.057931 -13.512441 -1.047281 7.000000
11.826283 13.959885 -0.718847 4.000000
19.406647 9.427547 -1.308267 6.000000
19.010303 0.650567 -1.360136 6.000000
12.190574 -4.920362 -0.944631 40.000000
13.155359 -13.527952 -1.068200 7.000000
11.847690 14.099525 -0.707487 1.000000
19.547344 9.584607 -1.308671 6.000000
19.052647 0.721938 -1.363346 6.000000
12.240330 -4.888350 -0.956341 7.000000
25.401842 30.434195 -1.488251 34.000000
19.637949 9.718476 -1.305599 6.000000
19.044889 0.791558 -1.362989 6.000000
16.901419 -17.115156 -1.407997 8.000000
25.196701 30.425129 -1.434736 31.000000
19.726522 9.856785 -1.294683 6.000000
19.072161 0.869397 -1.355133 6.000000
17.089886 -17.179604 -1.439662 9.000000
25.060265 30.487162 -1.405733 28.000000
19.787539 9.969410 -1.296970 6.000000
19.068699 0.932615 -1.361797 6.000000
13.623482 -5.265061 -1.075123 8.000000
17.025227 -16.995539 -1.450277 32.000000
24.898748 30.485403 -1.367647 38.000000
20.027542 10.182537 -1.299400 6.000000
19.129900 1.005904 -1.366422 7.000000
13.777231 -5.266524 -1.093490 6.000000
17.090044 -16.935638 -1.471575 8.000000
24.783356 30.593975 -1.326764 36.000000
20.212759 10.370115 -1.301939 6.000000
19.091278 1.077396 -1.360594 6.000000
13.623515 -5.150615 -1.084896 8.000000
17.296940 -17.015467 -1.505264 9.000000
24.598036 30.571928 -1.281127 31.000000
20.170786 10.442147 -1.289761 6.000000
19.231571 1.156040 -1.370885 7.000000
13.459629 -5.032349 -1.077935 34.000000
12.909791 -12.606938 -1.135253 1.000000
24.456484 30.636108 -1.231930 29.000000
20.455986 10.685041 -1.298370 6.000000
19.282198 1.230028 -1.371417 7.000000
13.421512 -4.962105 -1.078442 61.000000
12.949420 -12.557628 -1.150680 3.000000
24.308842 30.659130 -1.195430 33.000000
20.430733 10.767346 -1.283090 6.000000
19.327322 1.304050 -1.374957 7.000000
13.570189 -4.960613 -1.096529 28.000000
12.951495 -12.467857 -1.162549 1.000000
24.137514 30.662296 -1.151359 38.000000
20.687061 10.999506 -1.289406 6.000000
19.451998 1.384100 -1.380758 7.000000
13.564476 -4.902240 -1.099672 47.000000
24.062504 30.798601 -1.119022 38.000000
20.651598 11.077931 -1.277410 6.000000
19.372190 1.449802 -1.375461 8.000000
13.511387 -4.827137 -1.101483 161.000000
12.917327 -12.262370 -1.182989 7.000000
23.854460 30.752985 -1.073543 31.000000
20.905838 11.313177 -1.279049 6.000000
19.267540 1.513005 -1.365025 7.000000
13.646142 -4.818954 -1.116103 13.000000
12.664246 -11.925838 -1.170666 2.000000
23.775576 30.884363 -1.047850 28.000000
20.913023 11.416360 -1.269529 6.000000
19.246677 1.585747 -1.363968 9.000000
13.715118 -4.786848 -1.125402 28.000000
12.679045 -11.864841 -1.183806 8.000000
14.665456 19.202448 -0.615829 29.000000
21.044605 11.583724 -1.258941 7.000000
19.370174 1.667421 -1.369734 9.000000
13.684886 -4.720100 -1.129120 255.000000
12.462593 -11.568801 -1.174160 16.000000
23.437536 30.900204 -0.954615 33.000000
21.343287 11.850263 -1.262310 7.000000
19.264814 1.729507 -1.359330 8.000000
13.825216 -4.709180 -1.144328 19.000000
12.445466 -11.468268 -1.183419 10.000000
23.322309 30.994745 -0.914119 32.000000
21.317707 11.948267 -1.255070 7.000000
19.268278 1.801033 -1.360031 8.000000
13.837279 -4.656759 -1.149033 161.000000
12.519770 -11.452171 -1.201365 3.000000
23.196020 31.040630 -0.872598 28.000000
21.670231 12.240462 -1.256432 6.000000
19.321829 1.877500 -1.354073 9.000000
13.778195 -4.580725 -1.147825 26.000000
12.579339 -11.422260 -1.217959 1.000000
23.251781 31.342821 -0.844733 9.000000
21.885941 12.468337 -1.262766 5.000000
19.299694 1.946780 -1.356415 7.000000
13.841673 -4.545557 -1.159394 10.000000
12.435270 -11.208563 -1.211772 4.000000
23.348537 31.738720 -0.804710 10.000000
21.905928 12.596467 -1.244720 6.000000
19.377234 2.026372 -1.355543 8.000000
13.554434 -4.396257 -1.138983 105.000000
12.518114 -11.204286 -1.230765 6.000000
23.485090 32.135353 -0.778144 16.000000
22.046270 12.774636 -1.237264 7.000000
19.384789 2.099016 -1.353181 7.000000
13.536850 -4.335785 -1.141156 244.000000
12.420367 -11.035073 -1.231748 7.000000
23.608278 32.553707 -0.744047 10.000000
22.230659 12.985345 -1.236636 6.000000
19.391691 2.175127 -1.350814 7.000000
13.542768 -4.283015 -1.145314 139.000000
12.392610 -10.929399 -1.239514 7.000000
23.740362 32.977444 -0.702174 10.000000
22.416035 13.204054 -1.231428 7.000000
19.523350 2.255476 -1.357052 7.000000
13.511537 -4.216137 -1.141295 255.000000
12.315785 -10.789251 -1.236866 6.000000
23.837706 33.357616 -0.665546 12.000000
22.668627 13.464996 -1.234171 6.000000
19.475563 2.322320 -1.350874 7.000000
13.521754 -4.165002 -1.145832 36.000000
12.399573 -10.774985 -1.255345 7.000000
23.871769 33.665447 -0.633914 10.000000
22.906944 13.720385 -1.231194 4.000000
19.511478 2.399165 -1.353966 7.000000
13.626945 -4.142780 -1.160958 21.000000
12.317582 -10.632252 -1.254894 7.000000
24.010582 34.112953 -0.597064 10.000000
22.805925 13.773705 -1.209831 5.000000
19.537430 2.475080 -1.352934 7.000000
13.870561 -4.161368 -1.188039 109.000000
12.264330 -10.500668 -1.265009 7.000000
24.237839 34.705387 -0.561536 10.000000
23.071884 14.049996 -1.203042 7.000000
19.488888 2.541542 -1.346762 8.000000
14.110098 -4.176923 -1.209822 255.000000
12.233860 -10.397112 -1.266386 6.000000
24.321949 35.086090 -0.521605 11.000000
23.295877 14.298112 -1.198197 7.000000
19.415403 2.604365 -1.338899 7.000000
14.172738 -4.139030 -1.219073 255.000000
12.248178 -10.332204 -1.278011 7.000000
24.652477 35.842766 -0.485945 30.000000
23.328976 14.436409 -1.183424 7.000000
19.653507 2.709671 -1.345559 7.000000
14.254438 -4.106248 -1.230011 31.000000
12.149758 -10.176804 -1.275163 7.000000
24.618956 36.035973 -0.449424 11.000000
23.578239 14.699011 -1.183960 7.000000
19.653070 2.786548 -1.342771 7.000000
14.335579 -4.075483 -1.238397 255.000000
12.096222 -10.060322 -1.279670 7.000000
24.690281 36.453686 -0.399598 12.000000
23.498596 14.780679 -1.163515 7.000000
19.657764 2.860750 -1.340317 7.000000
14.274636 -3.996294 -1.236947 30.000000
12.022985 -9.928618 -1.279207 7.000000
24.856020 36.975719 -0.349931 20.000000
23.592609 14.960776 -1.151340 9.000000
19.676981 2.937234 -1.338864 7.000000
14.903981 -4.113637 -1.290166 81.000000
12.023500 -9.848132 -1.285969 7.000000
24.713114 37.041744 -0.303104 27.000000
23.465137 14.995044 -1.128194 9.000000
19.705767 3.015406 -1.338070 7.000000
15.005064 -4.082410 -1.303079 21.000000
11.946695 -9.712278 -1.284761 7.000000
24.731884 37.365803 -0.258086 12.000000
23.356077 15.046196 -1.106166 9.000000
19.832815 3.109282 -1.343942 7.000000
15.072422 -4.041463 -1.313119 9.000000
11.985212 -9.670848 -1.298617 7.000000
24.829281 37.798969 -0.213117 12.000000
23.179901 15.053205 -1.081103 9.000000
19.806740 3.179617 -1.339439 7.000000
15.283480 -4.040923 -1.335827 9.000000
11.923026 -9.555563 -1.301868 7.000000
25.082312 38.476189 -0.160326 13.000000
23.162977 15.163203 -1.058702 7.000000
19.741716 3.243445 -1.321808 7.000000
15.235510 -3.968553 -1.330353 7.000000
11.996242 -9.542242 -1.316815 7.000000
25.416344 39.302727 -0.114366 28.000000
23.089663 15.230610 -1.038437 7.000000
19.788965 3.325741 -1.322261 7.000000
15.414500 -3.949169 -1.355777 8.000000
11.955508 -9.431731 -1.318887 7.000000
25.405968 39.589062 -0.065680 14.000000
23.263426 15.467891 -1.019499 7.000000
19.993683 3.435543 -1.326105 7.000000
15.612666 -3.939016 -1.369097 8.000000
11.958077 -9.362856 -1.323388 7.000000
25.531908 40.107956 -0.016596 14.000000
23.377346 15.667500 -1.007329 7.000000
19.936501 3.500994 -1.326702 7.000000
15.852400 -3.943632 -1.394708 8.000000
11.913438 -9.264344 -1.328312 4.000000
25.514576 40.391277 0.041692 8.000000
23.519093 15.887730 -0.996099 7.000000
20.081371 3.602355 -1.326485 7.000000
16.123415 -3.945374 -1.423046 9.000000
11.942635 -9.217006 -1.338405 7.000000
25.739859 41.064690 0.084587 4.000000
23.744970 16.161308 -0.987972 7.000000
20.033678 3.669640 -1.324214 7.000000
16.196762 -3.894479 -1.433986 10.000000
11.867874 -9.083526 -1.339076 6.000000
25.924377 41.697906 0.145682 4.000000
23.883934 16.384304 -0.976002 7.000000
20.088783 3.759513 -1.318055 7.000000
16.223885 -3.844134 -1.438182 24.000000
11.742573 -8.926025 -1.331971 6.000000
24.432909 16.892923 -0.969819 7.000000
20.138809 3.845326 -1.318660 7.000000
16.368856 -3.815176 -1.449784 9.000000
11.635517 -8.777547 -1.323864 18.000000
26.251026 42.888172 0.263290 16.000000
25.169867 17.532631 -0.980057 7.000000
20.208292 3.935415 -1.316929 7.000000
16.421328 -3.764003 -1.456162 8.000000
11.562267 -8.649681 -1.321733 37.000000
26.388906 43.436272 0.310470 16.000000
25.238834 17.705265 -0.968865 7.000000
20.244753 4.012241 -1.309314 7.000000
16.367126 -3.685490 -1.455991 7.000000
11.510211 -8.551354 -1.322629 36.000000
26.603424 44.135826 0.377768 17.000000
26.594713 18.802246 -0.989413 3.000000
20.210571 4.082508 -1.304450 7.000000
16.380526 -3.625477 -1.455991 8.000000
11.530379 -8.497823 -1.328751 7.000000
26.862127 44.918919 0.438477 17.000000
26.718369 19.043959 -0.968068 8.000000
20.419281 4.210050 -1.311694 7.000000
16.330179 -3.551599 -1.453287 8.000000
11.538754 -8.441999 -1.341414 6.000000
27.043865 45.601433 0.508948 18.000000
27.529785 19.774874 -0.976403 6.000000
20.511824 4.307566 -1.307627 7.000000
16.362074 -3.495779 -1.460860 8.000000
11.546341 -8.379675 -1.346082 10.000000
27.178577 19.674009 -0.931334 5.000000
20.515865 4.386986 -1.301549 7.000000
16.364777 -3.433687 -1.462909 8.000000
11.531781 -8.304750 -1.350837 10.000000
31.003010 22.591209 -1.044712 1.000000
20.540882 4.463617 -1.293020 8.000000
16.353449 -3.365805 -1.460730 8.000000
11.569665 -8.267805 -1.359229 8.000000
33.051514 24.287634 -1.081199 3.000000
20.539442 4.542203 -1.286598 8.000000
16.370306 -3.306780 -1.464081 8.000000
11.570693 -8.204641 -1.365802 9.000000
32.814690 24.281593 -1.047562 8.000000
20.639730 4.643795 -1.290231 9.000000
16.391836 -3.248644 -1.467871 8.000000
11.620255 -8.175945 -1.378118 9.000000
28.267490 49.638676 0.887389 2.000000
32.794857 24.444532 -0.999643 3.000000
20.735344 4.745219 -1.282382 9.000000
16.403631 -3.188543 -1.467871 7.000000
11.600586 -8.098702 -1.379733 6.000000
28.371412 50.228088 0.956576 7.000000
30.615408 22.995054 -0.902339 1.000000
20.737909 4.825863 -1.272437 9.000000
16.401329 -3.122788 -1.463644 7.000000
11.601160 -8.036020 -1.381262 7.000000
28.758131 51.351337 1.047881 3.000000
30.615358 23.171019 -0.864606 1.000000
20.706369 4.898594 -1.256688 10.000000
16.471418 -3.073617 -1.468884 8.000000
11.617636 -7.984580 -1.387183 6.000000
29.340176 52.822311 1.160197 4.000000
20.756857 4.990944 -1.249637 17.000000
16.448528 -3.007001 -1.462909 8.000000
11.717501 -7.987145 -1.402932 6.000000
21.376083 16.296005 -0.553654 7.000000
20.889162 5.022757 -1.235028 9.000000
16.616632 -3.037733 -1.460037 9.000000
11.784295 -8.032675 -1.398363 6.000000
20.981789 4.959885 -1.228044 10.000000
16.650709 -3.107073 -1.449131 7.000000
11.641319 -7.997866 -1.367447 9.000000
28.282036 50.069859 1.053958 6.000000
21.233212 4.937217 -1.241692 10.000000
16.766640 -3.195375 -1.451276 8.000000
11.596537 -8.029823 -1.353211 6.000000
21.260473 4.861489 -1.249873 11.000000
16.760452 -3.257902 -1.442760 8.000000
11.547773 -8.058835 -1.336078 38.000000
30.916632 22.868753 -0.859245 1.000000
21.356287 4.801098 -1.250630 9.000000
16.836617 -3.336794 -1.447342 7.000000
11.584066 -8.147461 -1.333747 9.000000
30.967386 22.731169 -0.891875 1.000000
21.475670 4.745314 -1.264297 9.000000
16.839911 -3.401639 -1.436609 7.000000
11.571131 -8.201916 -1.325721 9.000000
21.376059 4.641197 -1.253592 9.000000
16.900784 -3.478456 -1.439847 7.000000
11.635294 -8.311636 -1.321450 10.000000
21.348558 4.553356 -1.258637 7.000000
16.863651 -3.538362 -1.428746 7.000000
11.561417 -8.323030 -1.301472 10.000000
27.040789 45.578110 0.656751 17.000000
21.379547 4.478104 -1.263313 7.000000
16.929026 -3.616909 -1.429315 8.000000
11.563810 -8.389272 -1.295137 6.000000
26.815100 44.840279 0.601863 17.000000
33.816193 24.076359 -1.058017 8.000000
21.415373 4.403736 -1.264468 7.000000
17.018156 -3.701225 -1.434915 6.000000
11.581954 -8.467400 -1.290539 6.000000
26.579403 44.078568 0.539035 16.000000
33.895744 23.946272 -1.072249 6.000000
21.358189 4.310446 -1.256335 7.000000
16.995718 -3.761636 -1.421942 7.000000
11.547915 -8.507636 -1.275071 33.000000
26.367243 43.383549 0.478489 16.000000
21.334457 4.224337 -1.257828 7.000000
17.001503 -3.828336 -1.420529 7.000000
11.541361 -8.568246 -1.267693 34.000000
26.236343 42.813824 0.420675 13.000000
21.177864 4.112724 -1.255255 7.000000
16.996876 -3.895927 -1.415254 8.000000
11.558446 -8.646822 -1.262887 10.000000
28.006273 19.334667 -0.938713 3.000000
21.159388 4.024888 -1.249462 7.000000
16.861858 -3.930083 -1.396077 7.000000
11.635128 -8.770882 -1.259395 6.000000
25.832169 41.501114 0.315683 6.000000
27.875149 19.100807 -0.955687 8.000000
21.276398 3.966398 -1.266876 7.000000
16.682924 -3.952901 -1.376429 6.000000
11.754347 -8.928503 -1.265452 6.000000
25.633450 40.847382 0.260921 3.000000
27.808014 18.905403 -0.974497 7.000000
21.408638 3.909911 -1.273888 7.000000
16.402056 -3.949898 -1.351478 7.000000
11.845059 -9.066063 -1.265675 6.000000
25.580919 40.449379 0.208828 14.000000
25.819502 17.428591 -0.924549 7.000000
21.285028 3.806775 -1.269481 7.000000
16.146307 -3.950976 -1.319911 8.000000
11.883466 -9.164724 -1.262807 5.000000
25.431829 39.904602 0.165178 14.000000
25.704376 17.214079 -0.928969 7.000000
21.185974 3.708976 -1.258987 7.000000
16.005701 -3.981769 -1.303863 9.000000
11.980673 -9.309919 -1.260755 6.000000
25.310431 39.394791 0.114415 22.000000
25.214666 16.739899 -0.935271 7.000000
21.292683 3.647275 -1.268309 7.000000
15.996053 -4.041683 -1.301378 9.000000
11.896154 -9.314372 -1.244825 6.000000
25.407082 39.243324 0.065275 14.000000
25.047184 16.503035 -0.942637 7.000000
21.088873 3.532851 -1.262879 7.000000
15.971914 -4.097919 -1.294835 39.000000
11.960596 -9.435745 -1.241795 5.000000
24.938639 38.212048 0.015928 13.000000
24.805761 16.213892 -0.952018 7.000000
21.219677 3.474855 -1.273706 6.000000
15.865570 -4.132671 -1.281676 23.000000
11.942214 -9.492462 -1.232770 5.000000
24.805948 37.749084 -0.023651 12.000000
24.645033 15.992444 -0.964341 7.000000
21.196363 3.398902 -1.275383 7.000000
15.219419 -4.023985 -1.225132 87.000000
11.869275 -9.505682 -1.215473 6.000000
24.699345 37.274220 -0.078042 12.000000
24.246151 15.595649 -0.966424 7.000000
21.071539 3.292180 -1.270803 7.000000
12.005691 -9.687371 -1.222232 5.000000
24.697861 37.004890 -0.116474 27.000000
24.244061 15.486843 -0.979477 7.000000
21.136395 3.230548 -1.277806 7.000000
14.328835 -3.903802 -1.142730 101.000000
11.939984 -9.706822 -1.205645 5.000000
24.757061 36.814629 -0.154863 18.000000
24.139973 15.296062 -0.982988 7.000000
21.034334 3.136096 -1.274658 7.000000
14.189878 -3.921870 -1.127617 101.000000
12.024851 -9.849238 -1.201475 5.000000
24.710873 36.429291 -0.199756 12.000000
24.026947 15.089612 -1.000701 8.000000
21.140285 3.068963 -1.276613 7.000000
14.233393 -3.990107 -1.127040 255.000000
12.050839 -9.944548 -1.196733 6.000000
24.531837 35.921909 -0.235356 19.000000
24.212095 15.094166 -1.021280 7.000000
21.086926 2.982342 -1.276453 7.000000
14.300575 -4.065532 -1.128312 160.000000
12.099451 -10.059435 -1.191403 2.000000
24.638784 35.769352 -0.288070 33.000000
24.220871 14.964956 -1.039010 8.000000
21.018387 2.894111 -1.275369 7.000000
14.300327 -4.122170 -1.124253 233.000000
12.292471 -10.296342 -1.202859 7.000000
24.198174 34.894524 -0.311282 10.000000
24.378832 14.945221 -1.063532 9.000000
20.939590 2.805098 -1.273656 7.000000
14.194941 -4.148202 -1.106772 98.000000
12.339446 -10.412882 -1.194181 5.000000
24.150953 34.555275 -0.360553 15.000000
24.521681 14.921143 -1.082650 8.000000
21.073236 2.744416 -1.284888 7.000000
14.117492 -4.181792 -1.101921 60.000000
12.343461 -10.493970 -1.189754 4.000000
24.009295 34.098480 -0.393055 18.000000
24.644327 14.872275 -1.095713 9.000000
21.107687 2.670264 -1.290110 7.000000
14.116392 -4.240492 -1.092751 195.000000
12.228300 -10.469819 -1.162398 6.000000
23.861923 33.626682 -0.424608 10.000000
24.552246 14.694218 -1.109223 7.000000
21.013084 2.580082 -1.287449 7.000000
14.134510 -4.302478 -1.090181 26.000000
12.231997 -10.550927 -1.155082 6.000000
23.772444 33.254021 -0.463759 12.000000
24.553877 14.573230 -1.121849 7.000000
20.937929 2.492991 -1.285970 7.000000
13.661560 -4.213287 -1.049870 255.000000
12.397296 -10.773006 -1.160007 3.000000
23.648386 32.825512 -0.501361 11.000000
24.389366 14.349239 -1.131594 7.000000
20.996950 2.422003 -1.281636 7.000000
13.912923 -4.346715 -1.065288 139.000000
12.283424 -10.753325 -1.138715 4.000000
23.556948 32.459080 -0.539024 12.000000
24.462187 14.283095 -1.147624 7.000000
20.886425 2.331715 -1.278041 7.000000
13.849707 -4.382747 -1.056573 73.000000
12.446541 -10.976962 -1.145917 4.000000
23.453754 32.057232 -0.575445 10.000000
24.246197 14.026774 -1.154429 7.000000
20.874760 2.252980 -1.280492 7.000000
13.848148 -4.438157 -1.052585 23.000000
12.414426 -11.029795 -1.132115 1.000000
23.357977 31.705158 -0.604886 10.000000
24.066763 13.816654 -1.158253 5.000000
20.887999 2.173304 -1.284461 7.000000
14.149954 -4.592139 -1.071577 101.000000
12.437840 -11.132436 -1.123329 5.000000
23.217358 31.273598 -0.639071 9.000000
24.016682 13.671109 -1.172750 7.000000
20.895599 2.096709 -1.288127 7.000000
14.000719 -4.600494 -1.056375 7.000000
12.581067 -11.339976 -1.127956 3.000000
23.185318 31.003736 -0.669000 29.000000
23.574501 13.305241 -1.162969 3.000000
20.903145 2.020108 -1.288127 7.000000
13.785696 -4.585891 -1.031218 8.000000
12.495818 -11.346422 -1.109240 7.000000
23.322508 30.950010 -0.703511 32.000000
23.703175 13.258117 -1.185793 4.000000
20.850555 1.937918 -1.288108 7.000000
13.952830 -4.701069 -1.037315 169.000000
12.499180 -11.433337 -1.095436 32.000000
23.478224 30.931417 -0.752406 26.000000
23.501879 13.043395 -1.187653 5.000000
20.772791 1.853922 -1.286529 8.000000
13.992499 -4.771613 -1.036371 9.000000
12.465224 -11.486476 -1.081290 17.000000
14.638100 19.138916 -0.487891 30.000000
23.233704 12.783400 -1.190276 6.000000
20.789389 1.778624 -1.287145 7.000000
13.937538 -4.809966 -1.028427 50.000000
12.504189 -11.607413 -1.073404 6.000000
23.777351 30.864376 -0.829726 32.000000
23.336853 12.728951 -1.207109 5.000000
20.830362 1.705247 -1.292948 8.000000
13.614059 -4.754242 -1.000780 58.000000
12.564301 -11.749241 -1.067183 4.000000
23.914476 30.808146 -0.857805 37.000000
22.925972 12.385686 -1.192389 6.000000
20.911552 1.634758 -1.290257 9.000000
13.648771 -4.822563 -0.997008 90.000000
12.716449 -11.974998 -1.068349 6.000000
24.064314 30.778763 -0.907078 34.000000
23.018818 12.337409 -1.217924 6.000000
20.931656 1.559164 -1.302168 8.000000
13.598450 -4.860919 -0.989562 61.000000
12.894019 -12.231690 -1.071460 7.000000
24.194920 30.713156 -0.948719 35.000000
22.750158 12.086289 -1.214875 5.000000
20.698290 1.465518 -1.287307 8.000000
13.515191 -4.887095 -0.979760 124.000000
12.936375 -12.362267 -1.063067 1.000000
24.351166 30.690500 -0.984848 29.000000
22.333965 11.760423 -1.208002 7.000000
20.783205 1.391349 -1.295897 7.000000
13.605425 -4.976186 -0.979997 69.000000
12.761924 -12.285365 -1.043116 3.000000
24.494041 30.639259 -1.027183 29.000000
22.239107 11.606562 -1.213727 7.000000
20.818048 1.317056 -1.297759 7.000000
13.465763 -4.981137 -0.966211 20.000000
12.807173 -12.419685 -1.031783 2.000000
24.644039 30.607224 -1.070166 31.000000
22.145855 11.459713 -1.219535 7.000000
20.792620 1.238951 -1.299532 7.000000
13.387145 -5.007912 -0.954363 7.000000
12.896399 -12.593861 -1.029880 7.000000
24.821705 30.597618 -1.100531 38.000000
22.182692 11.375896 -1.232343 7.000000
20.622635 1.152984 -1.288635 7.000000
17.167397 -6.493867 -1.219108 8.000000
17.160650 -16.881395 -1.350058 10.000000
24.923574 30.494070 -1.134482 39.000000
22.014233 11.187789 -1.237981 7.000000
20.651413 1.078681 -1.293801 7.000000
17.139412 -6.555190 -1.209169 9.000000
17.103039 -16.948515 -1.329326 19.000000
25.057554 30.440517 -1.183948 37.000000
21.880569 11.019137 -1.241045 7.000000
20.600050 1.007511 -1.290367 8.000000
17.078438 -6.603723 -1.200147 21.000000
17.006283 -16.976627 -1.305601 18.000000
25.212812 30.401356 -1.227409 30.000000
21.732567 10.844932 -1.243138 6.000000
20.693338 0.936060 -1.295987 7.000000
17.161585 -6.708281 -1.198021 8.000000
13.074358 -13.142995 -0.991031 7.000000
25.491081 30.519451 -1.270498 14.000000
21.498154 10.629718 -1.248477 6.000000
20.606503 0.849257 -1.301166 7.000000
17.321301 -6.847499 -1.210997 62.000000
13.047630 -13.212631 -0.979669 6.000000
25.724312 30.570253 -1.311432 10.000000
21.657843 10.610067 -1.259704 4.000000
20.684593 0.780160 -1.298663 7.000000
12.206486 -4.872364 -0.843009 67.000000
