VERSION .7
FIELDS x y z intensity
SIZE 4 4 4 4
TYPE F F F F
COUNT 1 1 1 1
WIDTH 1237
HEIGHT 1
VIEWPOINT 0 0 0 1 0 0 0
POINTS 1237
DATA ascii
5.449348 0.126518 -0.611407 27.000000
6.882548 -7.313806 -0.802746 34.000000
16.525738 19.138496 -1.728261 7.000000
5.444068 0.147312 -0.608949 25.000000
6.977862 -2.886046 -0.814984 1.000000
6.953494 -7.335142 -0.814981 39.000000
16.356009 19.082882 -1.691373 7.000000
5.428697 0.166810 -0.606334 31.000000
7.038601 -2.881002 -0.824868 1.000000
7.033420 -7.367773 -0.833856 224.000000
16.303259 19.163040 -1.666705 7.000000
5.447914 0.187389 -0.608553 26.000000
7.094783 -2.873683 -0.834267 1.000000
7.177201 -7.463428 -0.858570 8.000000
16.143827 19.110405 -1.635290 7.000000
5.441977 0.208108 -0.609899 29.000000
7.128428 -2.855498 -0.840997 1.000000
16.013855 19.098103 -1.602995 7.000000
5.441257 0.226154 -0.609899 27.000000
7.263916 -2.890663 -0.858967 1.000000
7.185045 -7.370506 -0.871578 125.000000
15.868337 19.059294 -1.569002 6.000000
5.450339 0.248452 -0.610060 20.000000
7.133621 -7.259226 -0.872534 255.000000
15.773979 19.087807 -1.540546 7.000000
5.449345 0.269378 -0.610060 24.000000
7.107073 -7.179384 -0.874944 21.000000
15.619629 19.035961 -1.506068 7.000000
5.458564 0.289893 -0.608309 31.000000
7.132689 -7.152635 -0.885522 25.000000
15.522376 19.059465 -1.477580 7.000000
5.462535 0.308272 -0.608862 15.000000
7.188825 -7.158775 -0.898306 20.000000
15.400225 19.044865 -1.446532 6.000000
5.461195 0.331151 -0.608862 18.000000
7.306539 -7.222855 -0.918738 35.000000
15.259398 19.012815 -1.414224 7.000000
5.469879 0.349887 -0.610925 17.000000
7.232756 -7.097691 -0.916881 11.000000
15.203034 19.078636 -1.393804 6.000000
5.468643 0.371856 -0.609012 17.000000
15.016224 18.986570 -1.357617 6.000000
5.467349 0.391904 -0.608055 19.000000
14.917186 18.990438 -1.324755 6.000000
5.471009 0.411367 -0.607649 10.000000
14.799106 18.989767 -1.291234 7.000000
5.479222 0.434111 -0.608749 10.000000
14.678278 18.970934 -1.269669 6.000000
5.492717 0.453514 -0.609439 9.000000
7.964010 -2.823333 -0.968693 1.000000
14.630739 19.053375 -1.246363 6.000000
5.490769 0.476518 -0.609439 9.000000
8.058366 -2.823579 -0.981924 1.000000
16.415119 -15.420217 -2.156718 7.000000
14.480155 18.994164 -1.214099 6.000000
5.509063 0.496517 -0.610671 9.000000
8.030624 -2.780853 -0.981804 1.000000
16.419598 -15.316881 -2.177957 6.000000
14.323823 18.932619 -1.181877 7.000000
5.517209 0.517644 -0.610802 9.000000
16.419458 -15.204586 -2.190246 6.000000
14.246509 18.967672 -1.151902 7.000000
5.534966 0.540758 -0.612993 9.000000
9.084875 -8.351045 -1.218643 25.000000
14.145425 18.963724 -1.123975 7.000000
5.513274 0.559046 -0.609834 8.000000
9.081714 -8.286932 -1.222804 11.000000
13.978241 18.890509 -1.087672 9.000000
5.575551 0.586014 -0.615966 9.000000
13.883544 18.893242 -1.064669 9.000000
5.613215 0.610782 -0.617378 8.000000
7.810032 -2.542155 -0.966300 13.000000
13.785169 18.911119 -1.034038 9.000000
5.625539 0.633988 -0.619997 8.000000
7.814248 -2.511890 -0.968581 1.000000
7.258702 -6.478639 -0.993425 13.000000
13.658933 18.862144 -1.004574 8.000000
5.652907 0.658063 -0.622270 8.000000
11.547680 -3.665358 -1.433956 1.000000
7.266856 -6.438221 -0.999866 10.000000
13.575739 18.892639 -0.979135 6.000000
5.650457 0.678778 -0.622270 9.000000
11.554556 -3.625408 -1.437596 1.000000
7.311030 -6.431946 -1.011438 12.000000
13.495791 18.920403 -0.953747 6.000000
5.677852 0.703189 -0.622535 9.000000
11.555169 -3.572503 -1.437938 1.000000
7.333888 -6.404523 -1.019935 9.000000
13.377855 18.901217 -0.926013 1.000000
4.611574 2.795069 -0.434817 1.000000
5.690009 0.726888 -0.623156 9.000000
11.529236 -3.518241 -1.441632 1.000000
7.371665 -6.390042 -1.030532 11.000000
5.712057 0.750992 -0.624851 9.000000
11.513530 -3.467371 -1.438069 1.000000
7.443347 -6.404549 -1.045930 11.000000
24.121521 34.590252 -1.583166 6.000000
5.743857 0.776600 -0.627613 8.000000
11.526278 -3.422994 -1.442267 1.000000
7.481194 -6.389544 -1.056635 11.000000
24.128979 34.872673 -1.554976 1.000000
5.780330 0.804144 -0.630901 8.000000
11.518028 -3.379021 -1.444075 1.000000
7.537983 -6.390412 -1.070064 21.000000
5.875876 0.839400 -0.640612 6.000000
11.511696 -3.327034 -1.447960 4.000000
7.598668 -6.394141 -1.084113 18.000000
24.038990 35.266277 -1.460587 1.000000
11.499129 -3.279953 -1.447048 4.000000
7.634648 -6.381292 -1.091494 14.000000
23.840427 35.251907 -1.411747 7.000000
20.350542 2.968823 -2.216020 1.000000
11.510344 -3.237580 -1.453309 5.000000
7.680050 -6.371572 -1.105216 10.000000
23.854513 35.539444 -1.375048 5.000000
20.522589 3.070784 -2.224975 3.000000
11.512077 -3.192582 -1.456273 7.000000
7.744950 -6.377636 -1.118275 17.000000
29.765694 44.682442 -1.668488 159.000000
20.736349 3.191629 -2.242172 2.000000
11.505157 -3.140981 -1.458016 5.000000
7.792819 -6.364733 -1.130379 17.000000
29.611250 44.805649 -1.593967 28.000000
20.622896 3.244211 -2.227371 7.000000
11.506467 -3.098220 -1.456802 8.000000
7.857779 -6.369919 -1.145347 16.000000
20.061911 30.587854 -1.047330 9.000000
20.650522 3.326164 -2.227964 7.000000
11.507659 -3.053350 -1.459745 10.000000
7.930608 -6.380932 -1.161543 10.000000
19.990952 30.712908 -1.017211 4.000000
20.741596 3.418873 -2.235416 26.000000
11.514250 -3.007823 -1.461213 16.000000
7.974371 -6.372697 -1.172072 15.000000
20.542395 3.467111 -2.211689 115.000000
11.515090 -2.963000 -1.464145 24.000000
8.030224 -6.364677 -1.185577 11.000000
21.376463 33.361263 -1.002947 6.000000
20.496767 3.536722 -2.193473 105.000000
11.501326 -2.914555 -1.465232 31.000000
8.087976 -6.362325 -1.197933 11.000000
21.324980 33.538063 -0.950492 10.000000
14.749686 2.600768 -1.576813 1.000000
11.497987 -2.866770 -1.463393 41.000000
21.122433 33.489983 -0.905442 10.000000
11.541654 -2.832766 -1.471831 23.000000
20.968849 33.505100 -0.855553 9.000000
13.992589 2.575695 -1.485347 1.000000
11.532166 -2.785664 -1.473514 30.000000
5.304149 -4.056795 -0.796267 9.000000
20.936617 33.714725 -0.817456 9.000000
13.665618 2.567327 -1.449174 1.000000
11.552181 -2.743597 -1.476819 25.000000
5.290636 -4.015811 -0.799079 9.000000
13.324236 2.553787 -1.411562 1.000000
11.591150 -2.708010 -1.480522 5.000000
5.281195 -3.978221 -0.798957 9.000000
13.130267 2.566538 -1.382560 1.000000
11.634341 -2.673170 -1.489009 1.000000
5.276103 -3.942723 -0.800557 10.000000
12.808373 2.552392 -1.351946 1.000000
11.673050 -2.634917 -1.496900 3.000000
5.238132 -3.884510 -0.798405 9.000000
12.618606 2.564991 -1.328402 1.000000
11.667844 -2.588835 -1.497124 1.000000
5.237129 -3.851277 -0.801648 9.000000
32.416710 54.314857 -0.938447 4.000000
11.725213 -2.556510 -1.507528 1.000000
5.217474 -3.810230 -0.800135 10.000000
32.207790 54.417038 -0.860895 10.000000
12.113896 2.555007 -1.266289 1.000000
11.734686 -2.511415 -1.509622 1.000000
5.222688 -3.784765 -0.805661 10.000000
32.213078 54.861980 -0.788410 9.000000
12.056033 2.588992 -1.259049 1.000000
11.792360 -2.478592 -1.515863 1.000000
5.203959 -3.742179 -0.804059 9.000000
32.203083 55.286037 -0.703538 1.000000
11.619661 2.539870 -1.206052 1.000000
11.874670 -2.448321 -1.525224 1.000000
5.197105 -3.708428 -0.804291 10.000000
32.004562 55.344261 -0.636039 1.000000
11.483779 2.556408 -1.190884 1.000000
11.960573 -2.420366 -1.541599 1.000000
5.158867 -3.667572 -0.799626 10.000000
31.916031 55.638424 -0.559764 19.000000
11.412063 2.584380 -1.176169 1.000000
12.076406 -2.397765 -1.555385 1.000000
5.167765 -3.645457 -0.803415 10.000000
31.788836 55.890308 -0.482562 11.000000
11.296648 2.601807 -1.157075 1.000000
12.134484 -2.360903 -1.559494 1.000000
5.176682 -3.623406 -0.806093 10.000000
31.751080 56.280167 -0.394739 14.000000
11.172270 2.612205 -1.139149 1.000000
12.440297 -2.373114 -1.597668 1.000000
5.173914 -3.591948 -0.806860 10.000000
31.649891 56.561253 -0.305432 17.000000
11.080713 2.633668 -1.126776 5.000000
12.590044 -2.353889 -1.618052 3.000000
5.174444 -3.564281 -0.808244 10.000000
10.975008 2.651079 -1.109049 3.000000
12.784412 -2.339460 -1.641865 5.000000
5.166653 -3.531062 -0.808331 10.000000
31.602938 56.942875 -0.170497 7.000000
11.039392 2.666631 -1.099547 1.000000
12.820817 -2.346122 -1.628055 4.000000
5.194748 -3.562248 -0.804662 10.000000
31.657459 56.551613 -0.237541 21.000000
11.068459 2.630755 -1.101474 1.000000
12.608117 -2.354990 -1.595310 5.000000
5.186429 -3.584561 -0.798693 10.000000
31.773457 56.296867 -0.293349 10.000000
11.185097 2.613145 -1.112074 1.000000
12.293257 -2.345064 -1.545510 1.000000
5.198363 -3.621036 -0.795830 10.000000
31.873169 56.015831 -0.359955 17.000000
11.281904 2.592192 -1.120747 1.000000
12.173070 -2.368410 -1.527086 1.000000
5.210101 -3.657646 -0.792903 10.000000
31.921520 55.647995 -0.425489 16.000000
11.374046 2.569511 -1.126903 1.000000
11.945618 -2.371797 -1.493211 1.000000
5.213314 -3.688500 -0.790917 10.000000
32.122520 55.525879 -0.492632 1.000000
11.489885 2.551455 -1.141593 1.000000
11.903304 -2.408776 -1.484713 1.000000
5.227302 -3.729975 -0.789615 10.000000
11.595766 2.532526 -1.153319 1.000000
11.953488 -2.464572 -1.485603 1.000000
5.234787 -3.781006 -0.784871 10.000000
11.839013 2.535903 -1.180757 1.000000
11.783899 -2.476814 -1.463565 1.000000
5.261580 -3.829781 -0.785225 9.000000
11.998310 2.528441 -1.195801 1.000000
11.707287 -2.505551 -1.450940 1.000000
5.280193 -3.873015 -0.783160 9.000000
12.763976 2.636323 -1.268749 1.000000
11.678722 -2.548509 -1.440189 1.000000
5.286584 -3.907584 -0.779245 9.000000
32.477226 53.965805 -0.813521 8.000000
12.621482 2.560988 -1.258227 1.000000
11.655461 -2.586088 -1.436311 1.000000
5.304520 -3.950987 -0.779336 9.000000
12.913633 2.571024 -1.288724 1.000000
11.617824 -2.622451 -1.424413 3.000000
5.318348 -3.991678 -0.777629 9.000000
13.142749 2.566596 -1.310641 1.000000
11.613215 -2.666182 -1.422927 9.000000
5.359788 -4.053576 -0.778723 8.000000
20.836924 33.803806 -0.637677 1.000000
11.589352 -2.707590 -1.412840 18.000000
5.365080 -4.088576 -0.776891 9.000000
20.923969 33.655029 -0.677893 8.000000
13.581799 2.546672 -1.357350 1.000000
11.536111 -2.739780 -1.405466 17.000000
5.425456 -4.166109 -0.781792 8.000000
21.020241 33.535133 -0.718485 10.000000
14.011457 2.574112 -1.404359 5.000000
11.521641 -2.780993 -1.400740 28.000000
21.143757 33.497871 -0.760603 10.000000
14.187059 2.552655 -1.423552 1.000000
11.525821 -2.828880 -1.398358 28.000000
8.239279 -6.384133 -1.182044 19.000000
21.282055 33.444763 -0.802692 10.000000
14.700804 2.589503 -1.476770 6.000000
11.477301 -2.861613 -1.389548 32.000000
8.146138 -6.359883 -1.162884 20.000000
11.486695 -2.908714 -1.385678 23.000000
8.088576 -6.362796 -1.147076 18.000000
11.509578 -2.961582 -1.385595 26.000000
8.034824 -6.368323 -1.133699 10.000000
19.979267 30.671532 -0.862641 1.000000
11.465475 -2.995082 -1.377405 18.000000
7.977246 -6.370431 -1.119845 12.000000
19.965105 30.417099 -0.889209 8.000000
11.488493 -3.046118 -1.377297 13.000000
7.927342 -6.378304 -1.108925 10.000000
20.037546 30.296402 -0.925781 11.000000
11.506492 -3.096073 -1.376591 6.000000
7.881491 -6.389141 -1.096821 13.000000
29.757460 44.636299 -1.423512 187.000000
8.434052 1.292098 -0.853156 9.000000
11.475816 -3.135123 -1.370144 7.000000
7.804852 -6.374560 -1.080504 12.000000
23.833805 35.481819 -1.186469 4.000000
8.438878 1.261199 -0.851667 6.000000
11.503464 -3.188030 -1.366387 9.000000
7.755429 -6.381723 -1.066256 18.000000
23.886774 35.293884 -1.227630 11.000000
8.448220 1.230956 -0.853654 5.000000
11.492159 -3.230300 -1.362220 4.000000
7.713560 -6.394829 -1.054873 13.000000
23.972986 35.143085 -1.270020 11.000000
6.047142 0.833732 -0.612523 1.000000
11.504015 -3.281347 -1.360879 5.000000
7.668992 -6.403181 -1.043014 9.000000
24.075062 35.029430 -1.306069 10.000000
5.931852 0.794639 -0.601587 5.000000
11.521003 -3.331902 -1.360083 5.000000
7.611911 -6.403016 -1.029661 10.000000
24.276485 35.046623 -1.354708 11.000000
5.860623 0.763242 -0.595117 7.000000
11.537773 -3.382627 -1.359267 255.000000
7.600594 -6.441213 -1.020773 10.000000
24.157614 34.616253 -1.385574 34.000000
5.804052 0.734251 -0.590127 9.000000
11.525752 -3.425027 -1.355070 3.000000
7.554911 -6.450222 -1.009047 13.000000
24.262939 34.509865 -1.436294 6.000000
4.763726 2.856680 -0.413754 1.000000
5.791869 0.712178 -0.587603 9.000000
11.546270 -3.479429 -1.354780 1.000000
7.565828 -6.507638 -1.004886 13.000000
5.779759 0.687148 -0.587116 9.000000
11.519635 -3.517509 -1.348901 1.000000
7.576425 -6.565220 -1.000646 7.000000
23.685902 33.181904 -1.473534 9.000000
5.772254 0.664810 -0.587126 10.000000
11.517056 -3.562922 -1.341598 1.000000
7.594199 -6.629511 -0.997312 6.000000
23.380444 32.501408 -1.489094 1.000000
5.764661 0.642536 -0.587134 9.000000
11.556530 -3.621597 -1.343454 1.000000
7.577843 -6.664331 -0.991252 1.000000
23.278803 32.122982 -1.517072 6.000000
5.737200 0.618194 -0.585119 7.000000
11.566892 -3.673679 -1.339856 1.000000
23.386894 32.036190 -1.558418 1.000000
5.759323 0.598216 -0.587137 6.000000
11.577450 -3.723800 -1.338354 1.000000
14.003026 19.034945 -0.953241 1.000000
5.706930 0.571639 -0.582590 2.000000
11.606700 -3.780206 -1.339016 1.000000
9.202754 -8.271667 -1.180565 30.000000
14.053911 18.965067 -0.976953 6.000000
5.654420 0.545455 -0.578023 2.000000
7.873715 -2.596362 -0.905056 4.000000
9.143616 -8.279301 -1.166002 27.000000
14.119718 18.908594 -1.001459 6.000000
5.651237 0.525244 -0.578507 1.000000
7.859272 -2.625100 -0.901621 4.000000
9.084682 -8.286736 -1.149361 27.000000
14.266072 18.966129 -1.032036 6.000000
5.578979 0.495948 -0.570902 1.000000
7.887567 -2.666726 -0.903041 2.000000
9.073168 -8.337362 -1.143086 6.000000
14.331813 18.908863 -1.056666 7.000000
5.645090 0.480978 -0.578482 1.000000
16.464245 -15.240722 -2.061531 7.000000
14.484946 18.972961 -1.088115 7.000000
5.651672 0.460680 -0.579980 1.000000
8.028269 -2.780037 -0.913958 3.000000
16.427794 -15.319166 -2.044218 7.000000
14.602413 18.982170 -1.116838 7.000000
5.692995 0.443050 -0.584050 1.000000
8.008942 -2.806261 -0.909926 1.000000
16.390032 -15.391266 -2.026410 7.000000
14.664430 18.939373 -1.137974 6.000000
5.659683 0.420587 -0.581479 1.000000
7.929251 -2.809453 -0.897526 1.000000
16.273285 -15.394262 -1.999233 5.000000
14.840891 19.009148 -1.175269 7.000000
5.691096 0.399957 -0.584537 1.000000
8.147513 -2.923651 -0.920496 1.000000
14.986644 19.058313 -1.206986 7.000000
5.478890 0.366789 -0.563581 1.000000
8.057739 -2.924816 -0.907020 1.000000
7.334073 -7.040498 -0.885876 40.000000
15.095918 19.053137 -1.235675 7.000000
5.654122 0.354737 -0.581448 1.000000
7.294448 -7.054015 -0.875285 9.000000
15.223510 19.090652 -1.262568 7.000000
5.610481 0.333324 -0.577835 1.000000
7.202404 -7.013822 -0.860102 33.000000
15.321086 19.055588 -1.289981 7.000000
5.646428 0.314696 -0.581415 1.000000
7.148729 -7.012784 -0.847954 31.000000
15.417706 19.052876 -1.318809 7.000000
5.622607 0.292700 -0.579840 1.000000
7.144975 -7.060676 -0.838213 20.000000
15.568929 19.082592 -1.351048 7.000000
5.638593 0.271827 -0.581377 1.000000
7.130158 -7.097875 -0.830681 33.000000
15.688416 19.092596 -1.381582 7.000000
5.574957 0.248282 -0.574718 1.000000
7.109468 -7.126861 -0.820551 194.000000
15.840124 19.133818 -1.414852 7.000000
5.675119 0.231905 -0.585954 3.000000
7.315148 -7.386997 -0.840104 13.000000
15.905751 19.090675 -1.437106 7.000000
5.646110 0.209994 -0.582875 1.000000
7.229137 -7.353855 -0.824259 16.000000
16.042276 19.098125 -1.468710 6.000000
5.736350 0.191297 -0.592111 1.000000
7.241127 -7.420259 -0.815975 24.000000
16.149639 19.096992 -1.499017 7.000000
5.687298 0.168795 -0.586980 1.000000
7.130715 -2.921612 -0.775957 1.000000
6.976308 -7.198992 -0.780158 109.000000
16.299515 19.124796 -1.532511 7.000000
5.633086 0.146524 -0.582320 1.000000
7.027383 -2.912274 -0.761955 1.000000
7.026476 -7.304140 -0.778080 71.000000
16.446281 19.167883 -1.566874 6.000000
5.678358 0.125885 -0.586945 1.000000
6.934421 -2.903576 -0.749049 1.000000
7.058566 -7.391531 -0.777451 35.000000
16.600458 19.197918 -1.596763 7.000000
5.733480 0.106084 -0.592599 1.000000
6.902905 -7.279231 -0.752535 29.000000
16.676210 19.156759 -1.620184 6.000000
5.669182 0.084110 -0.585917 1.000000
6.900550 -7.330372 -0.746368 21.000000
16.804401 19.161749 -1.652603 7.000000
5.664456 0.065253 -0.585404 1.000000
6.876772 -2.965875 -0.734311 1.000000
6.904809 -7.388973 -0.739105 31.000000
16.979019 19.225071 -1.690141 7.000000
5.664680 0.041525 -0.585404 3.000000
6.878847 -2.999577 -0.731846 1.000000
6.899852 -7.435528 -0.730670 34.000000
17.104755 19.224964 -1.718186 7.000000
5.987719 2.694757 -0.616060 1.000000
5.679715 0.020817 -0.586945 1.000000
6.903393 -7.494247 -0.725011 9.000000
17.200306 19.197001 -1.752676 7.000000
5.669806 0.000000 -0.585917 1.000000
17.329472 19.199106 -1.785867 7.000000
5.679620 -0.018834 -0.587937 3.000000
17.432240 19.184669 -1.812622 7.000000
5.704481 -0.039825 -0.589515 2.000000
7.159917 -3.228314 -0.752111 1.000000
16.787601 18.346149 -1.760731 7.000000
5.639452 -0.059058 -0.584802 3.000000
6.855058 -7.656201 -0.693383 38.000000
16.681082 18.096119 -1.768495 7.000000
5.683952 -0.080360 -0.589444 3.000000
6.800835 -7.651891 -0.681757 36.000000
16.620474 17.898285 -1.780815 7.000000
5.683620 -0.101193 -0.589444 4.000000
6.655701 -7.541447 -0.659263 120.000000
16.698811 17.857227 -1.803969 10.000000
5.708051 -0.123553 -0.592022 3.000000
6.710665 -7.660134 -0.656775 70.000000
16.861992 17.899769 -1.840392 18.000000
5.757226 -0.147742 -0.597179 4.000000
7.185331 -8.259953 -0.696455 40.000000
16.981283 17.894539 -1.867891 14.000000
5.706933 -0.167384 -0.592022 5.000000
17.083385 17.876741 -1.902632 9.000000
5.711318 -0.186470 -0.592538 5.000000
17.178749 17.845125 -1.927701 8.000000
5.705413 -0.210205 -0.593019 6.000000
17.239155 17.777008 -1.953246 9.000000
5.724562 -0.229922 -0.595085 6.000000
6.670433 -7.896187 -0.617726 226.000000
17.160614 17.572859 -1.958954 7.000000
5.743466 -0.253778 -0.597151 8.000000
6.092183 -3.037451 -0.613533 9.000000
6.723435 -8.015519 -0.614227 16.000000
17.226954 17.511925 -1.985077 7.000000
5.762520 -0.274778 -0.598211 8.000000
6.059052 -3.048711 -0.607738 25.000000
6.649638 -7.986811 -0.601055 140.000000
16.949543 17.104074 -1.967026 7.000000
5.766441 -0.296152 -0.598726 9.000000
6.031426 -3.059917 -0.602412 26.000000
6.505805 -7.866961 -0.579684 19.000000
16.838396 16.867809 -1.967879 7.000000
5.770283 -0.317558 -0.599242 10.000000
6.002717 -3.073068 -0.597107 25.000000
6.453279 -7.859146 -0.568542 57.000000
16.588139 16.501511 -1.960672 7.000000
5.769185 -0.338711 -0.598233 10.000000
5.990518 -3.097235 -0.594753 10.000000
6.441029 -7.908748 -0.557756 38.000000
16.569294 16.362375 -1.971809 6.000000
5.782733 -0.361792 -0.599778 10.000000
5.979674 -3.119457 -0.587690 7.000000
6.429383 -7.950970 -0.550198 54.000000
16.432009 16.108274 -1.972704 6.000000
5.816000 -0.385279 -0.604399 10.000000
6.341115 -7.900867 -0.536253 24.000000
16.339762 15.900824 -1.974663 6.000000
5.854239 -0.409368 -0.608525 9.000000
6.307621 -7.915578 -0.525125 28.000000
15.985592 15.447895 -1.944880 8.000000
5.922169 -0.436975 -0.614708 8.000000
6.297546 -7.962641 -0.514277 32.000000
15.965395 15.315614 -1.955036 24.000000
6.427278 -8.185236 -0.518097 27.000000
16.084848 15.317394 -1.986219 16.000000
6.498869 -8.339153 -0.515230 90.000000
16.050833 15.183825 -1.999115 10.000000
10.836965 3.818424 -1.223871 1.000000
6.118579 -7.907956 -0.476771 181.000000
16.064173 15.079988 -2.012937 6.000000
10.747190 3.742568 -1.216192 1.000000
8.494024 -0.717742 -0.883908 1.000000
6.120174 -7.970203 -0.472137 126.000000
10.750829 3.699709 -1.221083 1.000000
8.491360 -0.750365 -0.882420 1.000000
6.125921 -8.035601 -0.464137 255.000000
10.730562 3.648802 -1.225258 6.000000
8.458838 -0.778747 -0.879331 1.000000
6.093704 -8.054399 -0.453332 29.000000
10.692251 3.590032 -1.223284 4.000000
8.490735 -0.813078 -0.881446 1.000000
6.242829 -8.311646 -0.455674 37.000000
10.704729 3.550617 -1.229190 1.000000
22.122438 -2.196415 -2.301293 30.000000
6.158765 -8.256600 -0.440727 180.000000
10.703093 3.506582 -1.231496 1.000000
22.292744 -2.295866 -2.315916 38.000000
6.073800 -8.208270 -0.426187 255.000000
10.696548 3.461077 -1.233247 1.000000
22.185270 -2.367005 -2.305637 15.000000
5.975884 -8.138157 -0.412581 8.000000
10.689610 3.415601 -1.236942 1.000000
22.162016 -2.446709 -2.300203 7.000000
6.044808 -8.292542 -0.408571 111.000000
10.701818 3.374270 -1.244776 1.000000
22.251686 -2.543128 -2.306556 7.000000
6.128810 -8.466619 -0.407009 89.000000
10.732678 3.340802 -1.250905 1.000000
20.291508 -2.394476 -2.100661 7.000000
6.111112 -8.510778 -0.395182 38.000000
10.739682 3.299855 -1.254274 1.000000
10.727300 3.253068 -1.257370 1.000000
19.834541 -2.488102 -2.051661 5.000000
10.729347 3.208755 -1.264073 1.000000
19.656775 -2.542504 -2.037764 6.000000
10.736271 3.168002 -1.263513 1.000000
19.470182 -2.590960 -2.015926 7.000000
10.756501 3.131161 -1.272456 1.000000
19.322918 -2.643475 -1.998229 13.000000
6.198465 -8.965086 -0.353948 15.000000
10.714952 3.076511 -1.270140 6.000000
6.013111 -8.765508 -0.334053 33.000000
10.711920 3.031168 -1.272328 4.000000
15.659618 -2.262166 -1.621108 1.000000
5.974232 -8.774335 -0.322466 8.000000
4.296685 3.540654 -0.601881 1.000000
10.726885 2.992982 -1.280671 7.000000
15.203753 -2.253230 -1.572050 2.000000
5.753434 -8.513782 -0.303176 36.000000
4.286140 3.505667 -0.603489 4.000000
10.640544 2.930894 -1.273099 62.000000
14.885318 -2.261823 -1.542627 5.000000
5.655726 -8.429315 -0.288859 82.000000
4.275316 3.470739 -0.606006 3.000000
10.718980 2.904248 -1.288874 1.000000
14.744757 -2.295786 -1.523658 4.000000
5.609612 -8.430369 -0.279312 28.000000
4.314682 3.476539 -0.614670 5.000000
10.724319 2.863544 -1.292172 6.000000
14.416298 -2.301375 -1.493193 1.000000
5.577554 -8.445970 -0.268575 22.000000
4.288084 3.429264 -0.614908 6.000000
10.728298 2.826527 -1.297403 8.000000
14.236208 -2.326166 -1.472869 1.000000
5.544185 -8.456287 -0.257721 30.000000
4.300202 3.413189 -0.619699 1.000000
10.758127 2.788251 -1.305545 6.000000
13.898632 -2.323340 -1.441301 4.000000
5.511819 -8.477736 -0.247131 33.000000
10.753656 2.743071 -1.309607 1.000000
13.747673 -2.352402 -1.424112 1.000000
9.881115 -6.560026 -0.837685 9.000000
5.548579 -8.603112 -0.239465 84.000000
10.806534 2.714414 -1.318769 4.000000
13.469951 -2.355728 -1.391405 2.000000
9.832618 -6.579878 -0.827312 11.000000
5.855455 -9.148883 -0.244602 25.000000
10.854524 2.684212 -1.327374 1.000000
13.176979 -2.354296 -1.364385 1.000000
9.804656 -6.613324 -0.820771 23.000000
5.885257 -9.266530 -0.235696 26.000000
10.907264 2.652854 -1.340516 1.000000
12.909138 -2.355299 -1.335223 1.000000
9.751947 -6.629905 -0.810115 16.000000
5.904695 -9.372869 -0.224308 9.000000
10.973707 2.630503 -1.349600 4.000000
12.656093 -2.354809 -1.312162 5.000000
9.749786 -6.678318 -0.803578 9.000000
5.732131 -9.162648 -0.211297 23.000000
11.049998 2.606001 -1.365839 1.000000
12.589183 -2.390131 -1.301605 1.000000
9.737905 -6.722749 -0.798400 5.000000
5.734520 -9.238029 -0.199284 9.000000
11.146502 2.583621 -1.380583 1.000000
12.222784 -2.371441 -1.266893 1.000000
9.746415 -6.781507 -0.792804 3.000000
11.256821 2.565753 -1.399207 1.000000
12.112802 -2.391809 -1.251954 1.000000
9.823840 -6.888953 -0.796944 1.000000
11.294253 2.530775 -1.410897 1.000000
12.015538 -2.420575 -1.245014 1.000000
17.613510 -12.447998 -1.421217 6.000000
5.221514 -8.614956 -0.154735 1.000000
11.584536 2.549145 -1.450128 1.000000
11.977349 -2.458597 -1.241982 1.000000
17.491356 -12.458048 -1.399979 7.000000
12.154577 -20.220619 -0.341791 27.000000
11.841333 2.555861 -1.487415 1.000000
11.851609 -2.478089 -1.227742 1.000000
17.506971 -12.566141 -1.393575 7.000000
12.078975 -20.254631 -0.316950 27.000000
4.328256 3.151592 -0.663092 1.000000
12.008910 2.550382 -1.516095 1.000000
11.818118 -2.516330 -1.225220 1.000000
17.452015 -12.609956 -1.377253 6.000000
12.061823 -20.387306 -0.293555 30.000000
12.265575 2.555710 -1.553909 1.000000
11.749825 -2.548990 -1.221265 1.000000
17.462734 -12.715380 -1.370412 6.000000
12.037745 -20.517839 -0.274035 40.000000
12.516839 2.560233 -1.593599 1.000000
11.754976 -2.595255 -1.222781 3.000000
17.416206 -12.779440 -1.366641 6.000000
11.903292 -20.451904 -0.251945 36.000000
12.699875 2.549212 -1.627183 1.000000
11.686521 -2.625099 -1.222989 4.000000
17.401731 -12.867206 -1.361612 7.000000
11.753384 -20.365665 -0.229828 34.000000
12.750846 2.559444 -1.654468 1.000000
11.689025 -2.627805 -1.242318 4.000000
17.345398 -12.830235 -1.395188 7.000000
11.768251 -20.391428 -0.254776 34.000000
12.556444 2.568334 -1.632728 1.000000
11.731719 -2.592268 -1.254316 1.000000
17.447428 -12.807036 -1.422371 6.000000
11.904536 -20.462257 -0.289237 29.000000
4.356035 3.160200 -0.684629 1.000000
12.269728 2.558810 -1.596711 1.000000
11.754428 -2.552137 -1.268470 1.000000
17.430336 -12.701101 -1.440039 7.000000
11.963029 -20.398647 -0.321951 33.000000
4.176529 3.053400 -0.655419 1.000000
12.032236 2.555336 -1.567014 1.000000
11.758190 -2.507861 -1.274241 1.000000
17.455326 -12.621626 -1.460931 7.000000
12.023743 -20.339140 -0.354669 21.000000
4.333327 3.192470 -0.678993 1.000000
11.936162 2.576329 -1.557772 1.000000
11.834989 -2.476770 -1.290061 1.000000
17.496161 -12.553755 -1.483144 8.000000
12.100505 -20.298784 -0.387741 36.000000
4.307065 3.195211 -0.673682 1.000000
11.499902 2.528417 -1.502092 1.000000
11.907076 -2.446337 -1.299078 1.000000
17.526117 -12.492030 -1.504996 6.000000
5.147022 -8.566082 -0.174437 6.000000
4.365994 3.266181 -0.682045 1.000000
11.354144 2.544195 -1.484376 1.000000
11.983295 -2.416256 -1.315051 1.000000
4.292478 3.249910 -0.665840 1.000000
11.253363 2.564965 -1.468325 1.000000
12.098678 -2.393408 -1.333275 1.000000
9.714002 -6.811929 -0.852533 6.000000
4.265032 3.253792 -0.660576 2.000000
11.069490 2.567806 -1.445609 1.000000
12.312098 -2.388769 -1.358034 1.000000
9.712425 -6.760372 -0.862775 8.000000
5.990420 -9.737289 -0.243467 21.000000
4.312371 3.314982 -0.666895 1.000000
10.866660 2.562763 -1.422318 1.000000
12.564404 -2.387699 -1.393876 6.000000
9.687154 -6.690208 -0.870741 8.000000
6.017980 -9.702227 -0.259089 27.000000
4.292802 3.325042 -0.660939 1.000000
11.036606 2.643544 -1.441735 1.000000
12.729197 -2.370709 -1.413471 6.000000
9.711105 -6.654313 -0.878960 22.000000
6.017218 -9.625823 -0.269502 27.000000
10.849005 2.640691 -1.414523 1.000000
12.897601 -2.357846 -1.438242 2.000000
9.728487 -6.618922 -0.886803 10.000000
6.045247 -9.595974 -0.285101 20.000000
10.847946 2.686605 -1.415780 1.000000
13.146200 -2.348797 -1.469619 1.000000
5.976743 -9.414207 -0.292004 32.000000
10.853892 2.728323 -1.409852 1.000000
13.433106 -2.351701 -1.503175 1.000000
5.507174 -8.604709 -0.280010 40.000000
10.808733 2.763149 -1.409372 1.000000
13.690670 -2.345108 -1.538386 1.000000
5.490936 -8.513737 -0.290059 30.000000
10.770686 2.793513 -1.401728 1.000000
14.085832 -2.359687 -1.586853 2.000000
5.479572 -8.431356 -0.300197 30.000000
4.436371 3.596350 -0.668863 1.000000
10.812625 2.850763 -1.404699 1.000000
14.178290 -2.316703 -1.598747 3.000000
5.621050 -8.583325 -0.317059 37.000000
10.731690 2.867519 -1.391474 1.000000
14.470055 -2.312547 -1.638494 4.000000
5.577920 -8.449729 -0.325260 34.000000
10.692338 2.901036 -1.383878 6.000000
14.723626 -2.297761 -1.668876 1.000000
5.706790 -8.579659 -0.343628 25.000000
10.676849 2.938890 -1.383258 1.000000
14.932475 -2.274322 -1.699600 3.000000
5.761503 -8.596690 -0.357772 23.000000
10.699457 2.987342 -1.387596 1.000000
15.348330 -2.280132 -1.748712 5.000000
5.787130 -8.566865 -0.370057 34.000000
10.683599 3.027182 -1.383100 1.000000
15.617285 -2.258833 -1.781143 1.000000
6.111935 -8.979948 -0.402109 23.000000
10.658590 3.062342 -1.377376 1.000000
6.174084 -9.003533 -0.415576 24.000000
10.680017 3.114964 -1.377806 1.000000
19.372889 -2.657200 -2.221014 9.000000
6.199502 -8.973281 -0.428521 38.000000
10.650183 3.148663 -1.369533 1.000000
19.391960 -2.587440 -2.225557 7.000000
6.314879 -9.069022 -0.445786 51.000000
10.643881 3.187244 -1.370145 1.000000
19.273273 -2.496320 -2.214255 8.000000
6.306015 -8.989216 -0.456381 31.000000
10.632585 3.226373 -1.366267 1.000000
19.439632 -2.445457 -2.235787 7.000000
10.649035 3.276071 -1.366039 1.000000
19.314169 -2.357796 -2.230669 8.000000
6.430416 -9.028437 -0.485892 8.000000
10.646886 3.318174 -1.363363 1.000000
19.273363 -2.277742 -2.228362 9.000000
6.120895 -8.530688 -0.471268 9.000000
10.606933 3.348424 -1.353899 1.000000
19.152884 -2.192355 -2.216897 7.000000
5.964475 -8.248688 -0.469355 247.000000
10.674958 3.412974 -1.364169 1.000000
19.214712 -2.128113 -2.226555 7.000000
5.942899 -8.158719 -0.477772 8.000000
10.634120 3.444978 -1.354692 1.000000
19.216284 -2.057020 -2.236102 9.000000
5.991724 -8.165703 -0.490034 13.000000
10.640738 3.490267 -1.353189 1.000000
19.007418 -1.960873 -2.204146 11.000000
5.967862 -8.070992 -0.496196 255.000000
10.609476 3.523134 -1.346887 1.000000
19.023211 -1.892062 -2.215302 9.000000
10.601243 3.565653 -1.341629 1.000000
6.246579 -8.322687 -0.538076 81.000000
6.169859 -8.160976 -0.539753 8.000000
6.152532 -8.079277 -0.548209 175.000000
6.233416 -8.123546 -0.563514 31.000000
14.515625 13.745953 -1.988356 3.000000
5.793236 -3.128472 -0.639766 3.000000
6.304048 -8.156485 -0.579955 31.000000
14.502398 13.834600 -1.975814 6.000000
5.799881 -3.104658 -0.643875 8.000000
6.394866 -8.211609 -0.596472 23.000000
14.696823 14.123321 -1.991383 6.000000
5.642902 -0.389642 -0.662465 10.000000
5.815118 -3.085447 -0.650107 9.000000
6.349166 -8.094482 -0.600379 92.000000
14.688266 14.214048 -1.975327 6.000000
5.614431 -0.368973 -0.658976 16.000000
5.848003 -3.075480 -0.657177 25.000000
6.492907 -8.215548 -0.622124 30.000000
14.826189 14.453124 -1.982751 6.000000
5.581056 -0.344285 -0.655880 15.000000
5.872166 -3.060765 -0.662129 23.000000
6.415454 -8.059555 -0.622829 40.000000
14.969430 14.700150 -1.994318 6.000000
5.572080 -0.324211 -0.656664 17.000000
5.918292 -3.057275 -0.670759 12.000000
6.472570 -8.070425 -0.638185 44.000000
14.998325 14.836899 -1.983109 6.000000
5.553284 -0.302699 -0.655298 24.000000
6.053129 -3.098876 -0.688346 5.000000
6.418821 -7.946415 -0.639095 32.000000
15.184862 15.131949 -1.996222 8.000000
5.549397 -0.282091 -0.654712 29.000000
6.460076 -7.937793 -0.651062 34.000000
15.238607 15.291892 -1.991291 8.000000
5.530574 -0.257913 -0.653338 24.000000
6.480910 -7.906856 -0.662918 167.000000
15.110375 15.274777 -1.959148 9.000000
5.526438 -0.239357 -0.652752 25.000000
6.373350 -7.723249 -0.658068 107.000000
15.062460 15.338378 -1.941297 9.000000
5.517128 -0.218697 -0.653508 24.000000
6.325878 -7.606041 -0.662286 37.000000
15.049270 15.437722 -1.924117 6.000000
5.512964 -0.197334 -0.652920 20.000000
6.111283 -2.988598 -0.711413 1.000000
6.346856 -7.574622 -0.671967 12.000000
15.314920 15.820340 -1.949637 6.000000
5.508574 -0.176964 -0.653294 26.000000
15.434256 16.060991 -1.948802 6.000000
5.504223 -0.156631 -0.652706 29.000000
7.163939 -3.472443 -0.836750 1.000000
15.524304 16.273664 -1.947915 6.000000
5.499820 -0.135373 -0.652117 23.000000
6.448439 -7.531500 -0.705493 8.000000
15.609269 16.477510 -1.941836 6.000000
5.490350 -0.115006 -0.650940 29.000000
6.465743 -7.495923 -0.714795 255.000000
15.747884 16.746349 -1.946497 6.000000
5.480806 -0.094711 -0.649763 25.000000
7.344134 -3.460585 -0.869063 1.000000
6.465213 -7.442623 -0.722239 171.000000
15.793183 16.918346 -1.935339 6.000000
5.481130 -0.073666 -0.649763 24.000000
7.149009 -3.324528 -0.850931 1.000000
6.439406 -7.358265 -0.726634 52.000000
15.878077 17.134762 -1.928793 7.000000
5.481363 -0.053576 -0.649763 29.000000
7.255531 -3.354063 -0.865525 1.000000
6.571337 -7.453719 -0.748897 16.000000
15.991398 17.378334 -1.929168 7.000000
5.481523 -0.033485 -0.649763 28.000000
16.173546 17.693680 -1.937152 7.000000
5.481493 -0.014351 -0.650720 22.000000
6.836978 -7.649430 -0.791229 31.000000
16.120461 17.772158 -1.909450 10.000000
5.481622 0.005740 -0.649763 31.000000
16.066330 17.843466 -1.889687 10.000000
5.476372 0.025807 -0.651086 30.000000
6.823355 -7.525113 -0.806590 9.000000
15.958533 17.842379 -1.858736 10.000000
5.461572 0.045756 -0.647409 34.000000
6.776464 -7.418575 -0.806651 29.000000
15.830812 17.818142 -1.829808 9.000000
5.461356 0.066726 -0.647409 28.000000
6.770189 -7.362525 -0.811779 25.000000
15.749779 17.852053 -1.806738 11.000000
5.461075 0.086743 -0.647409 27.000000
6.936630 -2.961586 -0.848682 1.000000
6.797828 -7.335848 -0.822253 20.000000
15.623066 17.839802 -1.774716 14.000000
5.465722 0.104947 -0.647997 31.000000
6.910417 -2.920496 -0.848138 3.000000
6.852116 -7.345424 -0.836460 34.000000
15.529696 17.871172 -1.742807 10.000000
5.460044 0.127720 -0.649315 25.000000
6.879415 -2.877722 -0.846987 1.000000
6.903553 -7.343828 -0.849920 28.000000
15.536737 18.012190 -1.730125 7.000000
5.449838 0.147468 -0.646232 26.000000
7.032677 -7.426455 -0.871449 255.000000
15.672783 18.292210 -1.726663 7.000000
5.459358 0.165845 -0.646456 28.000000
6.904591 -2.827557 -0.855365 1.000000
7.176232 -7.522630 -0.894955 27.000000
16.117207 18.944351 -1.761084 7.000000
5.453718 0.186636 -0.645868 31.000000
7.224606 -2.936546 -0.896812 1.000000
7.158126 -7.448794 -0.902002 181.000000
16.077808 19.038994 -1.738167 9.000000
5.452998 0.206624 -0.645868 33.000000
7.145579 -2.865264 -0.890763 1.000000
7.121078 -7.358655 -0.904898 28.000000
15.938696 19.008471 -1.704189 9.000000
5.452204 0.226609 -0.645868 25.000000
7.032726 -7.214255 -0.899166 29.000000
15.854096 19.048950 -1.676524 9.000000
5.461327 0.247997 -0.646089 33.000000
7.051701 -7.180875 -0.905303 22.000000
15.734589 19.040140 -1.644921 7.000000
5.460381 0.268012 -0.646089 28.000000
7.035280 -7.111824 -0.910404 32.000000
15.605663 19.025709 -1.612841 6.000000
5.464433 0.288292 -0.645721 26.000000
7.101551 -7.128871 -0.926380 27.000000
15.499252 19.031073 -1.582888 7.000000
5.458328 0.308991 -0.645135 29.000000
7.098729 -7.073994 -0.933208 34.000000
15.364383 19.007322 -1.554803 7.000000
5.461891 0.329280 -0.647631 33.000000
7.308057 -7.229401 -0.966286 33.000000
15.226899 18.985895 -1.518404 7.000000
5.465592 0.351528 -0.647263 24.000000
7.417742 -7.286850 -0.988406 60.000000
15.139961 19.006290 -1.490468 7.000000
5.469286 0.370941 -0.647850 25.000000
7.383202 -7.199935 -0.989362 193.000000
15.052814 19.032835 -1.462914 6.000000
5.468003 0.390992 -0.646893 27.000000
14.937664 19.030180 -1.433068 7.000000
5.466870 0.411056 -0.644022 28.000000
7.908216 -2.875230 -1.009348 1.000000
14.822966 19.020384 -1.403085 7.000000
5.470202 0.432436 -0.644606 29.000000
14.650207 18.941484 -1.368135 7.000000
5.463743 0.452082 -0.643066 27.000000
7.999896 -2.837627 -1.025689 1.000000
14.536219 18.930281 -1.338579 7.000000
5.476667 0.473368 -0.646732 28.000000
7.961751 -2.794407 -1.025581 8.000000
14.416136 18.917034 -1.308913 7.000000
5.480092 0.494870 -0.644435 32.000000
7.958664 -2.757490 -1.025242 9.000000
14.308661 18.912580 -1.280233 7.000000
5.478353 0.514963 -0.643475 29.000000
7.902170 -2.707058 -1.019699 1.000000
7.086477 -6.571345 -0.990196 10.000000
14.195076 18.906065 -1.251433 7.000000
5.486426 0.536015 -0.643674 33.000000
8.080762 -2.735187 -1.045978 1.000000
7.053594 -6.488385 -0.990406 9.000000
14.118088 18.940868 -1.217392 7.000000
5.494209 0.558081 -0.644834 40.000000
8.114864 -2.710472 -1.052007 1.000000
7.098850 -6.482141 -1.000201 11.000000
13.987289 18.902739 -1.187107 8.000000
5.502116 0.579267 -0.645028 27.000000
8.151730 -2.692771 -1.058665 5.000000
7.103669 -6.445734 -1.008177 18.000000
13.847704 18.858263 -1.156556 9.000000
5.520041 0.601618 -0.644437 22.000000
7.147308 -6.433207 -1.019182 12.000000
13.753079 18.867098 -1.129639 9.000000
5.517579 0.622796 -0.645406 28.000000
7.190308 -6.428877 -1.029078 10.000000
13.623051 18.833344 -1.100224 9.000000
5.530170 0.644754 -0.646166 22.000000
7.226405 -6.409139 -1.040785 16.000000
13.505566 18.808834 -1.067680 10.000000
5.542900 0.666839 -0.644972 24.000000
7.279010 -6.408284 -1.053534 10.000000
13.454966 18.877100 -1.044556 10.000000
5.550396 0.687404 -0.646120 22.000000
7.325855 -6.406529 -1.064108 15.000000
13.322853 18.837446 -1.015444 9.000000
4.592247 2.783355 -0.465084 1.000000
5.577266 0.713475 -0.648582 22.000000
7.391963 -6.412158 -1.080334 10.000000
13.226979 18.827072 -0.984476 8.000000
5.604531 0.735860 -0.651033 10.000000
11.517084 -3.475019 -1.515466 1.000000
7.431292 -6.403211 -1.091638 14.000000
13.132421 18.845905 -0.954703 6.000000
5.636367 0.761065 -0.654045 9.000000
11.534589 -3.432035 -1.520292 1.000000
7.472865 -6.391458 -1.102985 13.000000
13.027682 18.828402 -0.931608 4.000000
5.677797 0.788870 -0.658185 9.000000
11.494226 -3.374217 -1.517580 1.000000
7.537167 -6.398770 -1.117744 10.000000
12.992676 18.932762 -0.906198 1.000000
5.724157 0.816707 -0.662880 8.000000
11.548886 -3.344335 -1.527433 1.000000
7.582915 -6.389932 -1.126307 17.000000
11.513435 -3.286207 -1.525311 1.000000
7.631895 -6.383518 -1.142413 16.000000
5.841823 0.872024 -0.675055 7.000000
11.534436 -3.246528 -1.530758 1.000000
7.700484 -6.393064 -1.156245 17.000000
20.379215 30.384716 -1.322370 6.000000
6.006022 0.919051 -0.690117 5.000000
11.517069 -3.196131 -1.531129 1.000000
7.742403 -6.380075 -1.166118 12.000000
20.174475 30.319082 -1.271738 9.000000
11.519174 -3.149128 -1.534027 1.000000
7.780321 -6.363585 -1.177199 10.000000
20.091272 30.423775 -1.234954 9.000000
19.184065 3.021298 -2.202389 1.000000
11.549273 -3.111908 -1.540750 1.000000
7.864474 -6.384450 -1.195346 10.000000
20.012852 30.513054 -1.191389 9.000000
19.349815 3.120125 -2.219251 5.000000
11.526532 -3.060511 -1.540441 1.000000
7.914068 -6.376731 -1.208317 10.000000
19.868843 30.536963 -1.151281 8.000000
19.382193 3.201750 -2.220885 7.000000
11.461437 -2.996164 -1.530193 169.000000
7.967744 -6.371959 -1.220162 14.000000
19.817219 30.714975 -1.110414 1.000000
19.292704 3.259653 -2.205068 7.000000
11.500634 -2.961421 -1.538182 255.000000
8.029090 -6.372910 -1.235046 11.000000
21.362581 33.365238 -1.155078 9.000000
11.521012 -2.919544 -1.543615 250.000000
21.230543 33.415295 -1.112746 10.000000
14.767969 2.606649 -1.679449 4.000000
11.521491 -2.874766 -1.546472 251.000000
21.056332 33.385178 -1.061153 9.000000
14.353105 2.590291 -1.623079 1.000000
11.531950 -2.832519 -1.546472 246.000000
21.025196 33.595135 -1.017034 10.000000
11.552118 -2.790483 -1.549838 233.000000
5.216722 -3.992815 -0.817095 9.000000
20.929443 33.703175 -0.976515 10.000000
11.556917 -2.746852 -1.553338 241.000000
5.219013 -3.964319 -0.819819 9.000000
13.265754 2.544978 -1.493647 1.000000
11.547070 -2.699837 -1.554884 10.000000
5.189588 -3.912055 -0.816396 8.000000
13.012280 2.548191 -1.463856 1.000000
11.644321 -2.675463 -1.566585 3.000000
5.167571 -3.865837 -0.816419 8.000000
12.696302 2.534667 -1.424770 1.000000
11.634439 -2.628336 -1.566067 1.000000
5.165202 -3.834619 -0.819523 9.000000
21.599852 35.905590 -0.826505 134.000000
12.591141 2.557120 -1.407104 1.000000
11.716504 -2.599632 -1.580019 1.000000
5.158795 -3.800613 -0.820837 9.000000
21.536375 36.084637 -0.777531 10.000000
12.177938 2.519713 -1.359754 1.000000
11.715727 -2.554441 -1.582900 1.000000
5.136968 -3.754188 -0.818451 9.000000
32.261314 54.485767 -1.094209 9.000000
12.094793 2.555387 -1.347287 1.000000
11.782904 -2.523885 -1.592856 1.000000
5.126028 -3.717447 -0.820150 9.000000
32.249275 54.923626 -1.033905 23.000000
12.130001 2.609306 -1.343501 1.000000
11.758553 -2.471486 -1.588269 1.000000
5.102933 -3.672234 -0.818759 10.000000
32.110901 55.127781 -0.946531 19.000000
11.990387 2.620905 -1.326826 1.000000
11.844658 -2.444288 -1.602974 1.000000
5.128113 -3.661900 -0.823995 9.000000
31.953768 55.300961 -0.880687 10.000000
11.398837 2.535412 -1.258263 1.000000
11.902263 -2.408566 -1.611663 1.000000
5.130105 -3.649820 -0.826644 9.000000
31.875483 55.612705 -0.794358 12.000000
11.297979 2.556472 -1.242020 1.000000
12.032552 -2.389057 -1.628109 1.000000
5.114746 -3.610730 -0.825366 9.000000
31.748341 55.841793 -0.717553 19.000000
11.230364 2.586541 -1.231601 1.000000
12.119349 -2.360153 -1.636479 1.000000
5.107173 -3.577410 -0.826452 9.000000
31.683794 56.183807 -0.641709 16.000000
11.119980 2.604073 -1.212470 1.000000
12.435061 -2.372115 -1.677867 1.000000
5.103615 -3.547105 -0.827078 10.000000
31.617142 56.549030 -0.554085 16.000000
11.062807 2.633492 -1.199252 1.000000
12.668087 -2.368480 -1.705838 3.000000
5.084197 -3.504734 -0.825035 9.000000
31.516890 56.834579 -0.465055 10.000000
10.976357 2.655460 -1.184950 4.000000
12.730721 -2.329635 -1.713055 5.000000
5.104831 -3.491426 -0.829598 9.000000
31.565767 56.899303 -0.420201 23.000000
10.997293 2.660525 -1.171240 3.000000
12.814559 -2.349600 -1.710567 4.000000
5.115294 -3.513016 -0.824676 10.000000
31.639521 56.565880 -0.475114 14.000000
11.080003 2.635542 -1.178962 1.000000
12.651788 -2.365432 -1.678506 5.000000
5.123588 -3.546418 -0.820357 9.000000
31.750561 56.302204 -0.541520 20.000000
11.162830 2.612053 -1.180682 1.000000
12.312697 -2.348773 -1.627976 1.000000
5.131588 -3.579846 -0.817069 9.000000
31.850168 55.998142 -0.595939 19.000000
11.283404 2.596683 -1.196505 1.000000
12.211807 -2.380371 -1.607055 1.000000
5.119131 -3.599120 -0.810516 10.000000
31.913361 55.656273 -0.649475 11.000000
11.370908 2.570888 -1.204728 1.000000
12.032625 -2.393438 -1.582496 1.000000
5.155152 -3.652753 -0.811607 10.000000
31.919363 55.219170 -0.723602 1.000000
11.433454 2.541017 -1.212426 1.000000
11.961974 -2.420649 -1.569920 1.000000
5.154412 -3.680680 -0.807991 10.000000
32.093899 55.076492 -0.789959 6.000000
11.782814 2.573378 -1.248464 1.000000
11.851395 -2.445678 -1.550188 1.000000
5.153912 -3.725329 -0.804496 9.000000
32.234245 54.854168 -0.866205 22.000000
12.078632 2.591639 -1.283152 1.000000
11.765223 -2.472888 -1.535826 1.000000
5.164962 -3.762214 -0.801570 10.000000
32.310471 54.547077 -0.918467 13.000000
12.093141 2.546220 -1.285825 1.000000
11.722913 -2.508895 -1.525114 1.000000
5.191698 -3.810892 -0.802174 9.000000
12.170131 2.515883 -1.297407 1.000000
11.683743 -2.551741 -1.517154 1.000000
5.206069 -3.850882 -0.801979 10.000000
21.638220 35.955162 -0.703181 38.000000
12.647372 2.566241 -1.344995 1.000000
11.674571 -2.594604 -1.515067 1.000000
5.224310 -3.894081 -0.801210 9.000000
12.918700 2.576722 -1.377582 1.000000
11.623381 -2.623706 -1.501093 2.000000
5.250356 -3.943512 -0.800436 9.000000
13.177613 2.573405 -1.406448 1.000000
11.613476 -2.668375 -1.499013 8.000000
5.264128 -3.984118 -0.798910 9.000000
20.867033 33.852650 -0.784400 1.000000
13.524407 2.587259 -1.442390 1.000000
11.583857 -2.710571 -1.492364 23.000000
5.289627 -4.033995 -0.797951 9.000000
20.929762 33.677452 -0.830576 10.000000
11.559870 -2.749686 -1.486349 34.000000
5.302804 -4.074870 -0.797451 8.000000
21.067942 33.637321 -0.872978 10.000000
11.521297 -2.787295 -1.474351 25.000000
5.359272 -4.149591 -0.799827 9.000000
21.099266 33.427387 -0.917755 10.000000
14.276306 2.566141 -1.524548 3.000000
11.536334 -2.831461 -1.475363 36.000000
21.290888 33.458645 -0.962303 10.000000
14.838744 2.611131 -1.586236 4.000000
11.502306 -2.867847 -1.468144 30.000000
8.135763 -6.356355 -1.209188 21.000000
21.514919 33.551559 -1.008893 3.000000
11.514737 -2.922231 -1.467070 22.000000
8.066408 -6.349917 -1.193251 12.000000
11.520391 -2.964364 -1.460604 9.000000
8.012760 -6.355391 -1.179708 26.000000
19.966400 30.651777 -1.002638 7.000000
20.958225 3.454581 -2.251265 40.000000
11.514496 -3.007887 -1.459136 12.000000
7.959010 -6.360420 -1.168012 10.000000
20.061716 30.564289 -1.040377 9.000000
20.774776 3.346177 -2.226513 7.000000
11.498556 -3.050935 -1.454375 7.000000
7.913531 -6.371744 -1.152183 10.000000
29.589357 44.772522 -1.583414 142.000000
20.653898 3.249089 -2.215957 7.000000
11.511749 -3.099643 -1.453248 5.000000
7.856020 -6.373039 -1.140051 16.000000
29.776068 44.664211 -1.649440 152.000000
20.728790 3.183059 -2.230129 7.000000
11.486437 -3.138024 -1.447276 7.000000
7.779512 -6.358392 -1.123444 12.000000
23.911901 35.598080 -1.355163 8.000000
20.725723 3.101178 -2.232200 7.000000
11.494406 -3.187681 -1.441362 4.000000
7.734041 -6.368653 -1.109619 13.000000
23.942638 35.376427 -1.402141 7.000000
11.530915 -3.243366 -1.443179 4.000000
7.672991 -6.365716 -1.097155 16.000000
23.939085 35.093388 -1.431504 1.000000
5.845844 0.807019 -0.631707 5.000000
11.514661 -3.284384 -1.438402 8.000000
7.627458 -6.375283 -1.085199 14.000000
24.113420 35.111492 -1.479982 1.000000
5.784734 0.775959 -0.625807 7.000000
11.507215 -3.330091 -1.434816 5.000000
7.581947 -6.384592 -1.073294 12.000000
5.758069 0.750908 -0.621596 9.000000
11.505420 -3.375322 -1.427635 6.000000
7.537717 -6.392449 -1.059715 14.000000
5.731082 0.726037 -0.619411 9.000000
11.535083 -3.434374 -1.428755 8.000000
7.469576 -6.381876 -1.044745 10.000000
5.713983 0.701589 -0.618283 9.000000
11.524108 -3.472750 -1.424553 5.000000
7.443055 -6.406559 -1.035647 12.000000
5.706535 0.679453 -0.618219 9.000000
11.501428 -3.514145 -1.421279 1.000000
7.382633 -6.401806 -1.021876 11.000000
13.470252 18.884598 -0.927611 4.000000
5.689126 0.656242 -0.617079 9.000000
11.541598 -3.572721 -1.419299 1.000000
7.382261 -6.449038 -1.016442 11.000000
13.643681 18.980198 -0.963362 6.000000
5.676565 0.633719 -0.616469 9.000000
11.543112 -3.619605 -1.416827 3.000000
7.355504 -6.473349 -1.007376 13.000000
13.683512 18.882208 -0.989588 8.000000
5.683899 0.612451 -0.617005 8.000000
11.581663 -3.680595 -1.418983 1.000000
7.324940 -6.494246 -0.997811 9.000000
13.816463 18.926277 -1.019003 9.000000
5.671165 0.590060 -0.616391 8.000000
7.368518 -6.581276 -0.998316 8.000000
13.899220 18.907658 -1.045098 10.000000
5.648452 0.566778 -0.614695 9.000000
14.029870 18.946447 -1.074681 8.000000
5.650385 0.546061 -0.615686 8.000000
14.077628 18.865963 -1.097738 7.000000
5.637590 0.522983 -0.614068 8.000000
14.238842 18.943691 -1.125873 7.000000
5.639363 0.502308 -0.615056 8.000000
7.980545 -2.699713 -0.965845 9.000000
14.382718 18.989792 -1.160909 7.000000
5.616128 0.481472 -0.613340 8.000000
7.961515 -2.725836 -0.961769 5.000000
14.496636 19.002020 -1.189833 7.000000
5.583416 0.455116 -0.609554 7.000000
8.139713 -2.820220 -0.979968 1.000000
14.589763 18.979433 -1.216891 7.000000
5.550251 0.431941 -0.606740 7.000000
8.016633 -2.812098 -0.963439 1.000000
14.719334 19.010283 -1.247400 7.000000
5.526907 0.409750 -0.604998 7.000000
8.222131 -2.918071 -0.984788 1.000000
7.570469 -7.166549 -0.974398 15.000000
14.904541 19.111296 -1.282884 7.000000
5.508539 0.388093 -0.602828 8.000000
7.739328 -7.380373 -0.990194 21.000000
14.930462 19.000513 -1.304490 7.000000
5.529593 0.370183 -0.605966 8.000000
15.086064 19.054361 -1.333246 7.000000
5.501270 0.346111 -0.602705 8.000000
15.226155 19.093971 -1.369656 7.000000
5.497436 0.325645 -0.603122 8.000000
7.238651 -7.056508 -0.911099 33.000000
15.323068 19.078499 -1.398082 7.000000
5.478795 0.303435 -0.600945 9.000000
7.175558 -7.044020 -0.895633 30.000000
15.451617 19.094784 -1.429224 6.000000
5.464875 0.282576 -0.600267 10.000000
7.299100 -7.218020 -0.903515 11.000000
15.539632 19.060263 -1.452428 7.000000
5.495660 0.263976 -0.603538 9.000000
7.128356 -7.101038 -0.878517 30.000000
15.652603 19.062572 -1.482681 7.000000
5.466757 0.243464 -0.600267 9.000000
7.138198 -7.163158 -0.870512 33.000000
15.762723 19.053860 -1.512478 6.000000
5.487371 0.224233 -0.603407 9.000000
7.159131 -7.234496 -0.868981 9.000000
15.939919 19.131685 -1.549239 7.000000
5.478223 0.203750 -0.602314 9.000000
7.185679 -7.314754 -0.862835 9.000000
16.034546 19.102457 -1.577841 7.000000
5.468998 0.183337 -0.601222 9.000000
7.006092 -2.844879 -0.810778 1.000000
7.291538 -7.477136 -0.869653 1.000000
16.145149 19.098444 -1.608450 6.000000
5.439855 0.161451 -0.597946 16.000000
7.042006 -2.889573 -0.812123 1.000000
7.056551 -7.289429 -0.837675 10.000000
16.314413 19.155819 -1.640357 7.000000
5.475083 0.142414 -0.602724 9.000000
6.962866 -2.886961 -0.800220 1.000000
7.107749 -7.393788 -0.834197 49.000000
16.470999 19.203474 -1.675959 7.000000
5.480538 0.122457 -0.603271 10.000000
7.053649 -2.954946 -0.806493 1.000000
