VERSION .7
FIELDS x y z intensity
SIZE 4 4 4 4
TYPE F F F F
COUNT 1 1 1 1
WIDTH 1217
HEIGHT 1
VIEWPOINT 0 0 0 1 0 0 0
POINTS 1217
DATA ascii
54.956226 50.041397 -1.167603 12.000000
36.724911 -3.516800 0.392796 154.000000
58.005196 -32.617592 1.312626 7.000000
35.423046 -47.110531 1.636112 9.000000
37.056252 -3.411514 0.389707 255.000000
58.264671 -32.483002 1.280853 4.000000
35.659710 -47.065163 1.587497 2.000000
22.243994 20.554937 -0.428201 7.000000
37.078468 -3.276553 0.389812 10.000000
58.891449 -32.550072 1.256756 3.000000
37.120323 -3.143179 0.370621 61.000000
59.018616 -32.351925 1.210049 15.000000
37.146667 -3.008327 0.357761 255.000000
59.343800 -32.247883 1.178910 5.000000
56.059200 52.938465 -0.915138 23.000000
37.176315 -2.886671 0.364461 255.000000
56.093342 53.360992 -0.878340 18.000000
52.963814 18.974220 -0.029458 7.000000
37.172287 -2.742808 0.351303 252.000000
42.967026 -22.942255 0.799187 51.000000
33.080460 -42.067974 1.195772 1.000000
56.327488 53.978386 -0.817009 13.000000
48.056751 17.415276 -0.008921 8.000000
37.197121 -2.607600 0.344937 27.000000
42.993534 -22.744694 0.755593 36.000000
33.153248 -41.858997 1.146494 8.000000
56.536144 54.577251 -0.768065 13.000000
47.870541 17.546556 0.008899 9.000000
43.826553 -2.910956 0.406311 35.000000
19.889950 -10.438028 0.337183 22.000000
33.297707 -41.726250 1.099586 15.000000
56.632549 55.053520 -0.703050 25.000000
47.860561 17.732655 0.026724 9.000000
19.777426 -10.286702 0.322959 173.000000
56.809383 55.631863 -0.652258 26.000000
19.859579 -10.237128 0.311985 216.000000
44.803619 -2.497067 0.407267 13.000000
19.966564 -10.204218 0.301361 207.000000
23.701536 23.553082 -0.227447 4.000000
20.093126 -10.176193 0.294843 188.000000
68.502228 26.501513 0.128194 22.000000
20.224262 -10.149641 0.284369 201.000000
51.188618 51.601250 -0.380576 181.000000
68.241615 26.688654 0.153467 20.000000
65.321838 -2.931975 0.559216 15.000000
20.333082 -10.111130 0.273485 199.000000
51.083527 51.874199 -0.330377 146.000000
20.458151 -10.084405 0.254785 159.000000
51.295177 52.472435 -0.268951 1.000000
67.217430 26.885056 0.214800 23.000000
43.420586 -21.205786 0.522917 29.000000
51.174515 52.715874 -0.217990 9.000000
66.937836 27.017464 0.239374 25.000000
43.462250 -21.029192 0.497203 31.000000
66.491005 27.120941 0.275730 24.000000
36.582539 -17.535267 0.396519 8.000000
58.231766 60.872219 -0.102919 25.000000
36.493122 -17.328209 0.380755 19.000000
58.170124 61.255684 -0.058975 16.000000
36.463196 -17.158276 0.344646 8.000000
36.498810 -17.011919 0.323305 18.000000
52.700462 56.297241 0.067296 1.000000
36.506538 -16.852928 0.308788 39.000000
29.795200 -33.701046 0.369010 9.000000
52.595814 56.599834 0.134853 9.000000
36.586395 -16.727392 0.287877 16.000000
29.739149 -33.390221 0.327775 10.000000
52.316189 56.674664 0.188464 20.000000
36.770523 -16.648907 0.274754 13.000000
29.879034 -33.312424 0.296791 14.000000
36.863361 -16.528400 0.253839 8.000000
30.094952 -33.306744 0.258546 10.000000
37.020264 -16.459263 0.240419 9.000000
62.944508 28.090544 0.505279 23.000000
37.556370 -16.533024 0.222020 8.000000
62.562824 28.195633 0.538974 23.000000
86.790756 0.499884 0.696827 4.000000
44.097851 -19.220068 0.243480 94.000000
62.171703 28.307072 0.572308 23.000000
84.613510 0.797487 0.679366 18.000000
44.131386 -19.042511 0.218111 39.000000
61.895573 28.429527 0.594408 23.000000
84.655022 1.108195 0.679727 1.000000
44.210152 -18.884594 0.201375 78.000000
52.826851 60.173893 0.656852 1.000000
61.572948 28.555092 0.627851 23.000000
44.223896 -18.699099 0.175984 50.000000
52.543808 60.274555 0.725729 1.000000
61.096378 28.606632 0.647608 22.000000
44.270504 -18.536913 0.159157 66.000000
52.312466 60.455097 0.767453 1.000000
60.778561 28.729895 0.657085 21.000000
80.124390 1.930213 0.615502 1.000000
44.352097 -18.380310 0.125690 97.000000
56.056236 26.749464 0.661295 29.000000
79.996605 2.220535 0.642515 15.000000
44.405308 -18.211945 0.117274 77.000000
56.561554 27.233397 0.679332 19.000000
44.439392 -18.035933 0.083706 87.000000
56.488113 27.453526 0.701580 20.000000
44.495949 -17.869217 0.066951 74.000000
37.203266 44.274319 0.767130 20.000000
56.673820 27.801022 0.760242 20.000000
44.561150 -17.706015 0.058582 51.000000
27.495543 -27.911375 -0.150440 14.000000
37.064251 44.422794 0.797754 20.000000
58.928196 29.175335 0.803390 21.000000
44.610344 -17.554497 0.025101 39.000000
27.503347 -27.734732 -0.184065 13.000000
36.961308 44.630947 0.849634 20.000000
58.717609 29.339527 0.836354 21.000000
44.595181 -17.360041 0.008352 38.000000
27.583490 -27.612391 -0.217983 12.000000
36.781025 44.746094 0.909925 20.000000
58.386620 29.429279 0.878752 21.000000
44.641506 -17.198875 0.000000 52.000000
27.715084 -27.551105 -0.238725 12.000000
36.636837 44.889198 0.950691 20.000000
57.935093 29.468475 0.884923 8.000000
44.690220 -17.029795 -0.033388 25.000000
27.889345 -27.502628 -0.280292 9.000000
36.421185 44.960369 0.999872 20.000000
57.608341 29.568546 0.915492 15.000000
44.730129 -16.839685 -0.050051 33.000000
36.097397 44.880066 1.045555 18.000000
57.232780 29.641314 0.944999 1.000000
44.796215 -16.677364 -0.066741 31.000000
35.838512 44.894131 1.092963 20.000000
57.039894 29.794390 0.977228 21.000000
44.832485 -16.521799 -0.083392 27.000000
35.694733 45.051693 1.153821 10.000000
56.695126 29.879303 1.029131 20.000000
29.605715 37.635666 0.994680 8.000000
56.351116 29.962423 1.036015 16.000000
29.442417 37.711700 1.035601 7.000000
56.037785 30.059790 1.065578 29.000000
45.016018 -16.029484 -0.141781 29.000000
29.377407 37.900436 1.079829 1.000000
56.011166 30.297760 1.100429 36.000000
45.034733 -15.841565 -0.158312 40.000000
55.767227 30.430536 1.153278 20.000000
45.120071 -15.703642 -0.158428 27.000000
53.257999 -49.594421 -0.952661 25.000000
55.379230 30.482763 1.158594 20.000000
45.139389 -15.525115 -0.191620 36.000000
20.228958 26.689337 0.847703 5.000000
55.108887 30.597670 1.210303 20.000000
62.855495 5.631820 0.583775 12.000000
45.162849 -15.348305 -0.191480 34.000000
52.841831 -48.488529 -1.038989 12.000000
19.935251 26.503059 0.868420 1.000000
54.752548 30.650347 1.237686 27.000000
63.014671 5.867881 0.585440 4.000000
45.242432 -15.190606 -0.208239 30.000000
19.919909 26.675993 0.900877 1.000000
54.508678 30.776764 1.267504 19.000000
60.812931 5.887758 0.575845 1.000000
19.913677 26.872536 0.940096 1.000000
54.273296 30.906744 1.297372 19.000000
60.770943 6.108598 0.586317 23.000000
45.342918 -14.855395 -0.241506 39.000000
52.429234 -47.042061 -1.192640 1.000000
54.202408 31.130013 1.331139 19.000000
60.862522 6.343215 0.587421 8.000000
45.349403 -14.673685 -0.257891 30.000000
52.464882 -46.760929 -1.238996 1.000000
19.728716 27.025087 0.998917 5.000000
45.431374 -14.516476 -0.274702 27.000000
47.340664 -41.854031 -1.158136 30.000000
19.623909 27.069561 1.021513 8.000000
53.288563 31.089436 1.378500 20.000000
58.674873 6.529599 0.587342 10.000000
27.493174 38.232628 1.488137 14.000000
53.084953 31.256952 1.419497 19.000000
58.707794 6.771957 0.587939 10.000000
53.004967 31.459536 1.452577 5.000000
58.951786 7.008705 0.600987 2.000000
45.451839 -13.982812 -0.298795 26.000000
51.418365 -44.492882 -1.376824 23.000000
27.170067 38.331089 1.566825 22.000000
56.387173 6.893507 0.584987 21.000000
45.631855 -13.855318 -0.316290 6.000000
27.006399 38.426224 1.615510 30.000000
52.129440 31.458899 1.509295 24.000000
53.784554 6.794569 0.567728 19.000000
35.265068 -10.566610 -0.257015 6.000000
24.644760 35.314301 1.511335 7.000000
51.846577 31.548006 1.536241 18.000000
54.170795 7.045172 0.572074 7.000000
35.092499 -10.374888 -0.268253 6.000000
50.883022 -43.045177 -1.500819 9.000000
26.712030 38.591461 1.696397 14.000000
51.603355 31.647360 1.564015 18.000000
54.283268 7.262220 0.583098 1.000000
35.082199 -10.232172 -0.280643 5.000000
26.467028 38.509762 1.729771 14.000000
51.233791 31.654991 1.587541 10.000000
35.129032 -10.106274 -0.287099 5.000000
50.554939 -42.165649 -1.574390 10.000000
26.325777 38.592148 1.778323 19.000000
51.158653 31.868238 1.641457 1.000000
33.328331 -9.456102 -0.284191 37.000000
50.377159 -41.705238 -1.609768 17.000000
26.200075 38.711899 1.820257 19.000000
33.266365 -9.306914 -0.295429 211.000000
50.218796 -41.235508 -1.644797 28.000000
26.010777 38.722713 1.865411 21.000000
50.443417 31.950651 1.699164 13.000000
78.042206 11.566028 0.922612 9.000000
33.280922 -9.179592 -0.301284 184.000000
50.446182 -41.113586 -1.692761 2.000000
25.834518 38.766537 1.903669 14.000000
50.196884 32.028233 1.746433 23.000000
78.008682 11.853416 0.964043 3.000000
33.285397 -9.049681 -0.301022 188.000000
50.399189 -40.797894 -1.709285 2.000000
25.620953 38.738411 1.938484 14.000000
50.194382 32.298496 1.792355 9.000000
33.308582 -8.925008 -0.312972 237.000000
49.969749 -40.133652 -1.745452 3.000000
25.532667 38.914158 1.983271 10.000000
50.350410 32.635502 1.833227 20.000000
33.316841 -8.796469 -0.318759 248.000000
49.616444 -39.565769 -1.761529 23.000000
25.370995 38.963608 2.030046 13.000000
50.388626 32.923172 1.870545 30.000000
44.013958 7.183900 0.568229 100.000000
33.305202 -8.662942 -0.330355 254.000000
49.494656 -39.186806 -1.796446 27.000000
25.153673 38.941242 2.072706 12.000000
50.523643 33.288906 1.922570 18.000000
43.998383 7.339124 0.576142 255.000000
33.244595 -8.517209 -0.341423 178.000000
49.381516 -38.803627 -1.831047 1.000000
24.992147 38.989117 2.119194 13.000000
51.094425 33.908504 2.002128 15.000000
44.015236 7.507850 0.600102 255.000000
33.191772 -8.380320 -0.334602 104.000000
24.840034 39.066235 2.158909 8.000000
50.794769 33.978462 2.016607 18.000000
44.007229 7.672576 0.592574 255.000000
33.542259 -8.338156 -0.361957 3.000000
24.657194 39.079288 2.195274 11.000000
50.853016 34.300793 2.077723 19.000000
43.988338 7.835516 0.616102 255.000000
33.635796 -8.230626 -0.356594 1.000000
24.507267 39.158966 2.243177 8.000000
50.878620 34.564095 2.115684 19.000000
43.983818 8.001144 0.624249 62.000000
35.546722 -8.560265 -0.389282 16.000000
28.050636 -21.384335 -1.120798 25.000000
24.334925 39.187103 2.288331 9.000000
50.960636 34.893475 2.167568 19.000000
71.716629 13.317787 1.031272 12.000000
39.445477 -9.346326 -0.438676 5.000000
27.972923 -21.163431 -1.132971 15.000000
24.173937 39.248112 2.343162 8.000000
51.096069 35.248817 2.232788 19.000000
27.917948 -20.961390 -1.145924 17.000000
24.038317 39.334759 2.383646 9.000000
51.129341 35.549053 2.283453 19.000000
27.765533 -20.688253 -1.160748 14.000000
23.823021 39.305511 2.416784 8.000000
51.253593 35.901485 2.327394 19.000000
27.623545 -20.425430 -1.175686 24.000000
51.361149 36.258160 2.382251 20.000000
27.480169 -20.164047 -1.184299 18.000000
23.500151 39.406227 2.508945 7.000000
51.454178 36.607143 2.447960 20.000000
27.407961 -19.956934 -1.195800 27.000000
23.325512 39.425579 2.553095 8.000000
51.531780 36.933956 2.502101 20.000000
93.943466 19.557377 1.540927 9.000000
27.257650 -19.695019 -1.203715 18.000000
23.154457 39.465813 2.590244 8.000000
51.674084 37.323395 2.560208 20.000000
27.251986 -19.539295 -1.217875 8.000000
22.859499 39.276554 2.620315 1.000000
51.744381 37.649715 2.603747 21.000000
27.074541 -19.262218 -1.224203 10.000000
22.598585 39.141895 2.653543 1.000000
51.773022 37.961552 2.679515 31.000000
66.577660 14.601507 1.165938 23.000000
38.364521 -7.763521 -0.471403 37.000000
26.997307 -19.058620 -1.240647 10.000000
22.499760 39.270897 2.696850 2.000000
51.720406 38.215240 2.728998 20.000000
66.460068 14.831229 1.176711 29.000000
38.375263 -7.633315 -0.478051 37.000000
26.927126 -18.861580 -1.257221 16.000000
22.125362 38.963516 2.724828 5.000000
51.737045 38.507450 2.793337 21.000000
38.768829 -7.549942 -0.475678 28.000000
26.782375 -18.614235 -1.258671 22.000000
22.039755 39.146206 2.779158 5.000000
51.793396 38.845192 2.860653 15.000000
33.728275 7.780586 0.640450 6.000000
38.747208 -7.398435 -0.468191 8.000000
26.677309 -18.396572 -1.261884 19.000000
21.815180 39.033665 2.821134 8.000000
51.957954 39.252743 2.945621 12.000000
33.772095 7.921173 0.666055 1.000000
41.636398 -7.807084 -0.502786 5.000000
26.595747 -18.196856 -1.266129 21.000000
21.745247 39.245617 2.885711 7.000000
52.089863 39.653114 3.018568 13.000000
33.718174 8.039021 0.683725 7.000000
26.525671 -18.006531 -1.265247 27.000000
21.715494 39.191917 2.905321 7.000000
33.728344 8.035226 0.732335 6.000000
26.514174 -17.998726 -1.236690 23.000000
21.904007 39.208675 2.888599 8.000000
51.997608 39.282703 3.061851 13.000000
41.749142 -7.835768 -0.400359 8.000000
26.663509 -18.243219 -1.212885 21.000000
21.983482 39.046257 2.850578 6.000000
51.915508 38.936775 3.026292 7.000000
38.739491 -7.417986 -0.364871 8.000000
26.753466 -18.449089 -1.197325 9.000000
22.298229 39.283901 2.834015 4.000000
51.799118 38.553646 2.966074 13.000000
38.761299 -7.569543 -0.344655 21.000000
26.867048 -18.673084 -1.176873 9.000000
22.455679 39.225697 2.796138 6.000000
51.647617 38.147518 2.926913 20.000000
66.277229 14.778284 1.434261 16.000000
38.341064 -7.633468 -0.334341 36.000000
22.481419 38.954659 2.742997 5.000000
51.813904 37.991528 2.895093 18.000000
66.716461 14.619743 1.454522 20.000000
38.352196 -7.781932 -0.314193 30.000000
22.951370 39.434402 2.750712 4.000000
51.783978 37.678528 2.863286 20.000000
27.431627 -19.516268 -1.140336 1.000000
23.027185 39.248886 2.695539 6.000000
51.664940 37.316792 2.827193 20.000000
93.481476 19.767807 2.018143 7.000000
27.182016 -19.489130 -1.103701 3.000000
23.286207 39.359146 2.676918 4.000000
51.470028 36.889698 2.764815 20.000000
93.843903 19.502474 2.007750 18.000000
27.354055 -19.764677 -1.090035 21.000000
23.469288 39.323269 2.632469 6.000000
51.451374 36.591621 2.723469 20.000000
27.484041 -20.012331 -1.074371 12.000000
23.644234 39.319519 2.605317 8.000000
51.334705 36.239491 2.688607 20.000000
27.540192 -20.208090 -1.049616 20.000000
23.823912 39.306980 2.569743 6.000000
51.215027 35.874470 2.631701 19.000000
79.174759 -17.857323 -0.481640 1.000000
27.615208 -20.419266 -1.031321 24.000000
23.976053 39.217487 2.521609 9.000000
51.207443 35.590099 2.602785 19.000000
79.204994 -18.198570 -0.439711 1.000000
27.769329 -20.691082 -1.009655 20.000000
24.051907 39.049984 2.483840 8.000000
51.102200 35.253044 2.558603 19.000000
79.396027 -18.549086 -0.398454 1.000000
27.865726 -20.922180 -0.991594 14.000000
24.322437 39.166992 2.456586 6.000000
51.051121 34.942348 2.506355 19.000000
71.573257 13.252398 1.486600 16.000000
39.568954 -9.397468 -0.184554 2.000000
27.976734 -21.166315 -0.973787 15.000000
24.502516 39.151375 2.420538 7.000000
50.921417 34.593170 2.472520 19.000000
43.965416 7.989870 0.920423 102.000000
35.491943 -8.560181 -0.159304 5.000000
28.086454 -21.411642 -0.949488 20.000000
24.702921 39.151760 2.385635 9.000000
50.775501 34.222725 2.427216 30.000000
43.994720 7.828731 0.904825 255.000000
33.427017 -8.185722 -0.144157 1.000000
24.786953 38.982754 2.340176 8.000000
50.781548 33.956791 2.378825 19.000000
44.003571 7.664025 0.896624 255.000000
33.430843 -8.316655 -0.120253 7.000000
25.023441 39.052937 2.317156 7.000000
50.625366 33.597214 2.355380 18.000000
44.011501 7.499308 0.904015 255.000000
33.190247 -8.392260 -0.113527 180.000000
25.148745 38.933609 2.266873 8.000000
50.562065 33.288918 2.293837 22.000000
44.013214 7.341598 0.880146 255.000000
33.217411 -8.528781 -0.101755 174.000000
49.364384 -38.790165 -1.523383 10.000000
25.362030 38.934975 2.223833 9.000000
50.375500 32.902054 2.237822 28.000000
44.037548 7.164080 0.872260 52.000000
33.268215 -8.671922 -0.090007 247.000000
49.432617 -39.165768 -1.475260 1.000000
25.458969 38.801838 2.188566 9.000000
50.263954 32.579464 2.217333 29.000000
33.303894 -8.811707 -0.084177 252.000000
49.643429 -39.601463 -1.430016 26.000000
25.624310 38.743484 2.141808 12.000000
50.157360 32.249924 2.165715 13.000000
33.300369 -8.941498 -0.072215 254.000000
49.875851 -40.072559 -1.396044 21.000000
25.857367 38.800819 2.109179 13.000000
50.212982 32.026169 2.131809 17.000000
78.209518 11.869967 1.532708 27.000000
33.272209 -9.064808 -0.066206 248.000000
50.001369 -40.475861 -1.358768 1.000000
26.033848 38.757057 2.071148 14.000000
33.277340 -9.197357 -0.054232 255.000000
50.124580 -40.880611 -1.321003 9.000000
26.155779 38.646450 2.037462 14.000000
33.253056 -9.321969 -0.036165 221.000000
50.230202 -41.274235 -1.271008 23.000000
26.359974 38.642281 2.009604 14.000000
51.127483 31.836439 2.071682 1.000000
53.854202 7.578300 1.053737 9.000000
33.255642 -9.441751 -0.024134 22.000000
50.572151 -41.866669 -1.237683 17.000000
26.521345 38.588795 1.962502 14.000000
51.352024 31.752811 2.023980 16.000000
50.637684 -42.234665 -1.208529 10.000000
26.697512 38.541729 1.932284 14.000000
51.552105 31.591171 2.005722 34.000000
53.586571 7.140456 1.028570 21.000000
50.609634 -42.526768 -1.153866 1.000000
24.619879 35.278648 1.735383 10.000000
51.899044 31.542709 1.982875 18.000000
53.815830 6.970354 1.022999 20.000000
50.911907 -43.100113 -1.117768 10.000000
27.012072 38.405785 1.844819 27.000000
52.138100 31.439302 1.955891 18.000000
53.950306 6.786811 1.015582 21.000000
27.207548 38.398174 1.807874 18.000000
53.017605 31.705252 1.941342 1.000000
56.454762 6.901770 1.062267 16.000000
45.568211 -13.844681 0.058185 9.000000
51.411396 -44.158367 -1.017328 1.000000
27.363527 38.319794 1.767743 18.000000
53.005360 31.434753 1.904364 9.000000
45.443031 -13.997467 0.066392 33.000000
51.469002 -44.536701 -0.974164 27.000000
27.510519 38.228592 1.727018 10.000000
53.089775 31.234838 1.871185 19.000000
58.714306 6.741559 1.083187 9.000000
45.381847 -14.160943 0.082973 8.000000
19.629175 27.076826 1.202934 8.000000
53.320732 31.108206 1.864510 19.000000
58.688747 6.520773 1.092577 19.000000
45.506256 -14.365533 0.099944 9.000000
47.595909 -41.799313 -0.818170 10.000000
19.675840 26.932909 1.170592 5.000000
45.362778 -14.503286 0.116370 16.000000
47.311745 -41.857899 -0.771809 24.000000
54.251583 31.120493 1.812554 19.000000
60.858418 6.310577 1.121394 2.000000
45.342579 -14.680219 0.133092 9.000000
19.821623 26.728800 1.109709 1.000000
54.273819 30.881958 1.776961 24.000000
60.765858 6.086662 1.108628 24.000000
45.278481 -14.860540 0.149712 22.000000
20.073883 26.872406 1.089271 4.000000
54.622517 30.815899 1.751804 20.000000
45.271610 -15.024766 0.166504 9.000000
20.004498 26.575804 1.051156 3.000000
54.823128 30.664732 1.721705 34.000000
62.785229 5.824409 1.133651 6.000000
45.225628 -15.193748 0.191520 20.000000
52.804493 -48.098957 -0.648269 19.000000
20.247288 26.694157 1.029499 1.000000
55.118557 30.577871 1.694593 24.000000
62.955540 5.607557 1.136348 19.000000
45.160103 -15.356165 0.208130 20.000000
52.996479 -48.630436 -0.615146 25.000000
55.452240 30.522949 1.679620 20.000000
44.850838 -15.425871 0.223508 9.000000
53.471783 -49.428810 -0.559212 3.000000
29.301577 38.062614 1.392077 1.000000
55.799145 30.422680 1.642015 20.000000
44.973358 -15.652580 0.241025 21.000000
53.312489 -49.645161 -0.508585 12.000000
29.284924 37.767506 1.343275 4.000000
56.060532 30.299171 1.613040 24.000000
29.451563 37.696281 1.302794 9.000000
56.215153 30.129669 1.581037 19.000000
29.565483 37.557537 1.259993 6.000000
52.971096 28.141518 1.455462 7.000000
36.187389 45.640759 1.484537 20.000000
37.166328 -13.549481 0.262370 8.000000
36.198853 45.345520 1.438297 21.000000
44.880177 -16.548273 0.333949 25.000000
36.368710 45.217392 1.387782 21.000000
44.805058 -16.707373 0.350536 10.000000
36.479588 45.032463 1.355645 20.000000
44.751026 -16.865391 0.367266 33.000000
36.509216 44.732834 1.300229 20.000000
44.651413 -17.015007 0.383638 24.000000
27.958748 -27.590328 -0.027423 8.000000
36.853130 44.833817 1.256225 20.000000
58.342506 29.407045 1.414200 31.000000
44.611946 -17.187487 0.400527 40.000000
27.765245 -27.600969 0.000000 14.000000
37.008327 44.687721 1.205267 21.000000
58.715054 29.312641 1.386114 21.000000
44.571743 -17.359877 0.425782 37.000000
27.668720 -27.697708 0.034165 11.000000
36.996384 44.341454 1.149161 20.000000
56.554485 28.000113 1.310871 9.000000
44.549545 -17.539551 0.442895 40.000000
27.545868 -27.777609 0.061450 16.000000
37.357517 44.457890 1.094717 21.000000
56.441910 27.687260 1.272970 10.000000
44.531273 -17.721146 0.460088 82.000000
27.549055 -27.985229 0.095955 11.000000
56.561584 27.489233 1.240447 20.000000
44.450436 -17.868961 0.476619 45.000000
56.711891 27.305782 1.219561 7.000000
44.426094 -18.048599 0.502174 37.000000
56.135178 26.787136 1.172561 30.000000
80.173157 2.197428 1.371949 9.000000
44.364105 -18.213139 0.518967 38.000000
44.306114 -18.379377 0.535819 67.000000
61.211750 28.660654 1.203376 22.000000
44.247414 -18.545401 0.561051 64.000000
61.502716 28.522520 1.183360 22.000000
44.211189 -18.721020 0.578220 57.000000
61.889061 28.426537 1.153111 23.000000
44.168266 -18.884935 0.603673 82.000000
62.311340 28.357519 1.135224 16.000000
84.899086 0.770541 1.452335 6.000000
44.089382 -19.042646 0.620311 57.000000
86.786537 0.469565 1.454280 22.000000
44.032936 -19.210068 0.628890 43.000000
37.502007 -16.524721 0.550782 8.000000
37.025169 -16.476927 0.572960 8.000000
36.852871 -16.531422 0.578101 9.000000
30.024866 -33.252506 0.516105 10.000000
52.860592 57.264420 0.639297 6.000000
36.679459 -16.623104 0.604498 16.000000
29.848154 -33.289684 0.561890 15.000000
53.067009 57.066944 0.584853 8.000000
103.517517 -1.282838 1.734748 106.000000
36.600002 -16.749063 0.611223 19.000000
29.742292 -33.417229 0.593436 10.000000
53.163338 56.751991 0.515753 13.000000
103.477989 -1.607497 1.734162 168.000000
36.506405 -16.868326 0.624729 34.000000
29.649126 -33.559422 0.625296 1.000000
103.585739 -1.988948 1.772254 55.000000
36.443825 -17.001778 0.659823 8.000000
58.256214 61.303467 0.428045 24.000000
36.421867 -17.154360 0.667588 9.000000
36.524105 -17.358545 0.684689 8.000000
66.607338 27.181952 0.828729 16.000000
36.581604 -17.550526 0.708219 8.000000
66.920158 27.023914 0.793590 24.000000
43.475670 -21.035686 0.859898 33.000000
51.443108 52.587025 0.141235 9.000000
67.214012 26.856478 0.770633 12.000000
43.489269 -21.258135 0.887202 29.000000
51.564667 52.362789 0.064132 8.000000
65.385582 -2.683310 1.107996 8.000000
20.433374 -10.072191 0.429462 182.000000
51.242558 51.619576 0.000000 105.000000
68.294258 26.709242 0.729552 14.000000
65.320374 -2.920486 1.107064 9.000000
20.300362 -10.103698 0.439356 201.000000
68.536591 26.514809 0.692617 21.000000
65.259682 -3.157480 1.083411 22.000000
20.196047 -10.144307 0.445792 199.000000
23.596754 23.432589 -0.046433 6.000000
44.728146 -2.328447 0.750512 13.000000
20.069342 -10.172951 0.455601 196.000000
19.941805 -10.191565 0.465202 199.000000
56.793179 55.615993 -0.235851 22.000000
47.913757 17.942822 0.428634 7.000000
43.901413 -2.608225 0.736941 15.000000
19.844555 -10.238153 0.475544 194.000000
56.580631 55.003048 -0.289220 19.000000
47.879505 17.749176 0.392147 9.000000
43.972229 -2.758793 0.745971 6.000000
19.757202 -10.276184 0.478153 152.000000
33.562241 -41.757935 1.318671 1.000000
56.462715 54.506371 -0.356130 22.000000
47.866047 17.525957 0.364766 10.000000
43.876511 -2.921966 0.744532 37.000000
19.860899 -10.422783 0.489417 13.000000
33.329250 -41.795692 1.362492 17.000000
56.282879 53.935638 -0.408170 18.000000
48.113426 17.416817 0.348300 7.000000
37.167988 -2.612077 0.630855 71.000000
42.984470 -22.759104 1.086761 37.000000
33.078930 -41.795128 1.405058 9.000000
56.161057 53.425407 -0.487038 19.000000
37.203140 -2.751613 0.625106 255.000000
42.949162 -22.951986 1.113599 36.000000
55.989414 52.835602 -0.524016 11.000000
53.167271 18.817076 0.344526 16.000000
37.177635 -2.886773 0.637871 255.000000
59.478401 -32.066006 1.580611 1.000000
37.122074 -3.019378 0.630601 207.000000
59.061146 -32.120995 1.607862 6.000000
37.140644 -3.157958 0.631109 32.000000
58.984234 -32.333076 1.643919 3.000000
22.311361 20.617189 -0.281018 8.000000
37.094425 -3.284488 0.637016 249.000000
58.660774 -32.422573 1.649753 6.000000
35.840183 -46.995895 1.795427 3.000000
37.062225 -3.418587 0.636674 255.000000
58.339954 -32.524971 1.679067 8.000000
35.490944 -46.876400 1.837476 6.000000
55.033619 50.111870 -0.818439 26.000000
37.034626 -3.552982 0.629924 102.000000
58.058903 -32.647793 1.686044 5.000000
35.567276 -47.336742 1.891776 4.000000
54.619328 49.369671 -0.860988 10.000000
75.884521 24.993597 0.264941 28.000000
36.773899 -3.651078 0.625692 26.000000
57.639435 -32.677258 1.711880 7.000000
54.628155 49.015038 -0.922347 1.000000
53.918545 17.540009 0.168232 5.000000
36.869568 -3.797092 0.634023 9.000000
57.292862 -32.758835 1.739721 9.000000
54.622849 48.667183 -0.983237 6.000000
53.930164 17.325464 0.148296 5.000000
57.071758 -32.910561 1.782684 5.000000
54.796577 48.462868 -1.034241 1.000000
53.833088 17.087204 0.128149 9.000000
56.859203 -33.066280 1.814284 7.000000
55.164753 48.429310 -1.101905 1.000000
41.936104 -24.603767 1.366594 6.000000
55.590042 48.443050 -1.158336 1.000000
41.914310 -24.778179 1.377059 9.000000
53.929012 46.648914 -1.169948 17.000000
41.569302 -24.780277 1.394059 32.000000
53.821949 46.212524 -1.225867 21.000000
41.541889 -24.960886 1.421451 19.000000
53.799885 45.852097 -1.283235 26.000000
41.590324 -25.197918 1.460237 9.000000
53.981815 45.682808 -1.333150 26.000000
39.931828 -24.393629 1.429660 10.000000
42.442230 -5.776134 0.747661 11.000000
39.863216 -24.552797 1.438595 9.000000
53.219494 44.372292 -1.403041 16.000000
42.579075 -5.953789 0.757957 11.000000
54.429306 -33.787067 2.013273 15.000000
53.138180 43.975349 -1.456856 19.000000
42.299778 -6.072885 0.745916 6.000000
54.083923 -33.847908 2.038513 15.000000
53.051212 43.607780 -1.498464 26.000000
60.430054 16.792818 -0.087574 18.000000
42.440315 -6.251904 0.756283 3.000000
53.848701 -33.976002 2.067700 15.000000
76.978622 21.087851 -0.167164 126.000000
45.214806 -6.830025 0.814148 7.000000
53.509880 -34.023941 2.081396 14.000000
13.091088 10.593390 -0.396864 3.000000
77.086655 20.785145 -0.222955 13.000000
45.194542 -6.996485 0.806255 8.000000
40.219872 -25.781067 1.593156 9.000000
13.223383 10.628074 -0.408692 1.000000
45.143768 -7.158148 0.813792 9.000000
40.061447 -25.887169 1.615631 25.000000
13.320377 10.618300 -0.425244 1.000000
37.119148 -6.018639 0.676074 10.000000
52.679646 -34.302135 2.151292 9.000000
13.290498 10.518820 -0.434956 1.000000
37.220013 -6.175082 0.684906 9.000000
52.423119 -34.409363 2.178824 13.000000
42.817692 -65.883102 3.774199 1.000000
13.478020 10.587124 -0.454786 1.000000
37.034599 -6.283882 0.675355 34.000000
52.154324 -34.507103 2.194751 14.000000
42.682732 -66.205254 3.838789 1.000000
12.956740 10.101083 -0.447423 1.000000
33.634407 8.429660 -0.151298 3.000000
36.981651 -6.414432 0.681367 34.000000
51.895386 -34.596840 2.221621 9.000000
13.044751 10.093044 -0.463586 1.000000
33.422249 8.246412 -0.174240 19.000000
37.085991 -6.572635 0.677153 29.000000
51.730259 -34.761292 2.241775 9.000000
13.105181 10.063230 -0.475964 1.000000
33.408493 8.113233 -0.180012 196.000000
38.798023 -7.022819 0.715762 10.000000
12.787792 9.745214 -0.479988 1.000000
33.467052 7.997671 -0.204192 248.000000
12.974624 9.812631 -0.497014 1.000000
33.515575 7.879524 -0.210320 209.000000
44.789448 -8.438767 0.827387 9.000000
13.122064 9.848743 -0.515608 1.000000
33.558731 7.759983 -0.228446 215.000000
38.764069 -7.450751 0.709689 36.000000
42.020565 -29.118126 1.937153 6.000000
12.769635 9.518192 -0.514429 1.000000
33.601410 7.640220 -0.252603 199.000000
38.778522 -7.586960 0.703512 22.000000
41.769913 -29.171619 1.939418 8.000000
12.868352 9.518603 -0.530980 1.000000
33.692486 7.531163 -0.271156 224.000000
38.598583 -7.698748 0.693883 8.000000
12.842348 9.426743 -0.542396 1.000000
33.734371 7.410810 -0.289358 197.000000
13.174705 9.589561 -0.566192 1.000000
33.810078 7.297645 -0.301851 9.000000
33.880455 7.182974 -0.320378 1.000000
37.441719 -7.890208 0.674582 8.000000
49.387630 -35.567093 2.423183 1.000000
49.076813 -35.604073 2.424615 1.000000
39.146008 -8.556684 0.615484 7.000000
48.936573 -35.776825 2.339376 1.000000
39.118961 -8.400662 0.579646 8.000000
49.114136 -35.631149 2.267368 18.000000
34.007504 7.203707 -0.448993 1.000000
37.550220 -7.919917 0.529171 9.000000
49.393879 -35.571594 2.221344 27.000000
33.765678 7.281894 -0.458209 4.000000
49.664322 -35.490650 2.152969 24.000000
33.743721 7.406692 -0.452246 85.000000
38.659958 -7.865458 0.488907 11.000000
49.870632 -35.375751 2.113808 32.000000
12.733806 9.419081 -0.594625 1.000000
33.677158 7.521565 -0.463767 111.000000
38.566200 -7.699288 0.466767 10.000000
50.181248 -35.320339 2.067859 38.000000
12.919784 9.630110 -0.596505 1.000000
33.576233 7.628333 -0.462759 99.000000
38.736683 -7.585793 0.447820 18.000000
50.413067 -35.194805 1.985888 29.000000
12.828714 9.635572 -0.585514 1.000000
33.557873 7.753615 -0.456882 168.000000
38.734921 -7.438138 0.433712 18.000000
50.637127 -35.102047 1.957824 32.000000
12.689330 9.596865 -0.572261 1.000000
33.500023 7.869698 -0.456484 162.000000
44.797813 -8.448441 0.477409 23.000000
50.906834 -35.013470 1.909305 32.000000
12.825204 9.773725 -0.571546 1.000000
33.422401 7.980835 -0.449824 139.000000
44.849670 -8.280013 0.469658 24.000000
51.120640 -34.898293 1.869492 33.000000
12.817274 9.842152 -0.564325 1.000000
33.388073 8.102102 -0.449758 134.000000
38.459393 -6.954591 0.382005 10.000000
51.410919 -34.820896 1.821193 32.000000
33.465019 8.250770 -0.445183 3.000000
37.431122 -6.627065 0.364912 10.000000
51.630169 -34.667881 1.780562 34.000000
33.672195 8.432884 -0.448347 1.000000
44.989998 -7.811561 0.414437 26.000000
51.898106 -34.611732 1.731562 30.000000
33.776802 8.590767 -0.444072 1.000000
45.114723 -7.646784 0.407313 32.000000
52.200439 -34.537617 1.704617 36.000000
42.442944 -65.782890 3.390688 1.000000
45.116550 -7.485178 0.399108 34.000000
52.490620 -34.453667 1.666091 35.000000
42.851513 -65.884796 3.335301 1.000000
12.960390 10.335037 -0.526734 1.000000
73.605637 19.282619 -0.916373 16.000000
45.160931 -7.338743 0.391297 36.000000
52.711803 -34.336178 1.636336 30.000000
12.893278 10.355351 -0.516805 1.000000
72.906189 19.385210 -0.921712 18.000000
45.234669 -7.164467 0.367702 27.000000
40.088558 -25.904688 1.199836 9.000000
12.847745 10.396475 -0.504954 1.000000
72.574287 19.582047 -0.892174 18.000000
45.226097 -6.993288 0.359434 35.000000
40.125294 -25.710564 1.164682 27.000000
12.871734 10.494189 -0.498702 1.000000
59.964268 16.415617 -0.737890 13.000000
45.273933 -6.847039 0.335655 26.000000
53.555851 -34.066299 1.495809 21.000000
45.417500 -6.698574 0.328522 9.000000
53.858562 -33.982224 1.467413 31.000000
53.097187 43.941429 -1.985343 9.000000
54.110943 -33.864819 1.415163 15.000000
61.483437 -90.232803 3.946521 10.000000
53.220901 44.373466 -1.947622 16.000000
70.813591 20.225241 -0.835515 1.000000
42.488644 -5.956266 0.277066 7.000000
40.058594 -24.876116 1.012439 26.000000
61.784554 -89.964340 3.849295 10.000000
70.534798 20.398838 -0.833019 1.000000
45.923588 -6.266254 0.283134 9.000000
40.264866 -24.800184 0.990576 5.000000
62.077724 -89.718513 3.733638 10.000000
53.876518 45.593700 -1.897498 26.000000
43.948853 -5.832804 0.263088 8.000000
55.159187 -33.695744 1.297522 8.000000
53.759495 45.833870 -1.849925 26.000000
43.831131 -5.653779 0.254544 11.000000
55.606224 -33.702862 1.271203 3.000000
53.887623 46.285252 -1.822940 24.000000
55.880276 -33.589531 1.217727 3.000000
53.964840 46.679905 -1.781207 9.000000
37.548149 -4.563775 0.198050 85.000000
55.870605 -33.305565 1.169424 6.000000
77.727142 24.060572 -0.809486 20.000000
37.495132 -4.417935 0.191094 255.000000
56.215107 -33.245522 1.139991 1.000000
37.460686 -4.281353 0.184261 255.000000
56.466457 -33.115429 1.108334 3.000000
54.124531 17.169312 -0.535178 3.000000
37.411556 -4.136883 0.177374 255.000000
56.829960 -33.049274 1.078652 7.000000
53.773880 17.264904 -0.532304 1.000000
37.337032 -3.990178 0.163842 246.000000
57.081436 -32.916142 1.023612 1.000000
54.659683 49.060551 -1.576992 20.000000
75.749901 24.656490 -0.723007 1.000000
37.291752 -3.847150 0.157037 255.000000
57.474174 -32.875820 0.993914 9.000000
54.811546 49.543411 -1.534750 28.000000
75.724937 24.926388 -0.695723 8.000000
36.310547 -3.611474 0.146480 255.000000
57.755634 -32.756454 0.961925 1.000000
35.037033 -46.937359 1.441704 1.000000
55.018467 50.098072 -1.493705 28.000000
75.482315 25.182806 -0.652750 7.000000
36.741627 -3.518401 0.148166 156.000000
58.063118 -32.650162 0.930160 6.000000
35.327572 -46.983559 1.395574 8.000000
55.060143 50.506386 -1.434625 25.000000
74.825256 25.239649 -0.634005 12.000000
37.023159 -3.408467 0.142761 183.000000
58.230980 -32.464218 0.884385 8.000000
35.542522 -46.910492 1.345875 1.000000
22.223982 20.536444 -0.565167 8.000000
73.790741 25.192297 -0.612408 22.000000
37.020512 -3.271431 0.129730 138.000000
58.536991 -32.367496 0.840605 1.000000
35.831226 -46.950157 1.288714 1.000000
55.289440 51.432095 -1.357632 12.000000
73.239716 25.304276 -0.581550 21.000000
37.100925 -3.154581 0.123476 38.000000
58.949345 -32.313953 0.809616 9.000000
55.528267 52.071613 -1.302167 15.000000
72.778519 25.443905 -0.551711 25.000000
37.107777 -3.011696 0.123459 198.000000
59.313763 -32.231560 0.777642 5.000000
72.062744 25.490450 -0.520307 27.000000
37.128559 -2.876443 0.116993 202.000000
71.531197 25.597792 -0.490622 18.000000
37.117950 -2.751826 0.116930 177.000000
42.935581 -22.935095 0.509766 58.000000
56.408215 54.017990 -1.158743 13.000000
48.038425 17.389666 -0.312089 6.000000
44.888535 -3.162531 0.133517 20.000000
42.984234 -22.758980 0.483881 37.000000
33.106174 -41.799564 0.930737 7.000000
56.523319 54.526768 -1.124074 23.000000
47.803749 17.493689 -0.302075 8.000000
45.049534 -3.007982 0.118202 9.000000
19.864807 -10.424835 0.203611 14.000000
33.335587 -41.803638 0.877277 9.000000
56.630825 55.071072 -1.061652 20.000000
47.828499 17.701790 -0.284836 8.000000
45.375633 -2.846842 0.119027 16.000000
19.761032 -10.278176 0.190496 185.000000
58.542946 -72.812744 1.435079 79.000000
56.686737 55.473007 -1.010581 24.000000
19.861744 -10.247021 0.179435 207.000000
58.463825 -72.248360 1.362669 170.000000
69.320549 26.235540 -0.362217 10.000000
78.847404 -4.394450 0.192960 158.000000
19.963354 -10.202578 0.168259 201.000000
64.790863 -79.413139 1.395348 2.000000
23.643816 23.495722 -0.378165 6.000000
68.873756 26.355440 -0.347514 15.000000
78.888718 -4.092964 0.165447 136.000000
20.085461 -10.172311 0.153254 192.000000
65.274872 -79.438660 1.292103 2.000000
68.501785 26.501341 -0.294846 16.000000
79.101593 -3.841036 0.179688 148.000000
20.234373 -10.154716 0.146202 196.000000
51.243305 51.656376 -0.698483 58.000000
68.045723 26.612041 -0.267797 20.000000
79.145103 -3.552433 0.179756 191.000000
20.334179 -10.111675 0.138727 194.000000
51.074928 51.865471 -0.660657 148.000000
67.650192 26.743637 -0.253927 9.000000
20.445694 -10.078264 0.119354 108.000000
51.245678 52.385204 -0.601154 17.000000
67.087479 26.805918 -0.226964 15.000000
43.419693 -21.224123 0.236184 32.000000
66.789574 26.957623 -0.201131 21.000000
43.464138 -21.030106 0.210682 35.000000
58.328499 60.506508 -0.557403 25.000000
66.324661 27.053091 -0.162523 18.000000
36.552452 -17.520845 0.155643 13.000000
58.231350 60.829258 -0.485012 19.000000
65.873787 27.151215 -0.136790 11.000000
36.476475 -17.320305 0.133905 25.000000
58.163216 61.205608 -0.427362 24.000000
60.821232 25.329891 -0.091993 21.000000
36.425182 -17.148155 0.119454 8.000000
58.419060 61.927803 -0.356612 25.000000
65.110817 27.396816 -0.073974 18.000000
36.495346 -17.010305 0.098386 31.000000
52.914680 56.486549 -0.256668 1.000000
64.784515 27.539438 -0.036859 20.000000
86.919136 -1.365435 0.151721 1.000000
36.475773 -16.838726 0.077130 108.000000
29.660156 -33.548298 0.187573 10.000000
52.829979 56.812046 -0.203104 13.000000
64.444252 27.674114 -0.012241 10.000000
86.878555 -1.046309 0.151643 1.000000
36.591846 -16.729885 0.056179 24.000000
29.763063 -33.417072 0.148396 10.000000
52.662189 57.049488 -0.135507 21.000000
63.989429 27.743753 0.024346 9.000000
86.776817 -0.726997 0.151460 1.000000
36.697231 -16.631159 0.042192 25.000000
29.884659 -33.342098 0.109406 13.000000
52.294018 57.068905 -0.094568 13.000000
63.539234 27.825666 0.036319 22.000000
86.003975 -0.405287 0.105075 1.000000
36.826382 -16.527262 0.014090 27.000000
30.077091 -33.310341 0.062664 8.000000
52.000305 57.147591 -0.026971 1.000000
63.259087 27.953352 0.060353 18.000000
86.289848 -0.120483 0.105423 1.000000
37.095707 -16.500559 -0.007086 9.000000
62.868515 28.056631 0.096126 18.000000
86.139694 0.195445 0.120274 1.000000
44.041393 -19.387854 -0.033594 11.000000
62.555534 28.192347 0.119756 20.000000
44.093811 -19.218306 -0.050370 87.000000
62.283340 28.344778 0.155263 23.000000
84.481438 0.766750 0.117963 14.000000
44.138920 -19.064041 -0.067132 67.000000
53.141342 60.086494 0.238002 1.000000
61.847740 28.407557 0.178180 23.000000
84.687660 1.108622 0.118256 8.000000
44.164471 -18.865082 -0.092201 47.000000
58.284283 -62.240383 -0.223236 10.000000
54.061947 61.580761 0.314645 4.000000
61.561672 28.549862 0.213188 21.000000
82.178383 1.377041 0.114759 1.000000
44.228664 -18.701117 -0.117335 65.000000
57.348434 -60.814137 -0.291784 1.000000
55.666641 63.856850 0.399209 124.000000
61.053497 28.586555 0.247088 22.000000
82.122795 1.677210 0.114689 20.000000
44.264587 -18.525356 -0.133999 63.000000
57.694717 -60.733826 -0.365514 10.000000
55.366535 63.984543 0.472577 252.000000
60.789978 28.735291 0.281653 22.000000
80.071693 1.928943 0.111834 1.000000
44.315075 -18.364967 -0.150702 74.000000
57.439693 -60.023254 -0.420504 4.000000
55.082550 64.129883 0.531177 217.000000
56.085911 26.763626 0.282004 27.000000
79.929909 2.190761 0.111645 8.000000
44.380276 -18.219778 -0.175837 46.000000
57.232288 -59.410858 -0.489532 6.000000
61.596947 72.222794 0.662696 1.000000
59.982960 28.893641 0.313750 22.000000
44.406673 -18.022652 -0.192383 67.000000
61.188572 72.227715 0.760011 1.000000
59.797169 29.035946 0.371264 17.000000
44.456844 -17.871538 -0.209068 46.000000
37.230801 44.307083 0.515149 20.000000
59.343277 29.110510 0.403779 22.000000
44.518833 -17.689199 -0.234107 63.000000
27.480747 -27.896355 -0.328062 15.000000
37.024426 44.375061 0.554784 20.000000
59.025524 29.223522 0.413839 22.000000
44.583286 -17.525879 -0.250829 67.000000
27.493191 -27.714813 -0.367938 16.000000
36.844910 44.458794 0.594615 20.000000
58.632908 29.271631 0.434641 23.000000
44.608459 -17.365210 -0.267355 39.000000
27.588285 -27.626833 -0.395242 16.000000
36.735359 44.658760 0.645954 20.000000
58.359806 29.402992 0.467631 21.000000
44.695004 -17.210527 -0.292572 24.000000
27.713978 -27.550005 -0.422878 9.000000
36.518833 44.744614 0.715734 20.000000
57.960880 29.481590 0.522089 21.000000
44.755981 -17.036966 -0.309258 29.000000
27.970089 -27.582253 -0.452521 8.000000
36.432941 44.974880 0.757691 20.000000
57.661079 29.595615 0.531675 25.000000
44.766548 -16.853397 -0.325600 25.000000
36.208038 45.001541 0.796444 12.000000
57.287056 29.644068 0.562905 21.000000
44.751804 -16.678619 -0.341760 55.000000
35.760086 44.763828 0.840032 20.000000
57.035931 29.779648 0.595199 33.000000
37.043522 -13.651387 -0.296291 21.000000
35.678890 45.031700 0.902542 20.000000
56.757221 29.912029 0.627080 20.000000
37.130733 -13.529162 -0.317283 8.000000
29.549303 37.563953 0.792518 8.000000
53.053505 28.209051 0.618762 145.000000
29.427307 37.665234 0.825970 7.000000
53.153275 28.488592 0.652604 124.000000
45.047470 -16.040684 -0.417303 31.000000
29.272165 37.778278 0.884273 6.000000
55.970837 30.288572 0.744229 32.000000
45.139660 -15.869621 -0.434267 28.000000
29.192598 37.921051 0.918886 1.000000
55.663681 30.361427 0.752547 20.000000
45.073833 -15.678730 -0.449791 37.000000
53.228340 -49.566803 -1.307658 23.000000
29.085142 38.096878 0.962153 1.000000
55.379898 30.483130 0.783392 20.000000
45.121391 -15.510119 -0.466352 39.000000
55.098648 30.566826 0.835838 20.000000
62.902794 5.636058 0.165339 9.000000
45.182510 -15.346190 -0.483057 39.000000
52.914986 -48.555656 -1.378952 4.000000
54.796265 30.687382 0.866003 19.000000
62.836910 5.862390 0.165221 1.000000
19.968529 26.731371 0.763013 1.000000
54.454334 30.733545 0.894952 19.000000
45.233894 -15.003484 -0.515721 17.000000
20.017612 26.993088 0.797827 1.000000
54.211601 30.846558 0.925392 19.000000
60.886829 6.130981 0.181569 21.000000
45.373928 -14.865555 -0.533362 25.000000
54.143124 31.095966 0.969946 16.000000
45.432686 -14.700632 -0.550086 31.000000
47.287617 -42.116924 -1.414912 1.000000
19.769928 27.061703 0.860034 5.000000
53.814259 31.144861 0.998463 10.000000
47.310398 -41.856705 -1.444524 28.000000
19.596821 27.032194 0.885965 8.000000
53.216808 31.047573 1.021652 19.000000
58.712238 6.533757 0.195900 9.000000
27.568306 38.308895 1.293608 8.000000
53.041862 31.206650 1.052714 19.000000
58.668034 6.746620 0.195833 7.000000
24.998896 35.008373 1.216624 126.000000
45.513512 -13.993088 -0.615016 14.000000
51.355965 -44.438885 -1.707213 16.000000
24.852669 35.061745 1.260499 142.000000
52.990891 31.701836 1.120970 5.000000
56.383621 6.903060 0.208201 23.000000
24.706102 35.127155 1.297097 129.000000
52.108639 31.421539 1.147116 18.000000
53.877579 6.796767 0.208516 21.000000
24.573671 35.212437 1.334418 119.000000
51.838833 31.518503 1.175490 18.000000
53.966343 7.009005 0.208957 8.000000
50.926643 -43.112587 -1.828833 4.000000
24.418633 35.251835 1.370132 82.000000
51.539165 31.595617 1.202978 24.000000
54.118671 7.230587 0.219178 4.000000
50.999142 -42.854069 -1.872324 2.000000
26.499050 38.556358 1.543828 14.000000
53.789604 7.387389 0.227430 1.000000
33.307159 -9.575844 -0.502075 1.000000
26.264816 38.502781 1.586865 9.000000
33.236214 -9.423699 -0.500482 20.000000
50.420799 -41.741367 -1.919845 6.000000
26.150743 38.639011 1.629283 14.000000
33.246368 -9.295064 -0.506145 186.000000
26.011957 38.724472 1.677961 14.000000
50.385975 31.889631 1.353186 15.000000
78.321487 11.621387 0.400764 3.000000
33.265583 -9.169115 -0.517970 197.000000
25.821920 38.747635 1.715540 13.000000
50.145535 31.995468 1.401806 22.000000
77.966736 11.860964 0.440463 14.000000
33.258789 -9.042447 -0.517369 192.000000
49.859932 -40.361370 -2.004746 1.000000
25.619524 38.736248 1.751651 14.000000
50.195465 32.286808 1.437768 16.000000
33.281967 -8.917876 -0.523233 200.000000
50.014992 -40.198715 -2.050169 1.000000
25.481840 38.836693 1.800672 21.000000
50.310802 32.622303 1.486373 24.000000
33.294914 -8.790679 -0.534950 201.000000
25.293453 38.844524 1.837443 13.000000
50.413551 32.939457 1.524347 18.000000
44.049999 7.197676 0.272658 9.000000
33.302536 -8.662249 -0.546573 202.000000
25.146965 38.930855 1.893870 13.000000
50.500294 33.260880 1.572890 18.000000
43.935787 7.336565 0.279883 128.000000
33.314598 -8.535144 -0.552258 78.000000
24.991449 38.958088 1.923733 13.000000
51.014462 33.868263 1.624843 15.000000
43.952911 7.505113 0.287948 145.000000
33.636311 -8.486314 -0.569184 5.000000
24.838753 39.064220 1.988787 12.000000
50.774254 33.964741 1.674306 29.000000
43.939732 7.668711 0.311399 165.000000
33.672142 -8.364202 -0.563210 2.000000
24.658659 39.081608 2.025680 11.000000
50.752048 34.219799 1.720465 19.000000
43.930962 7.833207 0.319327 191.000000
35.445766 -8.666967 -0.605082 5.000000
24.573048 39.233616 2.069802 11.000000
50.842125 34.539303 1.770540 19.000000
44.000282 8.012074 0.327848 25.000000
35.540379 -8.552175 -0.612540 19.000000
28.042150 -21.377867 -1.286819 25.000000
24.355890 39.190334 2.103370 13.000000
50.920609 34.866066 1.810052 19.000000
44.122948 8.201604 0.336817 2.000000
39.375534 -9.322495 -0.692174 8.000000
27.924343 -21.126678 -1.302330 17.000000
24.187134 39.238861 2.157637 12.000000
51.074978 35.247425 1.874322 19.000000
27.845211 -20.906776 -1.313314 24.000000
24.022968 39.278820 2.195480 9.000000
51.126984 35.547413 1.924286 19.000000
27.668692 -20.616095 -1.319509 19.000000
23.864689 39.343269 2.242478 8.000000
51.244892 35.908722 1.977392 19.000000
42.952808 -9.671957 -0.768517 7.000000
27.570574 -20.386261 -1.335231 25.000000
23.775114 39.505936 2.287340 8.000000
51.483555 36.358036 2.024764 17.000000
27.511427 -20.186981 -1.352634 36.000000
23.562380 39.479248 2.329046 8.000000
51.550621 36.675758 2.076639 20.000000
43.751579 -9.531388 -0.805052 1.000000
27.394642 -19.947235 -1.366984 27.000000
23.354481 39.443119 2.370219 7.000000
51.601173 36.997326 2.139594 20.000000
93.897415 19.547789 0.920704 5.000000
43.823853 -9.363023 -0.797860 8.000000
27.212065 -19.662083 -1.366007 27.000000
23.200214 39.496414 2.416640 8.000000
51.628471 37.290451 2.190624 20.000000
27.193844 -19.497610 -1.384895 22.000000
23.029099 39.536201 2.453935 8.000000
51.744720 37.663776 2.246134 20.000000
33.913601 7.313795 0.345153 5.000000
27.093372 -19.275616 -1.399425 31.000000
22.789522 39.440811 2.498877 7.000000
51.782009 37.982037 2.309892 25.000000
33.734936 7.404763 0.367723 155.000000
38.325329 -7.762554 -0.709863 37.000000
26.938980 -19.017445 -1.399372 27.000000
22.539486 39.340237 2.526941 3.000000
51.692001 38.194252 2.356740 21.000000
33.668472 7.519625 0.373319 196.000000
38.377792 -7.626854 -0.723975 33.000000
26.864491 -18.817707 -1.414851 30.000000
22.269760 39.185944 2.567263 7.000000
51.709969 38.501324 2.431582 21.000000
33.635475 7.641793 0.403365 167.000000
38.739521 -7.551253 -0.709599 22.000000
26.761003 -18.599382 -1.405801 29.000000
22.019066 39.077541 2.609838 7.000000
51.849339 38.887150 2.501145 20.000000
33.559742 7.747877 0.414803 127.000000
41.781742 -7.985410 -0.772210 8.000000
26.651350 -18.378672 -1.419137 24.000000
21.842218 39.082047 2.652077 4.000000
51.939503 39.253044 2.580699 21.000000
33.491966 7.861637 0.432335 68.000000
26.586199 -18.190323 -1.423374 31.000000
21.651052 39.075615 2.708837 8.000000
52.077881 39.643993 2.674527 19.000000
33.564590 8.008595 0.469790 15.000000
26.495441 -17.986010 -1.420576 31.000000
21.672132 39.113663 2.734975 7.000000
52.079979 39.645592 2.731850 17.000000
33.617672 8.021260 0.500699 9.000000
26.492123 -17.983757 -1.398001 36.000000
21.789490 38.987698 2.700437 5.000000
51.967724 39.274368 2.695977 21.000000
33.632160 7.894545 0.506511 9.000000
26.588013 -18.191565 -1.372772 37.000000
21.994974 39.034786 2.677607 5.000000
51.884258 38.913338 2.661552 21.000000
33.612156 7.759977 0.505778 10.000000
38.713215 -7.405951 -0.612303 8.000000
26.649626 -18.377481 -1.351121 25.000000
22.222666 39.103073 2.656349 5.000000
51.798843 38.553444 2.627327 20.000000
33.801174 7.673234 0.514247 8.000000
38.745007 -7.559341 -0.592566 28.000000
26.796371 -18.623962 -1.333487 23.000000
22.434835 39.157581 2.617935 6.000000
51.725616 38.219090 2.571858 20.000000
33.746204 7.530803 0.506951 8.000000
38.373901 -7.633044 -0.580484 38.000000
26.863531 -18.817034 -1.323050 28.000000
22.734182 39.345036 2.596234 1.000000
51.810379 37.988945 2.524210 28.000000
38.350666 -7.774653 -0.573729 33.000000
26.982882 -19.048437 -1.309263 19.000000
22.915228 39.340710 2.561353 1.000000
51.713131 37.640781 2.490694 20.000000
27.064432 -19.255028 -1.287605 17.000000
23.172342 39.464733 2.534616 8.000000
51.637474 37.296951 2.435914 20.000000
43.640766 -9.180643 -0.599363 1.000000
27.181545 -19.488792 -1.261490 12.000000
23.373913 39.475937 2.500665 9.000000
51.510208 36.918495 2.412433 20.000000
93.689941 19.487537 1.369654 3.000000
27.280565 -19.711576 -1.251783 24.000000
23.581762 39.511726 2.467859 8.000000
51.435883 36.594128 2.380889 20.000000
27.382874 -19.938667 -1.224303 18.000000
23.626898 39.259651 2.425427 6.000000
51.318317 36.201092 2.324796 20.000000
96.065620 19.248119 1.402284 1.000000
42.854446 -9.508449 -0.543988 1.000000
27.483355 -20.166384 -1.214220 18.000000
23.853149 39.324245 2.386251 9.000000
51.228512 35.897243 2.271878 19.000000
96.160286 18.900759 1.385538 29.000000
42.751122 -9.650064 -0.535471 1.000000
27.574661 -20.389284 -1.197576 20.000000
24.149307 39.485390 2.360886 3.000000
51.130634 35.549953 2.239977 19.000000
27.757027 -20.681913 -1.178537 15.000000
24.183037 39.232212 2.318524 9.000000
51.010651 35.189892 2.196566 19.000000
