VERSION .7
FIELDS x y z intensity
SIZE 4 4 4 4
TYPE F F F F
COUNT 1 1 1 1
WIDTH 1223
HEIGHT 1
VIEWPOINT 0 0 0 1 0 0 0
POINTS 1223
DATA ascii
60.591518 43.427269 3.724214 4.000000
84.720680 17.606503 2.432139 24.000000
36.453121 -7.808218 -0.006507 3.000000
17.319313 -12.514072 -0.574450 29.000000
20.839924 34.945427 2.509948 10.000000
60.511753 43.035259 3.670616 14.000000
85.335411 17.423737 2.432812 21.000000
17.285772 -12.586526 -0.559925 30.000000
19.517683 32.470043 2.310485 9.000000
60.637474 42.790882 3.642735 11.000000
85.697212 17.170660 2.456583 14.000000
83.640900 -18.558056 0.059812 37.000000
17.280210 -12.679652 -0.542530 35.000000
29.149525 20.433472 1.728580 1.000000
86.176857 16.938467 2.453195 18.000000
83.596695 -18.869993 0.074787 32.000000
17.225811 -12.737126 -0.531060 30.000000
23.537724 38.530731 2.666667 13.000000
29.154379 20.262821 1.699186 8.000000
85.522240 16.484468 2.417611 10.000000
83.468460 -19.162830 0.104629 32.000000
17.227402 -12.836232 -0.517548 27.000000
21.009701 34.110744 2.338013 3.000000
29.209457 20.150253 1.673457 14.000000
85.911957 16.233234 2.396387 27.000000
83.470634 -19.485664 0.149601 27.000000
17.176594 -12.896552 -0.498684 22.000000
21.008606 33.843830 2.289852 9.000000
29.235632 20.025549 1.652547 30.000000
85.865311 15.914195 2.378269 30.000000
83.311066 -19.770681 0.164388 27.000000
17.141445 -12.968677 -0.484026 27.000000
21.117882 33.743229 2.246446 9.000000
29.270802 19.877485 1.637634 29.000000
83.179649 -20.061815 0.194141 27.000000
9.361979 -7.137083 -0.256870 15.000000
21.207073 33.624180 2.215595 9.000000
29.320700 19.769615 1.618194 19.000000
9.300254 -7.144076 -0.245655 14.000000
21.398167 33.653168 2.187750 9.000000
29.298910 19.606504 1.594707 23.000000
87.467613 15.218354 2.433375 9.000000
44.161800 -10.994401 0.135031 8.000000
9.254375 -7.162920 -0.236961 17.000000
21.618685 33.739288 2.170183 5.000000
61.082432 40.521633 3.290129 6.000000
87.922340 14.965673 2.428905 38.000000
82.943993 -20.972654 0.313575 27.000000
17.037260 -13.287039 -0.422399 30.000000
24.609444 38.098701 2.416680 9.000000
61.417320 40.435772 3.249107 1.000000
92.722237 15.449842 2.543581 1.000000
82.821907 -21.249645 0.298468 68.000000
17.027983 -13.380462 -0.408257 38.000000
24.846930 38.173344 2.387043 11.000000
61.677929 40.314800 3.217148 11.000000
93.025330 15.150138 2.533894 1.000000
82.733681 -21.550508 0.328276 39.000000
16.975124 -13.439853 -0.393048 36.000000
61.990143 40.195366 3.186970 1.000000
82.668465 -21.857386 0.373107 38.000000
16.914289 -13.492836 -0.373894 23.000000
26.316805 39.835842 2.418596 10.000000
62.913303 40.482719 3.174821 5.000000
82.901566 -22.244425 0.404486 4.000000
16.911680 -13.592481 -0.359783 31.000000
63.577915 40.550411 3.160565 4.000000
44.885601 -12.220388 0.235458 20.000000
16.881367 -13.670260 -0.345033 27.000000
63.581650 40.256805 3.140940 1.000000
44.690979 -12.343520 0.258950 133.000000
16.860849 -13.751372 -0.330399 30.000000
64.125496 40.288261 3.107878 4.000000
44.433598 -12.447891 0.257721 139.000000
16.852997 -13.848133 -0.316006 29.000000
64.629341 40.275188 3.111809 5.000000
108.826180 -30.917830 0.691098 25.000000
16.786930 -13.897229 -0.296699 37.000000
26.555845 38.638996 2.170027 5.000000
64.816147 40.062531 3.073749 18.000000
16.778271 -13.994018 -0.282194 27.000000
26.688786 38.543499 2.128885 9.000000
65.255981 40.020260 3.021055 5.000000
16.772945 -14.094138 -0.267675 32.000000
65.507553 39.813560 2.971679 7.000000
40.261940 -11.918487 0.293143 8.000000
9.142919 -7.740052 -0.137997 6.000000
27.214529 38.722363 2.082990 14.000000
65.802238 39.694447 2.965627 14.000000
40.330036 -12.091919 0.323340 9.000000
9.118363 -7.776815 -0.129688 9.000000
27.298817 38.555504 2.029562 14.000000
66.074623 39.544849 2.931285 8.000000
39.596561 -12.030354 0.317811 8.000000
9.082280 -7.803723 -0.121220 39.000000
27.428259 38.410442 1.986444 6.000000
66.778992 39.634705 2.915351 6.000000
39.566429 -12.179782 0.332377 9.000000
8.877349 -7.681669 -0.110645 139.000000
66.967751 39.415539 2.890102 1.000000
8.849217 -7.714226 -0.098352 255.000000
67.382385 39.343544 2.861141 7.000000
8.850987 -7.773046 -0.090463 164.000000
67.956367 39.345406 2.810755 2.000000
36.834389 -11.783693 0.357748 18.000000
46.951077 63.846050 3.058369 1.000000
67.863045 38.959961 2.759945 7.000000
36.952549 -11.970968 0.372879 27.000000
47.136826 63.562447 2.998497 19.000000
67.908325 38.640034 2.742079 1.000000
34.262150 -11.238322 0.358733 7.000000
68.012375 38.369938 2.672356 13.000000
34.469345 -11.439704 0.373996 8.000000
20.676844 27.488974 1.249269 7.000000
68.126572 38.137093 2.658216 10.000000
34.251698 -11.507009 0.384704 37.000000
20.640549 27.242250 1.211459 8.000000
68.271477 37.890240 2.617504 12.000000
34.284966 -11.658202 0.391876 20.000000
20.722694 27.143412 1.180595 8.000000
31.017662 -10.674183 0.366428 9.000000
20.773914 27.004713 1.148100 8.000000
93.666031 7.684292 2.346077 8.000000
30.794071 -10.723631 0.375632 91.000000
20.939173 27.023827 1.116173 7.000000
95.423744 51.616951 3.466286 1.000000
30.414915 -10.716750 0.382742 35.000000
27.386103 35.077843 1.421865 12.000000
95.406876 51.156719 3.402099 32.000000
30.313953 -10.806238 0.404438 34.000000
7.323863 -6.918572 -0.001758 103.000000
27.502880 34.962482 1.382408 12.000000
30.344557 -10.942663 0.416640 21.000000
7.352787 -6.997071 0.005315 66.000000
27.327400 34.490963 1.336778 12.000000
94.685959 49.901123 3.251384 23.000000
30.226183 -11.019358 0.426773 19.000000
7.420931 -7.113931 0.012559 255.000000
27.423452 34.352764 1.281558 12.000000
94.736328 49.484859 3.209520 21.000000
30.007271 -11.064318 0.429835 141.000000
7.344448 -7.092451 0.017820 27.000000
27.709597 34.463787 1.266126 12.000000
94.901093 49.150036 3.153262 20.000000
29.961542 -11.172370 0.452092 73.000000
7.253876 -7.056550 0.028260 22.000000
27.694839 34.188076 1.221292 12.000000
29.882820 -11.267942 0.462674 84.000000
7.200614 -7.053824 0.033426 38.000000
27.811142 34.075535 1.182493 12.000000
93.773811 47.697708 2.993839 1.000000
7.356196 -7.259262 0.041487 82.000000
27.832912 33.884342 1.148252 9.000000
93.740509 47.290150 2.951074 20.000000
29.840445 -11.490541 0.485577 38.000000
7.179531 -7.132072 0.047689 149.000000
93.547203 46.742889 2.884519 1.000000
29.828554 -11.617674 0.497283 25.000000
7.126081 -7.136037 0.056325 238.000000
27.496912 -10.825778 0.469387 16.000000
92.695473 45.471241 2.775767 1.000000
27.647264 -11.002182 0.488223 30.000000
7.176473 -7.290096 0.074989 92.000000
92.534645 44.972332 2.712088 1.000000
27.713272 -11.146283 0.500537 31.000000
28.392986 33.290951 0.962365 1.000000
92.664886 44.636444 2.675395 8.000000
27.445135 -11.155476 0.506774 39.000000
28.454185 33.127796 0.922387 1.000000
92.829117 44.297108 2.621540 1.000000
27.389940 -11.250191 0.522021 25.000000
26.750040 -11.096642 0.520673 37.000000
7.159763 -7.487030 0.108488 40.000000
54.155411 62.123272 1.611213 1.000000
26.805841 -11.235122 0.532706 6.000000
6.942913 -7.313747 0.110888 16.000000
54.428902 61.998753 1.540880 1.000000
92.583725 42.936661 2.458535 15.000000
26.870102 -11.378017 0.550092 6.000000
6.960551 -7.386358 0.122231 31.000000
92.225487 42.379986 2.391905 23.000000
40.225971 -17.207642 0.840080 12.000000
6.938082 -7.414196 0.129380 26.000000
92.108719 41.918129 2.314188 32.000000
40.001747 -17.285440 0.851932 20.000000
92.107155 41.510586 2.292668 31.000000
39.781857 -17.338940 0.871136 12.000000
6.822396 -7.398540 0.144042 58.000000
18.410839 20.382832 0.426686 7.000000
92.035782 41.111774 2.217079 34.000000
39.548473 -17.409985 0.882506 19.000000
18.347713 20.163876 0.399711 15.000000
91.893974 40.645077 2.174968 1.000000
39.523510 -17.588737 0.906179 27.000000
18.472073 20.165794 0.381866 6.000000
91.745430 40.216145 2.115809 22.000000
39.475422 -17.707842 0.921386 8.000000
6.988906 -7.740206 0.171108 51.000000
18.410320 19.958061 0.360187 5.000000
91.574226 39.722622 2.073470 28.000000
39.150703 -17.734837 0.915318 8.000000
6.997092 -7.806606 0.181159 31.000000
56.117722 60.389858 1.021619 23.000000
91.531860 39.306267 2.017054 30.000000
39.130463 -17.898804 0.938913 8.000000
6.763647 -7.599359 0.182905 32.000000
56.277771 60.118698 0.948640 29.000000
91.417679 38.861004 2.011386 29.000000
38.912830 -17.963772 0.965126 8.000000
6.861393 -7.766313 0.197173 33.000000
25.705624 27.259077 0.405456 9.000000
91.602608 38.581463 1.943210 34.000000
85.999191 -1.651269 2.072120 19.000000
38.311947 -17.857014 0.959220 15.000000
6.789370 -7.736343 0.201231 16.000000
25.728598 27.093338 0.365194 9.000000
91.412102 38.107353 1.884318 25.000000
83.838745 -1.917208 2.020221 34.000000
37.494980 -17.643797 0.962087 8.000000
6.869208 -7.885427 0.213582 11.000000
25.807119 26.977312 0.345353 8.000000
91.406540 37.731060 1.846946 24.000000
83.741219 -2.222092 2.018053 17.000000
35.668884 -16.944462 0.930611 8.000000
6.815872 -7.885128 0.221963 29.000000
25.940716 26.918753 0.313192 9.000000
34.229786 -16.407511 0.914440 7.000000
6.744482 -7.860588 0.229618 102.000000
26.140381 26.927719 0.281657 6.000000
91.101700 36.788982 1.749256 30.000000
81.820007 -2.771435 1.943598 1.000000
32.741619 -15.856126 0.895436 7.000000
6.703956 -7.868770 0.234587 54.000000
90.939384 36.336342 1.709376 34.000000
82.093864 -3.067636 1.979038 35.000000
31.484871 -15.376610 0.874694 9.000000
90.688049 35.887630 1.668350 27.000000
82.417030 -3.382251 1.972709 36.000000
30.324999 -14.948055 0.861701 10.000000
56.576206 57.032265 0.406610 1.000000
90.733391 35.503235 1.581615 30.000000
82.214340 -3.675818 1.968167 14.000000
29.076694 -14.471767 0.844820 8.000000
6.426018 -7.710010 0.252306 30.000000
56.654282 56.693851 0.349719 1.000000
63.333340 24.539951 1.078853 85.000000
77.666916 -3.757783 1.859621 34.000000
26.700836 -13.399940 0.787512 7.000000
6.617410 -7.999074 0.270036 255.000000
30.461744 30.270947 0.157401 5.000000
77.537483 -4.036428 1.870423 34.000000
26.325666 -13.332672 0.793345 29.000000
6.521286 -7.941969 0.276273 13.000000
30.444437 30.032774 0.119422 23.000000
90.264160 34.180016 1.465690 28.000000
77.422348 -4.315026 1.868014 39.000000
26.133619 -13.367494 0.804549 15.000000
6.464976 -7.929669 0.282207 50.000000
30.615084 29.980507 0.089745 1.000000
90.244164 33.794781 1.429699 28.000000
77.361908 -4.582594 1.866931 34.000000
57.032715 55.442528 0.083294 1.000000
90.049309 33.345985 1.374377 27.000000
77.209892 -4.857635 1.863680 61.000000
24.480833 -12.733055 0.770777 14.000000
6.337506 -7.890724 0.296838 18.000000
57.153973 55.173679 0.027730 1.000000
89.963745 32.957668 1.337856 25.000000
77.201218 -5.141233 1.877424 34.000000
23.641552 -12.417356 0.759909 9.000000
6.194470 -7.768016 0.300085 27.000000
57.622955 55.219830 -0.041788 1.000000
90.474525 32.769180 1.310061 21.000000
77.057205 -5.415395 1.874392 38.000000
22.941761 -12.147038 0.752310 10.000000
57.810432 54.994442 -0.097482 21.000000
91.115349 32.659904 1.250179 26.000000
77.062096 -5.699656 1.861512 39.000000
22.321327 -11.918479 0.746585 9.000000
6.376217 -8.114377 0.326117 34.000000
56.801003 53.638973 -0.149989 1.000000
91.552483 32.402454 1.220477 22.000000
77.066643 -5.970548 1.862114 57.000000
21.617481 -11.654420 0.737472 8.000000
6.410794 -8.220218 0.338531 30.000000
56.942410 53.379047 -0.204334 6.000000
92.751724 32.444851 1.200565 1.000000
77.043915 -6.252945 1.875605 45.000000
21.090950 -11.460986 0.733382 10.000000
6.368206 -8.227617 0.346961 75.000000
57.007423 53.067352 -0.285463 1.000000
92.813705 32.085213 1.165552 26.000000
77.035416 -6.536550 1.875969 39.000000
20.514034 -11.245070 0.718837 11.000000
6.363618 -8.281251 0.357409 51.000000
57.120605 52.783257 -0.339356 1.000000
93.572807 32.000645 1.139221 1.000000
77.067772 -6.796774 1.890806 34.000000
19.958202 -11.031158 0.712656 10.000000
6.393635 -8.383735 0.370030 14.000000
57.361336 52.617260 -0.407567 1.000000
94.011108 31.784435 1.108554 28.000000
76.494804 -7.028885 1.877369 22.000000
19.454622 -10.846101 0.707764 9.000000
6.679292 -8.825202 0.398102 12.000000
94.644600 31.612545 1.044979 15.000000
75.951370 -7.259773 1.851347 23.000000
18.948542 -10.655180 0.694567 9.000000
95.239708 31.423775 1.015260 26.000000
75.327354 -7.478838 1.836793 33.000000
18.471830 -10.472149 0.689558 10.000000
6.278130 -8.419689 0.392458 21.000000
95.806175 31.221771 0.984895 29.000000
75.260704 -7.737612 1.849027 39.000000
18.185732 -10.398213 0.691276 14.000000
6.305017 -8.517632 0.403404 35.000000
58.415573 52.082966 -0.628345 20.000000
95.982162 30.890432 0.950333 17.000000
75.385918 -8.029817 1.852814 34.000000
18.138525 -10.459622 0.701910 23.000000
6.184768 -8.419541 0.408638 20.000000
90.169495 79.747177 -1.092519 10.000000
92.941414 29.500608 0.885006 142.000000
75.534515 -8.325745 1.870475 33.000000
18.104067 -10.528359 0.713043 20.000000
90.432861 79.447212 -1.176557 10.000000
92.848045 29.132410 0.866207 157.000000
75.618042 -8.615587 1.860022 33.000000
18.097055 -10.608990 0.725218 16.000000
6.179718 -8.533810 0.426868 18.000000
58.794018 51.235100 -0.816694 13.000000
98.236992 30.428219 0.843633 11.000000
75.650497 -8.900277 1.861610 36.000000
18.057941 -10.675183 0.728879 19.000000
6.107268 -8.505426 0.435202 28.000000
27.973234 24.214088 -0.419743 8.000000
98.692642 30.173368 0.774538 21.000000
75.827698 -9.189589 1.853409 33.000000
18.039824 -10.753894 0.740744 11.000000
6.030972 -8.461355 0.439134 26.000000
58.059212 49.850716 -0.934967 13.000000
75.877502 -9.477942 1.868817 33.000000
18.014690 -10.824318 0.752277 12.000000
6.115073 -8.646224 0.456821 29.000000
100.319984 29.887621 0.730798 12.000000
75.955963 -9.770609 1.884993 33.000000
17.987265 -10.897766 0.767496 14.000000
6.013035 -8.558858 0.458521 86.000000
76.048485 -10.065989 1.888192 33.000000
17.951118 -10.966012 0.778693 16.000000
6.004245 -8.613290 0.469435 25.000000
95.782745 27.773083 0.626618 21.000000
76.154373 -10.364156 1.905174 36.000000
17.912615 -11.028536 0.782364 21.000000
5.973686 -8.639979 0.480658 123.000000
76.150200 -10.648005 1.919461 32.000000
17.884457 -11.101802 0.793944 10.000000
6.001348 -8.741817 0.492632 17.000000
76.320709 -10.943600 1.911245 1.000000
17.856117 -11.175082 0.801862 11.000000
6.104029 -8.961605 0.511340 27.000000
103.535133 28.790689 0.543927 28.000000
76.492393 -11.254493 1.930067 1.000000
17.841999 -11.253109 0.814048 10.000000
6.108820 -9.036272 0.523921 30.000000
76.435806 -11.532538 1.929693 34.000000
17.796057 -11.315517 0.824898 17.000000
26.002907 21.056738 -0.607404 6.000000
76.595886 -11.843981 1.921282 34.000000
17.741600 -11.372422 0.831668 14.000000
5.741620 -8.632024 0.516108 14.000000
26.040434 20.929564 -0.641483 6.000000
105.865631 28.188452 0.420660 11.000000
76.788597 -12.162118 1.940798 35.000000
17.755983 -11.469285 0.845299 15.000000
5.764750 -8.736066 0.528387 7.000000
77.046318 -12.478781 1.962032 5.000000
17.725887 -11.542140 0.860666 11.000000
5.777737 -8.822584 0.541624 2.000000
78.065544 -12.937665 1.975362 16.000000
17.679163 -11.604207 0.864153 23.000000
13.960162 -21.488552 1.338468 23.000000
33.471165 8.525472 0.096454 1.000000
78.963196 -13.355625 2.013172 16.000000
17.646503 -11.671109 0.875639 10.000000
5.470698 -8.479109 0.535900 1.000000
33.604061 8.428288 0.084654 1.000000
39.193623 -6.791050 0.992984 2.000000
9.954997 -6.636648 0.503549 1.000000
15.031510 -23.504118 1.501223 37.000000
33.479427 8.266720 0.066206 3.000000
38.791702 -6.853987 0.990251 3.000000
9.942898 -6.681350 0.508361 1.000000
14.978301 -23.583826 1.527754 35.000000
33.494961 8.140422 0.042113 6.000000
38.599247 -6.965968 0.979134 9.000000
9.911021 -6.710266 0.514204 1.000000
14.922831 -23.706228 1.551406 30.000000
33.553761 8.024583 0.036128 36.000000
38.524128 -7.098305 0.984723 9.000000
17.734112 -12.101927 0.929886 9.000000
14.847558 -23.751835 1.575850 32.000000
5.208787 3.917981 -0.168399 1.000000
33.500221 7.882084 0.018020 203.000000
84.416451 -15.859115 2.144186 37.000000
17.689503 -12.166754 0.933634 25.000000
5.987053 -9.656128 0.647147 11.000000
5.206971 3.886815 -0.173552 1.000000
33.543503 7.762629 -0.006009 255.000000
84.343033 -16.165588 2.143812 62.000000
17.630234 -12.216861 0.940252 21.000000
5.966150 -9.697839 0.656518 15.000000
5.361599 3.971721 -0.185212 1.000000
33.571724 7.639633 -0.012018 255.000000
84.209267 -16.460157 2.156916 38.000000
17.609367 -12.298177 0.956561 19.000000
5.932925 -9.723507 0.664758 11.000000
5.154037 3.806831 -0.178978 1.000000
33.619019 7.520902 -0.018038 248.000000
36.485699 -7.270698 0.941710 9.000000
17.568077 -12.356215 0.967807 21.000000
5.570310 -9.201300 0.639026 6.000000
5.127517 3.758275 -0.183130 1.000000
33.660984 7.400847 -0.042107 242.000000
36.385494 -7.389487 0.933332 218.000000
17.569391 -12.449032 0.977799 11.000000
13.551775 -22.571783 1.582586 16.000000
5.157293 3.751120 -0.189271 1.000000
33.668308 7.273195 -0.060118 216.000000
36.379211 -7.520530 0.927351 255.000000
17.547443 -12.539589 0.986915 17.000000
13.525968 -22.708040 1.607339 10.000000
33.709377 7.152852 -0.078187 186.000000
36.390850 -7.662121 0.915368 255.000000
17.483017 -12.585971 0.993292 11.000000
13.480146 -22.820946 1.630396 20.000000
33.818501 7.046574 -0.108526 98.000000
36.426216 -7.809104 0.910465 255.000000
17.372297 -12.593939 0.993122 17.000000
13.430101 -22.918537 1.652625 14.000000
33.858688 6.925560 -0.138732 75.000000
17.007549 -12.424867 0.971183 10.000000
13.399740 -23.050812 1.672795 10.000000
13.415806 -23.078449 1.642061 23.000000
33.819263 7.040576 -0.211022 72.000000
36.427471 -7.816023 0.793424 255.000000
17.390785 -12.607342 0.930319 20.000000
13.456772 -22.964052 1.609278 19.000000
33.783340 7.162385 -0.229043 86.000000
36.407619 -7.672289 0.759891 255.000000
17.516695 -12.605574 0.908281 13.000000
13.473418 -22.800467 1.564154 16.000000
33.722649 7.278774 -0.228811 101.000000
36.386925 -7.528747 0.739414 255.000000
17.583744 -12.556259 0.890477 21.000000
13.507775 -22.677498 1.531207 25.000000
33.710354 7.405534 -0.234934 106.000000
36.388988 -7.396810 0.712993 223.000000
17.622244 -12.486482 0.867449 15.000000
13.581474 -22.612309 1.497823 9.000000
33.629311 7.517042 -0.234560 92.000000
84.118126 -16.777927 1.602037 39.000000
17.592775 -12.373587 0.845068 23.000000
5.535291 -9.143453 0.595704 1.000000
33.596695 7.639149 -0.228513 109.000000
84.164612 -16.466681 1.586789 50.000000
17.622101 -12.297920 0.829280 28.000000
5.930706 -9.716056 0.620472 9.000000
33.553860 7.758856 -0.228413 116.000000
84.269379 -16.166721 1.542694 39.000000
17.612114 -12.199754 0.808077 15.000000
33.554432 7.888659 -0.222596 95.000000
84.406952 -15.872583 1.529142 39.000000
17.669411 -12.143849 0.797417 17.000000
5.950745 -9.593830 0.591658 4.000000
33.700367 8.053427 -0.223758 69.000000
84.472443 -15.579806 1.484344 31.000000
17.714481 -12.079471 0.774964 10.000000
6.037405 -9.658117 0.586952 8.000000
33.422871 8.116724 -0.216109 4.000000
84.544487 -15.272896 1.439620 26.000000
9.890218 -6.693664 0.425386 1.000000
6.059776 -9.615316 0.573764 7.000000
5.105838 3.977650 -0.185311 1.000000
38.698971 -6.844568 0.651672 6.000000
9.935732 -6.671502 0.415833 1.000000
38.975353 -6.746224 0.635189 9.000000
9.947880 -6.626888 0.406967 1.000000
108.091560 27.491926 -0.681324 25.000000
79.266670 -13.421185 1.276978 16.000000
17.645697 -11.675002 0.701895 10.000000
5.615743 -8.703916 0.492110 5.000000
78.036263 -12.932813 1.214995 12.000000
17.684368 -11.598793 0.690490 19.000000
6.178956 -9.500231 0.524533 14.000000
100.661552 26.389286 -0.617531 17.000000
77.165421 -12.498071 1.187068 8.000000
17.722969 -11.531432 0.675566 20.000000
6.198639 -9.458096 0.513509 15.000000
105.816528 28.155602 -0.611560 17.000000
76.702293 -12.134727 1.165695 34.000000
17.742609 -11.456259 0.656337 12.000000
6.197715 -9.381504 0.500749 18.000000
26.068552 21.109896 -0.860804 7.000000
105.229919 28.412916 -0.608768 19.000000
76.614250 -11.860513 1.123151 35.000000
17.764147 -11.386875 0.637303 19.000000
5.624568 -8.449649 0.439630 82.000000
76.537842 -11.534272 1.107831 30.000000
17.814215 -11.318333 0.626403 14.000000
5.872810 -8.752857 0.447307 10.000000
58.936901 48.445782 -1.851226 29.000000
76.587723 -11.268518 1.094463 5.000000
17.832842 -11.242984 0.610944 20.000000
5.917533 -8.753318 0.439147 23.000000
102.793961 28.971529 -0.540561 1.000000
59.748295 -8.567287 0.821758 1.000000
17.861908 -11.178705 0.595944 15.000000
5.952687 -8.736135 0.426439 14.000000
102.485344 29.290434 -0.502292 11.000000
76.140427 -10.660188 1.033296 26.000000
17.890369 -11.105472 0.580819 14.000000
6.011631 -8.756796 0.419186 39.000000
69.725922 20.204479 -0.329425 1.000000
76.213837 -10.385797 1.020342 32.000000
17.916515 -11.035251 0.569388 16.000000
6.023991 -8.706240 0.408567 44.000000
69.848091 20.517677 -0.330355 3.000000
76.063408 -10.081474 0.991039 29.000000
17.944464 -10.961946 0.550632 10.000000
5.971725 -8.566638 0.392040 31.000000
75.969543 -9.758878 0.975927 33.000000
17.971464 -10.879618 0.539109 16.000000
6.106684 -8.692157 0.389523 87.000000
58.001930 49.801533 -1.574677 13.000000
99.556618 30.019999 -0.399273 7.000000
75.882584 -9.492026 0.961051 39.000000
18.022930 -10.833550 0.528612 14.000000
6.130071 -8.657810 0.377864 8.000000
28.075230 24.302378 -0.745398 8.000000
99.312027 30.343782 -0.398735 2.000000
75.761894 -9.208448 0.919142 33.000000
18.050024 -10.759974 0.509897 25.000000
6.099544 -8.551246 0.363127 8.000000
58.825035 51.298271 -1.498648 17.000000
75.661072 -8.914909 0.917517 40.000000
18.084766 -10.682523 0.494991 14.000000
6.098944 -8.484452 0.352109 34.000000
90.140022 79.189949 -2.220025 23.000000
75.668564 -8.634723 0.903923 33.000000
18.100599 -10.606824 0.483417 15.000000
6.078873 -8.394549 0.340201 32.000000
89.582230 79.227791 -2.129228 10.000000
97.157112 30.857382 -0.284670 5.000000
75.605438 -8.346918 0.889520 31.000000
18.101324 -10.526764 0.471532 15.000000
6.174582 -8.461260 0.334669 54.000000
58.352436 51.990120 -1.336887 15.000000
96.200966 30.942324 -0.246924 27.000000
75.297462 -8.033686 0.885544 3.000000
18.144325 -10.462967 0.460677 17.000000
6.177610 -8.403647 0.324131 27.000000
95.616241 31.141417 -0.245714 26.000000
75.292046 -7.754114 0.845504 27.000000
18.177841 -10.385283 0.442188 17.000000
6.202652 -8.373229 0.311089 24.000000
75.283974 -7.487799 0.831908 20.000000
18.458429 -10.468809 0.437096 9.000000
6.233491 -8.350697 0.300177 33.000000
87.260864 79.456978 -1.792142 28.000000
94.598236 31.578709 -0.174062 27.000000
75.878281 -7.266151 0.838176 2.000000
18.936962 -10.648668 0.436120 9.000000
6.250711 -8.313072 0.292340 28.000000
86.907104 79.719444 -1.729102 30.000000
93.890549 31.707157 -0.172962 26.000000
19.439024 -10.837404 0.427335 9.000000
6.676731 -8.812226 0.299165 38.000000
86.611732 80.035027 -1.626117 15.000000
77.030296 -6.807019 0.836829 39.000000
19.903078 -11.000691 0.432677 10.000000
6.431632 -8.427457 0.279457 76.000000
86.303978 80.339073 -1.543525 27.000000
77.030243 -6.522570 0.796081 41.000000
20.458963 -11.214882 0.423540 10.000000
6.487028 -8.435754 0.269367 41.000000
56.872452 53.313469 -0.979648 12.000000
92.332947 32.316448 -0.068295 13.000000
77.043663 -6.239389 0.795978 39.000000
21.009661 -11.416813 0.421548 15.000000
6.401732 -8.261993 0.253614 34.000000
56.840725 53.676483 -0.927896 8.000000
77.011314 -5.952740 0.781931 55.000000
21.614927 -11.643307 0.419974 10.000000
6.390687 -8.188540 0.242973 31.000000
57.727287 54.915348 -0.876110 17.000000
91.403671 32.709251 0.000000 12.000000
77.011681 -5.682412 0.781728 42.000000
22.217720 -11.863158 0.417647 9.000000
6.392975 -8.129861 0.232895 48.000000
57.706547 55.299934 -0.823060 1.000000
90.350258 32.742012 0.033545 12.000000
77.101959 -5.405017 0.768947 34.000000
22.944017 -12.148232 0.416903 10.000000
6.455579 -8.150757 0.225060 34.000000
89.893730 32.914223 0.066832 16.000000
77.196075 -5.127357 0.769693 34.000000
23.612698 -12.391686 0.418914 22.000000
6.282857 -7.873217 0.209237 19.000000
89.868706 33.314785 0.083641 21.000000
77.264511 -4.847533 0.743167 36.000000
24.367931 -12.674333 0.407511 14.000000
6.399491 -7.959362 0.203232 58.000000
64.490776 24.137775 0.084128 32.000000
77.370125 -4.596632 0.730504 40.000000
25.280954 -13.031715 0.407082 9.000000
6.238583 -7.704008 0.188612 67.000000
30.415297 30.004028 -0.305731 20.000000
64.111908 24.264242 0.107678 196.000000
77.466331 -4.317478 0.731258 37.000000
26.069931 -13.323438 0.403703 29.000000
30.337029 30.125969 -0.283560 11.000000
63.756351 24.397198 0.119145 190.000000
77.496864 -4.034313 0.704311 40.000000
26.176756 -13.257256 0.389235 21.000000
6.276566 -7.641217 0.169153 255.000000
63.545952 24.609581 0.142722 149.000000
77.672363 -3.730871 0.692191 54.000000
26.703415 -13.401235 0.385902 8.000000
6.557807 -7.921396 0.166934 55.000000
56.371975 56.826389 -0.405142 15.000000
90.560265 35.417267 0.271545 25.000000
77.803566 -3.492218 0.693259 23.000000
29.084871 -14.463174 0.402539 7.000000
6.359532 -7.624826 0.152508 38.000000
56.489811 57.364166 -0.337238 1.000000
90.666885 35.842655 0.306289 28.000000
82.646561 -3.406120 0.736296 9.000000
30.269930 -14.920909 0.400544 7.000000
6.395839 -7.614165 0.144061 118.000000
90.957382 36.343533 0.324814 28.000000
82.698456 -3.104682 0.736652 22.000000
31.425390 -15.347560 0.384562 7.000000
6.456064 -7.628911 0.137808 27.000000
26.092272 26.878160 -0.098070 7.000000
90.983932 36.759895 0.359664 28.000000
76.833908 -2.575693 0.670896 130.000000
32.719208 -15.831176 0.386993 7.000000
6.678677 -7.833558 0.132961 34.000000
25.931170 26.908848 -0.071745 9.000000
91.079857 37.187546 0.412092 35.000000
76.797859 -2.292723 0.670503 255.000000
34.301083 -16.441687 0.385069 7.000000
6.549719 -7.628206 0.121087 27.000000
25.815123 26.985680 -0.039108 9.000000
91.210884 37.631668 0.447749 27.000000
76.865715 -2.012800 0.671027 21.000000
35.788490 -16.993626 0.380319 8.000000
6.777223 -7.834887 0.115720 6.000000
25.733269 27.098257 -0.013045 8.000000
91.339790 38.077206 0.500879 31.000000
76.911957 -1.758807 0.671376 217.000000
37.462757 -17.628635 0.383001 8.000000
6.805958 -7.810067 0.106680 27.000000
25.655674 27.206106 0.013053 9.000000
91.462257 38.522350 0.502322 30.000000
76.963112 -1.477767 0.644899 52.000000
38.302223 -17.852482 0.368783 13.000000
6.763993 -7.707427 0.094860 30.000000
91.462830 38.917900 0.555151 32.000000
86.006363 -1.351096 0.720631 11.000000
38.630859 -17.833603 0.349036 8.000000
6.795560 -7.686388 0.085953 30.000000
60.148388 64.727371 0.169639 1.000000
91.408936 39.272377 0.590382 27.000000
38.959805 -17.812523 0.336461 8.000000
6.847003 -7.687608 0.079059 49.000000
60.075760 65.080681 0.231875 7.000000
91.608177 39.718353 0.644799 28.000000
39.157070 -17.729485 0.315094 8.000000
6.965959 -7.769143 0.071028 255.000000
18.369307 20.039557 0.094893 6.000000
91.718254 40.166073 0.681558 31.000000
39.387608 -17.668451 0.301381 9.000000
6.925385 -7.664476 0.061299 28.000000
18.399986 20.221321 0.119293 17.000000
91.743851 40.578674 0.735377 1.000000
39.551247 -17.584541 0.271966 8.000000
6.977705 -7.671087 0.054297 9.000000
18.355850 20.321953 0.138607 7.000000
92.151199 41.163334 0.775079 18.000000
39.643013 -17.451603 0.249475 9.000000
92.091309 41.503445 0.828622 24.000000
39.793911 -17.344194 0.227293 23.000000
6.825631 -7.396865 0.036890 31.000000
92.334206 42.020748 0.867601 22.000000
6.951439 -7.478021 0.028512 35.000000
92.286499 42.388519 0.921717 1.000000
7.084761 -7.565645 0.019899 43.000000
26.811535 -11.336666 0.116855 44.000000
7.032237 -7.457211 0.012523 30.000000
27.300957 -11.437037 0.108489 8.000000
7.032835 -7.408472 0.005349 27.000000
59.430355 28.117985 0.688520 7.000000
26.956720 -11.171351 0.091672 28.000000
7.065974 -7.383792 -0.003567 21.000000
28.510988 33.193928 0.473520 4.000000
26.979012 -11.064898 0.081430 35.000000
7.186678 -7.455032 -0.012651 38.000000
28.388180 33.285313 0.511588 1.000000
93.256645 44.901440 1.174258 4.000000
27.612425 -11.206630 0.072815 13.000000
7.108167 -7.322262 -0.021373 57.000000
94.970505 46.156174 1.253257 19.000000
27.630148 -11.096046 0.057164 10.000000
7.110475 -7.271125 -0.028400 37.000000
94.876801 46.541279 1.272709 28.000000
27.736496 -11.032085 0.046888 9.000000
7.085415 -7.197596 -0.038781 31.000000
94.538780 46.806126 1.362541 26.000000
27.813147 -10.933466 0.036511 10.000000
7.149455 -7.204570 -0.044288 46.000000
50.067123 60.456280 1.164602 9.000000
93.892311 46.915329 1.374015 16.000000
29.896774 -11.632226 0.022396 36.000000
7.163920 -7.168923 -0.054835 164.000000
50.027424 60.882717 1.251647 12.000000
93.871506 47.356236 1.431422 12.000000
30.069868 -11.572858 0.011247 98.000000
93.842270 47.732533 1.506899 20.000000
29.976574 -11.410986 0.000000 36.000000
7.365738 -7.263604 -0.070416 35.000000
29.863775 -11.242905 -0.011139 40.000000
7.331527 -7.177055 -0.078790 31.000000
94.234711 48.804909 1.593009 1.000000
7.453277 -7.245465 -0.088898 255.000000
94.678452 49.454624 1.696656 31.000000
102.551338 6.559807 0.914718 1.000000
7.462843 -7.206784 -0.094159 255.000000
50.217255 63.381126 1.623257 10.000000
94.421104 49.761539 1.713934 34.000000
102.757439 6.933231 0.898789 1.000000
30.498505 -11.112606 -0.050988 24.000000
7.377259 -7.072065 -0.101671 47.000000
49.614655 63.071625 1.680943 15.000000
94.524200 50.259411 1.775206 23.000000
30.459044 -10.971935 -0.062156 32.000000
7.450147 -7.089722 -0.111292 57.000000
27.455082 35.166195 0.973489 9.000000
30.505636 -10.856570 -0.073468 71.000000
20.934261 27.007748 0.781417 8.000000
94.995316 51.385201 1.941759 32.000000
30.838560 -10.859971 -0.085595 7.000000
20.856043 27.111475 0.812067 8.000000
95.068741 51.876217 2.003859 36.000000
93.634903 7.698190 0.885492 1.000000
20.786427 27.226891 0.843147 8.000000
90.427475 49.774601 1.963928 1.000000
93.894981 8.066148 0.888225 5.000000
34.169605 -11.738861 -0.119811 24.000000
8.057369 -7.442942 -0.149336 39.000000
20.666565 27.266701 0.877992 8.000000
90.348427 50.163437 2.020320 1.000000
34.425411 -11.685854 -0.133248 10.000000
20.596064 27.381582 0.909175 7.000000
34.562775 -11.591380 -0.146339 16.000000
8.558884 -7.790716 -0.175752 23.000000
47.459236 63.555622 2.174050 4.000000
83.774261 8.110817 0.822651 150.000000
34.581989 -11.470387 -0.158977 18.000000
83.713974 8.414795 0.837043 255.000000
8.583110 -7.703888 -0.191249 5.000000
34.140667 19.607975 0.852199 1.000000
83.712410 8.724675 0.837341 255.000000
8.661031 -7.713985 -0.202448 1.000000
33.829105 19.586390 0.880252 5.000000
83.689362 9.032463 0.881515 143.000000
39.430523 -12.599051 -0.209518 8.000000
16.516954 -14.602692 -0.392521 33.000000
27.898506 38.483681 1.468851 6.000000
67.466431 39.392616 1.772902 5.000000
39.771915 -12.547668 -0.240202 8.000000
16.542433 -14.527769 -0.415043 25.000000
27.900436 38.770424 1.517794 1.000000
66.898392 39.390442 1.815984 23.000000
40.493225 -12.619988 -0.259097 8.000000
16.602882 -14.473415 -0.430608 34.000000
27.702192 38.794060 1.556377 5.000000
66.458206 39.444305 1.875241 13.000000
16.614065 -14.376335 -0.441037 26.000000
27.366413 38.608093 1.586417 14.000000
66.136490 39.581875 1.910626 17.000000
16.628485 -14.282568 -0.455337 22.000000
27.166424 38.625244 1.624276 14.000000
65.922668 39.751408 1.948579 1.000000
73.534332 9.263470 0.814976 24.000000
104.554962 -31.328215 -0.723905 1.000000
16.689402 -14.233957 -0.470962 28.000000
26.975235 38.653717 1.662488 6.000000
65.418503 39.790710 1.978296 4.000000
104.961311 -31.031187 -0.764134 1.000000
16.727072 -14.150491 -0.485721 29.000000
65.334930 40.068676 2.033740 4.000000
84.857010 -24.749632 -0.647963 2.000000
16.747868 -14.063095 -0.503919 30.000000
64.634071 39.965584 2.056288 1.000000
85.240021 -24.522707 -0.681160 68.000000
16.778851 -13.994500 -0.514899 34.000000
85.415802 -24.234655 -0.697348 28.000000
16.788322 -13.888509 -0.532499 25.000000
64.077644 40.258198 2.140223 3.000000
106.313446 15.395771 1.274975 1.000000
44.350471 -12.407908 -0.377787 133.000000
16.838823 -13.826645 -0.547710 31.000000
26.395031 39.294762 1.901244 8.000000
63.607819 40.288929 2.168904 1.000000
106.029144 15.713754 1.290894 1.000000
44.540112 -12.285119 -0.395146 170.000000
16.873589 -13.751957 -0.562405 39.000000
26.238819 39.373219 1.941732 14.000000
63.241158 40.351158 2.200265 1.000000
44.753635 -12.167681 -0.404737 180.000000
16.883904 -13.667437 -0.572616 33.000000
26.204998 39.621475 1.990978 11.000000
62.972839 40.489956 2.235069 1.000000
44.986141 -12.054001 -0.422695 188.000000
16.906292 -13.583295 -0.586835 29.000000
45.165306 -11.924755 -0.432119 194.000000
16.940008 -13.508514 -0.601420 32.000000
25.962278 39.871674 2.085677 10.000000
61.406391 40.152611 2.305707 1.000000
45.363548 -11.799411 -0.433599 118.000000
16.971136 -13.436694 -0.612199 31.000000
25.690100 39.771702 2.125188 8.000000
61.003445 40.163284 2.333584 1.000000
82.879280 -21.233532 -0.821304 33.000000
17.012070 -13.367958 -0.627021 27.000000
21.493290 33.530704 1.829476 5.000000
61.054317 40.518326 2.392405 6.000000
82.972153 -20.948961 -0.836432 40.000000
17.044838 -13.292950 -0.641533 27.000000
21.382784 33.628975 1.865401 9.000000
29.349394 19.632874 1.171372 6.000000
44.299427 -11.012244 -0.462103 8.000000
9.263860 -7.170260 -0.355867 31.000000
21.266699 33.705677 1.914327 10.000000
29.300367 19.748468 1.209204 8.000000
87.095215 15.514021 1.250744 16.000000
44.325001 -10.846258 -0.453987 16.000000
9.286016 -7.133139 -0.359802 22.000000
21.102385 33.718472 1.945442 8.000000
29.280996 19.891874 1.229962 10.000000
87.583534 15.932417 1.274127 14.000000
83.270248 -20.052914 -0.852114 14.000000
9.343691 -7.123141 -0.369233 12.000000
20.999462 33.815926 1.981645 5.000000
29.269024 20.040918 1.257331 12.000000
87.858582 16.315350 1.294589 20.000000
83.347893 -19.748692 -0.867114 27.000000
17.144920 -12.971306 -0.690655 34.000000
20.971174 34.048195 2.032721 5.000000
29.243586 20.173798 1.277882 8.000000
85.708267 16.225733 1.278959 16.000000
83.453506 -19.450951 -0.897380 27.000000
17.163982 -12.887084 -0.704515 29.000000
29.106796 20.237286 1.312310 8.000000
86.187515 16.643906 1.332984 1.000000
83.475349 -19.133741 -0.911803 27.000000
17.206896 -12.820953 -0.711842 34.000000
29.178644 20.438696 1.337437 1.000000
85.850769 16.905502 1.359276 17.000000
83.593689 -18.838652 -0.912335 39.000000
17.241417 -12.748666 -0.722572 33.000000
60.642326 42.810165 2.838683 19.000000
85.288040 17.119644 1.366537 28.000000
83.734917 -18.548250 -0.958040 37.000000
17.271397 -12.673184 -0.740593 29.000000
19.434292 32.588394 2.074862 9.000000
60.500084 43.042866 2.878324 10.000000
34.035915 6.961811 0.551814 3.000000
76.269363 -16.601526 -0.858297 23.000000
17.289244 -12.589053 -0.746849 33.000000
20.707037 34.999744 2.273610 13.000000
33.805557 7.037722 0.566559 23.000000
36.634399 -7.833673 -0.425018 5.000000
17.314589 -12.510659 -0.760890 29.000000
33.730434 7.151168 0.577775 238.000000
76.168381 -15.995666 -0.896575 17.000000
17.335527 -12.429334 -0.774714 27.000000
20.915827 35.936989 2.404799 9.000000
60.387589 43.938599 3.090893 9.000000
33.718357 7.277848 0.596088 255.000000
76.319679 -15.735600 -0.884069 23.000000
17.384817 -12.368452 -0.782343 30.000000
33.684166 7.387457 0.601933 255.000000
76.606857 -15.502316 -0.914018 14.000000
17.417336 -12.295686 -0.796678 25.000000
37.303917 27.563164 1.992650 8.000000
33.640499 7.513378 0.625736 255.000000
84.259514 -16.729687 -0.989590 27.000000
17.457964 -12.228739 -0.803932 34.000000
33.615292 7.624869 0.631752 254.000000
84.325005 -16.421669 -1.004642 27.000000
17.473600 -12.144468 -0.813754 32.000000
19.226219 34.148911 2.438111 10.000000
59.792652 44.844658 3.328609 9.000000
33.577049 7.745701 0.649611 241.000000
84.404602 -16.116308 -0.974881 24.000000
17.529982 -12.088610 -0.825477 22.000000
19.144367 34.254810 2.482621 10.000000
59.828217 45.198502 3.418033 6.000000
33.523651 7.862901 0.673180 198.000000
85.695755 -16.068489 -1.004392 15.000000
9.830186 -6.725830 -0.465898 5.000000
19.065569 34.409359 2.536998 1.000000
59.631939 45.394478 3.481841 11.000000
9.838100 -6.678439 -0.469267 9.000000
59.711964 45.455395 3.578401 6.000000
9.867439 -6.698354 -0.458158 6.000000
19.149061 34.277260 2.532171 17.000000
59.787506 45.167744 3.546768 9.000000
33.489635 7.848756 0.738534 95.000000
84.579353 -15.874437 -0.811084 27.000000
9.867890 -6.751628 -0.448876 7.000000
19.346464 34.334442 2.513990 11.000000
60.025703 45.019444 3.525306 9.000000
33.541054 7.737397 0.745079 143.000000
84.462082 -16.173124 -0.765491 27.000000
17.527252 -12.086727 -0.780694 18.000000
19.063644 33.585373 2.429679 7.000000
37.161900 27.659290 2.144136 1.000000
33.578808 7.616593 0.751305 166.000000
84.309387 -16.464453 -0.719668 33.000000
17.471077 -12.142715 -0.761578 30.000000
37.202763 27.478386 2.140668 6.000000
33.601620 7.492382 0.751195 177.000000
84.253738 -16.774397 -0.674729 36.000000
17.459736 -12.229980 -0.744406 34.000000
33.648518 7.373483 0.745620 185.000000
76.542900 -15.531096 -0.599797 11.000000
17.390718 -12.276895 -0.728498 26.000000
20.925142 35.952995 2.515157 8.000000
60.354259 43.914349 3.350215 5.000000
33.685345 7.252265 0.733808 202.000000
76.338684 -15.781193 -0.585040 23.000000
17.378592 -12.364022 -0.714976 30.000000
60.480255 43.683956 3.309582 1.000000
33.716709 7.129813 0.727900 175.000000
76.212013 -16.046497 -0.557329 13.000000
17.345642 -12.436585 -0.704304 33.000000
20.665600 34.929707 2.382767 21.000000
36.441261 -7.812330 -0.234173 4.000000
17.312683 -12.509282 -0.682432 25.000000
20.831921 34.932007 2.352257 8.000000
60.549244 43.061924 3.218038 10.000000
85.548622 17.451715 1.844140 5.000000
76.317589 -16.653877 -0.477174 16.000000
17.271046 -12.575803 -0.671405 33.000000
19.497101 32.422985 2.154977 8.000000
60.691948 42.845192 3.191673 14.000000
85.440445 17.103704 1.840445 30.000000
83.719345 -18.590794 -0.478972 37.000000
17.277775 -12.677864 -0.651005 29.000000
85.825638 16.884993 1.832252 26.000000
83.584160 -18.851833 -0.463598 27.000000
17.235483 -12.744278 -0.639934 35.000000
29.157833 20.265223 1.494458 8.000000
85.444878 16.485023 1.838016 29.000000
83.456177 -19.144678 -0.433385 27.000000
17.213232 -12.825675 -0.618350 35.000000
21.009018 34.109638 2.183626 5.000000
29.262140 20.186598 1.471322 8.000000
85.733803 16.199572 1.827645 19.000000
44.024040 -10.285222 -0.205156 1.000000
17.190512 -12.907002 -0.600455 36.000000
21.032362 33.868908 2.131264 8.000000
29.254108 20.023207 1.448625 26.000000
43.883957 -10.422262 -0.188935 1.000000
17.175310 -12.994298 -0.586536 28.000000
21.114353 33.737595 2.092796 8.000000
29.266800 19.882231 1.421067 10.000000
44.069069 -10.637009 -0.181986 1.000000
9.364845 -7.139267 -0.314530 26.000000
21.222109 33.648022 2.063974 8.000000
29.331392 19.769381 1.414492 8.000000
44.349258 -10.860398 -0.175321 33.000000
9.287257 -7.134092 -0.304619 23.000000
21.402517 33.660007 2.034606 7.000000
29.338017 19.617853 1.386657 24.000000
44.120029 -10.975825 -0.142832 8.000000
9.281058 -7.183572 -0.292979 16.000000
21.588375 33.691986 1.999071 6.000000
61.007710 40.487392 2.838426 6.000000
82.881180 -20.956772 -0.253654 50.000000
17.043310 -13.291759 -0.528224 31.000000
61.286694 40.349770 2.793204 9.000000
82.760307 -21.249235 -0.223694 36.000000
17.034071 -13.385246 -0.514321 33.000000
61.535778 40.191235 2.759285 9.000000
45.339813 -11.818587 -0.114488 47.000000
16.969498 -13.435398 -0.498736 32.000000
25.979118 39.594593 2.249847 9.000000
45.160889 -11.948887 -0.097840 98.000000
16.936041 -13.510186 -0.484072 30.000000
26.276676 39.729851 2.221330 12.000000
63.353642 40.734802 2.761836 4.000000
44.957462 -12.071548 -0.081245 95.000000
16.928003 -13.600739 -0.470029 31.000000
26.183804 39.290665 2.152323 9.000000
63.646973 40.594460 2.728539 2.000000
44.773052 -12.198140 -0.056694 80.000000
16.873646 -13.668885 -0.447289 24.000000
26.334244 39.204266 2.111564 9.000000
63.696983 40.314259 2.671940 1.000000
44.544930 -12.311550 -0.040330 29.000000
16.859396 -13.750187 -0.436722 30.000000
63.941509 40.172668 2.637006 1.000000
44.527931 -12.465939 -0.032282 8.000000
16.828428 -13.827947 -0.422018 26.000000
64.323997 40.053741 2.606404 4.000000
40.355862 -11.472829 -0.014645 5.000000
16.797110 -13.905657 -0.407279 35.000000
64.812782 40.044819 2.593905 2.000000
40.327213 -11.609359 0.000000 10.000000
16.780796 -13.996124 -0.392864 31.000000
26.717232 38.570198 1.941914 1.000000
65.045486 39.859924 2.557364 1.000000
40.428383 -11.799111 0.007350 8.000000
16.760262 -14.083480 -0.374479 27.000000
26.955589 38.625565 1.908254 9.000000
65.192276 39.621941 2.517420 1.000000
40.101982 -11.863523 0.021897 8.000000
16.727804 -14.161132 -0.359605 30.000000
27.189901 38.658623 1.873487 14.000000
65.692429 39.628204 2.491431 3.000000
39.900154 -11.963030 0.050891 11.000000
16.679825 -14.225788 -0.340557 24.000000
27.386272 38.650406 1.836309 9.000000
66.162971 39.566360 2.449622 1.000000
39.875168 -12.115003 0.058189 8.000000
16.656790 -14.306879 -0.325771 29.000000
66.833061 39.635250 2.428311 1.000000
116.865944 13.852678 2.218555 2.000000
39.713650 -12.232690 0.072527 11.000000
16.638433 -14.397422 -0.311078 34.000000
27.947186 38.849682 1.763220 7.000000
66.933327 39.379551 2.386244 1.000000
116.876587 13.419733 2.197269 2.000000
16.581944 -14.455162 -0.295650 25.000000
28.019541 38.650642 1.733806 4.000000
67.121078 39.159561 2.360654 1.000000
116.914665 12.990122 2.217613 2.000000
8.906898 -7.822147 -0.148970 11.000000
28.082481 38.440186 1.679055 1.000000
33.865688 19.607569 1.175093 2.000000
8.728464 -7.722292 -0.138321 6.000000
46.943165 63.835297 2.739347 1.000000
34.054882 19.550800 1.158585 1.000000
16.530699 -14.733491 -0.247357 23.000000
47.224541 63.680725 2.657709 14.000000
34.327385 -11.253085 0.119795 28.000000
34.281120 -11.377236 0.132386 33.000000
8.707632 -7.873473 -0.114743 25.000000
34.333939 -11.534637 0.145396 29.000000
20.681505 27.286413 1.064024 8.000000
34.206120 -11.631392 0.170258 36.000000
20.729141 27.132214 1.025318 8.000000
93.320045 7.967537 1.700241 26.000000
34.018681 -11.700290 0.182085 18.000000
20.810692 27.032993 0.994646 8.000000
93.468506 7.635241 1.686052 27.000000
30.619091 -10.668688 0.175435 7.000000
20.994267 27.075401 0.968974 6.000000
30.517460 -10.746895 0.186350 30.000000
27.408060 35.080715 1.227951 12.000000
30.275280 -10.786497 0.196331 69.000000
27.500172 34.959034 1.188033 15.000000
94.115776 50.042248 2.623685 1.000000
30.409512 -10.960091 0.208744 59.000000
7.392560 -7.034920 -0.044528 32.000000
27.597708 34.832127 1.155940 3.000000
94.360878 49.729801 2.606791 1.000000
30.303303 -11.047473 0.219551 49.000000
7.381188 -7.075832 -0.035692 117.000000
27.641733 34.626202 1.106033 12.000000
93.773178 48.981762 2.511677 1.000000
102.550583 6.541788 1.811606 27.000000
30.131144 -11.109992 0.235413 96.000000
27.665668 34.396858 1.063394 12.000000
93.753883 48.555885 2.451292 1.000000
29.823112 -11.120751 0.244434 26.000000
7.351899 -7.149410 -0.023268 25.000000
27.798616 34.316181 1.033045 12.000000
29.858889 -11.252967 0.256187 46.000000
7.247077 -7.099340 -0.015936 37.000000
27.788744 34.048092 0.997335 1.000000
93.226608 47.419373 2.355294 1.000000
7.345578 -7.248784 -0.005404 40.000000
93.713333 47.235409 2.308225 17.000000
29.915388 -11.525395 0.279773 9.000000
7.311868 -7.268607 0.003599 19.000000
93.760902 46.808777 2.250056 14.000000
27.501474 -10.711319 0.267866 49.000000
7.198106 -7.205648 0.010666 115.000000
93.471375 46.237034 2.184399 21.000000
27.429331 -10.799170 0.282983 36.000000
7.080101 -7.139665 0.019304 42.000000
93.342117 45.788448 2.141511 26.000000
27.561354 -10.967995 0.295114 26.000000
7.053874 -7.165555 0.026324 80.000000
93.224884 45.267570 2.080349 19.000000
27.842890 -11.192770 0.309021 8.000000
28.411661 33.312847 0.771883 1.000000
92.943054 44.750450 2.016704 28.000000
27.616243 -11.219408 0.322569 27.000000
7.169519 -7.388041 0.043123 27.000000
28.368587 33.028137 0.729569 1.000000
92.991043 44.374378 1.978392 23.000000
27.357449 -11.231265 0.330349 36.000000
7.371314 -7.651906 0.051923 21.000000
59.582214 28.164383 1.230893 5.000000
27.205162 -11.285439 0.339290 24.000000
26.937506 -11.290306 0.351761 8.000000
7.139400 -7.520730 0.066966 16.000000
54.182144 61.717674 1.175451 1.000000
26.633411 -11.277792 0.358425 14.000000
6.931292 -7.352736 0.074073 43.000000
54.170170 61.249779 1.098944 1.000000
26.837406 -11.474814 0.371897 7.000000
6.898258 -7.376799 0.082850 21.000000
54.341583 60.991657 1.040840 1.000000
92.247269 41.981182 1.698307 28.000000
39.949223 -17.254471 0.577254 18.000000
6.924759 -7.454537 0.090568 23.000000
54.581448 60.832020 0.970028 1.000000
92.264320 41.581417 1.660468 23.000000
39.780128 -17.354712 0.590879 19.000000
6.832937 -7.409971 0.098519 39.000000
18.398983 20.355413 0.296924 7.000000
92.202316 41.147564 1.603747 1.000000
39.633614 -17.463984 0.612331 8.000000
7.110864 -7.765587 0.110268 5.000000
18.358839 20.176102 0.276148 14.000000
142.658554 -0.199189 2.465211 38.000000
39.523468 -17.588717 0.626725 22.000000
6.957859 -7.654635 0.117358 12.000000
18.453093 20.130962 0.252621 7.000000
91.659431 40.140312 1.519517 33.000000
142.687103 -0.672402 2.465729 70.000000
39.419117 -17.699116 0.641084 8.000000
6.902225 -7.644207 0.124038 136.000000
18.326668 19.853466 0.231075 1.000000
91.630470 39.747017 1.429547 25.000000
142.919067 -1.197344 2.444844 18.000000
38.956268 -17.654953 0.642021 7.000000
6.852092 -7.642147 0.128990 36.000000
91.444778 39.268871 1.424395 23.000000
39.110786 -17.881552 0.675572 8.000000
6.740846 -7.573740 0.138037 28.000000
91.473732 38.884834 1.370563 31.000000
86.480911 -1.373648 1.509720 28.000000
38.770607 -17.914536 0.693301 8.000000
6.842055 -7.744424 0.149710 20.000000
25.699007 27.233007 0.228737 9.000000
91.422958 38.468231 1.298422 27.000000
84.057205 -1.613981 1.438139 26.000000
38.292294 -17.864126 0.693290 14.000000
6.797089 -7.750595 0.154746 16.000000
25.746666 27.112364 0.202298 9.000000
91.448563 38.085091 1.244918 35.000000
83.670883 -1.913369 1.431640 34.000000
37.585762 -17.686516 0.696061 8.000000
6.809300 -7.819413 0.164695 1.000000
25.796669 26.947550 0.156262 8.000000
91.435410 37.686954 1.208323 19.000000
83.648315 -2.219627 1.431383 21.000000
35.909809 -17.066595 0.687056 8.000000
6.613764 -7.651314 0.169471 33.000000
25.923079 26.881666 0.136876 9.000000
91.353844 37.280811 1.171071 21.000000
76.937836 -2.350663 1.316705 6.000000
34.228558 -16.421619 0.675920 7.000000
6.660451 -7.762651 0.180323 15.000000
26.172361 26.960663 0.104929 7.000000
91.008286 36.751259 1.113509 33.000000
32.877674 -15.907849 0.663035 7.000000
6.711040 -7.877085 0.189663 55.000000
56.439503 57.694523 0.169039 6.000000
90.864166 36.306286 1.075950 29.000000
82.839264 -3.109968 1.432511 27.000000
31.497292 -15.396296 0.654802 7.000000
6.727206 -7.954940 0.200037 255.000000
56.443619 57.277248 0.084210 11.000000
90.815628 35.901455 1.039718 30.000000
82.128601 -3.370414 1.420416 36.000000
30.362514 -14.973135 0.650025 7.000000
56.520584 56.976196 0.028014 19.000000
90.630470 35.444725 0.985145 28.000000
82.580162 -3.692174 1.428450 4.000000
29.090502 -14.465973 0.635162 8.000000
56.678135 56.678135 -0.041969 1.000000
63.318710 24.496162 0.639886 75.000000
77.692970 -3.759044 1.316983 55.000000
26.704704 -13.413551 0.589459 8.000000
30.302326 30.112526 -0.052192 11.000000
63.941193 24.493521 0.645352 23.000000
77.528191 -4.035944 1.355092 34.000000
26.204725 -13.271420 0.605035 22.000000
30.401556 29.969540 -0.089410 12.000000
64.081940 24.265686 0.597986 111.000000
77.448463 -4.316482 1.326881 34.000000
26.106642 -13.353695 0.609123 27.000000
6.263542 -7.682598 0.230135 34.000000
90.072998 33.730679 0.805788 29.000000
77.377228 -4.597054 1.325940 33.000000
25.482061 -13.146641 0.610638 9.000000
6.238357 -7.709230 0.238906 74.000000
90.004173 33.329273 0.753817 31.000000
77.290627 -4.862714 1.338260 37.000000
24.457937 -12.731996 0.601655 14.000000
6.370969 -7.929554 0.252148 26.000000
57.176296 55.156681 -0.346643 7.000000
89.975739 32.944248 0.719114 28.000000
