VERSION .7
FIELDS x y z intensity
SIZE 4 4 4 4
TYPE F F F F
COUNT 1 1 1 1
WIDTH 1226
HEIGHT 1
VIEWPOINT 0 0 0 1 0 0 0
POINTS 1226
DATA ascii
40.961464 30.431763 0.356254 28.000000
30.799299 6.974821 1.395344 239.000000
24.869123 -4.910688 1.825956 23.000000
30.360064 -21.345325 3.194735 35.000000
40.769501 30.521685 0.373333 33.000000
30.778399 7.088780 1.395565 229.000000
24.887266 -4.819566 1.821532 28.000000
30.415848 -21.218390 3.159800 37.000000
40.537506 30.580494 0.389959 30.000000
30.792612 7.205334 1.391811 236.000000
24.900797 -4.727564 1.807903 10.000000
30.450607 -21.077139 3.122814 35.000000
6.660488 -10.847668 1.080093 32.000000
40.326786 30.642990 0.424319 30.000000
30.787498 7.334617 1.398434 245.000000
29.786957 -5.547577 2.145295 16.000000
30.484268 -20.943424 3.099248 34.000000
6.621922 -10.696733 1.058628 230.000000
40.158501 30.747942 0.441388 28.000000
30.772717 7.439019 1.398875 229.000000
29.733858 -5.425004 2.134722 31.000000
30.550697 -20.824650 3.065731 33.000000
6.688048 -10.715595 1.049594 235.000000
39.871170 30.760401 0.465836 37.000000
30.774115 7.558847 1.405730 238.000000
29.101608 -5.199509 2.072393 31.000000
30.570875 -20.682480 3.041035 38.000000
6.717938 -10.680302 1.037341 235.000000
39.694805 30.857082 0.491421 29.000000
30.759403 7.680586 1.406395 36.000000
23.656569 -4.141497 1.679387 7.000000
30.599010 -20.538435 3.003949 37.000000
6.768291 -10.673352 1.025746 236.000000
39.400238 30.860435 0.506643 26.000000
30.685577 7.770344 1.398654 5.000000
23.618370 -4.045648 1.663004 13.000000
30.663807 -20.419304 2.970582 35.000000
6.824048 -10.674570 1.014906 223.000000
39.184612 30.923937 0.531464 31.000000
72.410492 18.618797 3.329722 6.000000
23.560102 -3.946836 1.645304 33.000000
30.702927 -20.291014 2.948098 36.000000
6.861744 -10.651424 1.003849 230.000000
38.980854 30.995667 0.547624 28.000000
72.538696 18.962528 3.325979 11.000000
23.839838 -3.908195 1.659640 50.000000
30.754223 -20.163353 2.913612 38.000000
6.906736 -10.635440 0.991360 225.000000
38.827660 31.106819 0.581807 29.000000
23.889336 -3.826452 1.649371 223.000000
30.770693 -20.013277 2.888864 34.000000
6.966126 -10.645357 0.983376 226.000000
38.582493 31.132149 0.597066 15.000000
53.468582 14.366879 2.465703 20.000000
23.928127 -3.742766 1.646844 234.000000
30.808966 -19.885481 2.853727 42.000000
7.002916 -10.616446 0.969673 231.000000
38.366180 31.168232 0.629830 23.000000
23.926819 -3.657044 1.637378 213.000000
30.840914 -19.746347 2.830673 35.000000
7.050434 -10.603724 0.961923 226.000000
38.135445 31.213503 0.645121 15.000000
23.974882 -3.574515 1.635509 9.000000
30.881861 -19.620914 2.802433 39.000000
7.099063 -10.596451 0.950074 226.000000
37.939430 31.285975 0.678077 15.000000
23.997980 -3.488095 1.631950 7.000000
30.937517 -19.497478 2.788141 36.000000
7.141106 -10.575175 0.939310 215.000000
37.705109 31.325623 0.693052 15.000000
24.104702 -3.417731 1.625582 6.000000
30.963909 -19.355913 2.758468 37.000000
7.181330 -10.555114 0.926308 200.000000
37.593498 31.466503 0.727348 15.000000
69.904297 20.150408 3.290862 4.000000
24.072866 -3.323258 1.618342 6.000000
31.002850 -19.230074 2.736729 36.000000
7.245625 -10.566137 0.922857 223.000000
37.332386 31.481359 0.750099 15.000000
69.440529 20.292677 3.297814 13.000000
24.016220 -3.225782 1.605232 163.000000
31.058159 -19.107107 2.703413 37.000000
7.287685 -10.544402 0.909794 229.000000
37.092300 31.501101 0.781462 15.000000
46.745907 13.846769 2.239468 4.000000
24.037497 -3.138992 1.610124 228.000000
31.103643 -18.978296 2.682117 38.000000
7.324898 -10.519547 0.898608 171.000000
36.919403 31.587910 0.797218 15.000000
46.781322 14.043969 2.235073 9.000000
24.044191 -3.054543 1.597102 234.000000
31.119709 -18.839342 2.658665 36.000000
7.366718 -10.497350 0.887767 6.000000
36.700710 31.634516 0.828830 15.000000
46.391975 14.103805 2.235771 10.000000
30.017038 -3.701584 1.992926 20.000000
31.168360 -18.713036 2.637808 39.000000
7.510220 -10.622782 0.891461 1.000000
36.685986 31.856934 0.865060 15.000000
46.210346 14.233817 2.246432 10.000000
30.029493 -3.602065 1.987648 108.000000
31.204424 -18.579432 2.603222 35.000000
35.820271 -50.273827 4.165011 13.000000
36.993923 32.362926 0.892275 14.000000
46.234154 14.426896 2.250144 10.000000
30.479036 -3.548110 2.000435 92.000000
31.227316 -18.445719 2.580657 32.000000
36.425419 -50.728687 4.158983 9.000000
37.077106 32.676365 0.931678 15.000000
46.361557 14.653335 2.267448 10.000000
30.488075 -3.425174 2.000110 31.000000
31.269665 -18.316469 2.565878 38.000000
37.186657 33.004253 0.972045 17.000000
46.390236 14.840707 2.288410 10.000000
30.583935 -3.333281 2.000270 54.000000
31.322399 -18.200809 2.533206 38.000000
37.273746 33.326576 1.003698 16.000000
45.888901 14.865947 2.266351 10.000000
30.532692 -3.209115 1.985336 36.000000
23.874237 -13.756032 1.912247 9.000000
37.317963 33.613041 1.043277 21.000000
45.738441 15.002659 2.278461 10.000000
30.608042 -3.114449 1.984161 114.000000
23.882051 -13.644187 1.894384 6.000000
37.427330 33.960842 1.076281 16.000000
41.748337 13.863549 2.097601 9.000000
30.569937 -2.997408 1.975582 37.000000
37.589977 34.360474 1.111250 19.000000
30.526754 -2.880252 1.961349 36.000000
37.656796 34.663605 1.152545 16.000000
30.536964 -2.773708 1.955998 31.000000
23.547384 -13.117074 1.809208 6.000000
43.907936 -58.014595 4.399035 6.000000
37.745144 35.001369 1.195124 17.000000
40.800781 14.040871 2.095248 9.000000
31.312462 -2.728472 2.005017 38.000000
26.305334 -14.533308 2.006660 6.000000
43.356396 -56.851627 4.272777 1.000000
37.882637 35.387985 1.239787 17.000000
31.511211 -2.629456 2.017113 10.000000
26.499367 -14.513990 2.001500 7.000000
43.170677 -56.200165 4.173054 18.000000
37.901608 35.666744 1.262856 17.000000
33.197536 -2.653516 2.106945 36.000000
26.615295 -14.450926 1.979699 7.000000
43.296524 -55.938400 4.091045 11.000000
38.052929 36.073032 1.308922 17.000000
33.425968 -2.548515 2.120836 67.000000
26.749655 -14.403205 1.975291 7.000000
38.117382 36.387596 1.370720 17.000000
20.530413 7.399500 1.082603 6.000000
33.739048 -2.448041 2.134189 13.000000
26.811977 -14.310249 1.960027 7.000000
42.318104 -53.873386 3.854106 7.000000
38.192371 36.727673 1.396757 17.000000
20.507847 7.476408 1.082851 8.000000
51.355984 -3.537121 3.247720 19.000000
26.812220 -14.184360 1.940283 7.000000
42.485950 -53.680874 3.803505 13.000000
38.293545 37.096069 1.451980 18.000000
20.508062 7.561758 1.091967 5.000000
51.283371 -3.352301 3.242368 19.000000
26.831236 -14.074769 1.927473 7.000000
38.478527 37.549622 1.501765 18.000000
20.532656 7.652348 1.102360 6.000000
51.709274 -3.189852 3.259456 19.000000
26.963230 -14.018229 1.917275 7.000000
38.282856 37.633591 1.537010 23.000000
20.550837 7.745027 1.112539 8.000000
51.471527 -2.985857 3.243758 14.000000
26.949070 -13.885634 1.891389 7.000000
18.995325 18.804005 0.783945 7.000000
20.582609 7.843274 1.123516 7.000000
51.781094 -2.813428 3.262595 15.000000
34.579987 -42.384148 2.847608 9.000000
38.432148 38.324974 1.629823 18.000000
23.380308 -11.835865 1.611977 9.000000
34.878689 -42.477119 2.832347 5.000000
38.523315 38.698524 1.677849 19.000000
20.385624 7.935729 1.131147 6.000000
23.468895 -11.772846 1.601299 9.000000
35.013111 -42.323582 2.792199 12.000000
38.714310 39.176529 1.721277 19.000000
39.147011 39.891956 1.785754 13.000000
39.013607 40.048588 1.825426 21.000000
38.952671 40.252232 1.867958 19.000000
39.049988 40.649883 1.909305 16.000000
39.234032 41.156620 1.965759 5.000000
40.676868 42.954475 2.086526 21.000000
34.054108 14.266096 1.986676 11.000000
40.422325 43.000263 2.122793 24.000000
34.136162 14.440747 2.020344 39.000000
40.092979 42.964378 2.154833 22.000000
34.674568 14.818577 2.068612 39.000000
75.602516 -1.095272 4.677519 1.000000
20.445286 -9.438390 1.278706 6.000000
39.921089 43.080681 2.204990 21.000000
34.950726 15.073858 2.088058 36.000000
75.929947 -0.861435 4.697587 1.000000
20.454180 -9.360337 1.269436 8.000000
39.814407 43.313011 2.249814 21.000000
20.455811 -9.261953 1.255426 6.000000
39.814625 43.602577 2.288947 12.000000
20.412971 -9.152550 1.235063 5.000000
33.533134 14.894862 2.057844 9.000000
20.403940 -9.075886 1.225063 5.000000
33.363457 14.966144 2.069991 33.000000
20.182755 -8.884830 1.209726 6.000000
16.672726 18.647429 1.022163 5.000000
33.333748 15.092808 2.071404 31.000000
71.263817 0.460208 4.383742 17.000000
20.183914 -8.797168 1.192438 24.000000
16.679939 18.793673 1.048787 7.000000
32.559921 14.886478 2.045501 9.000000
71.451408 0.710849 4.395407 3.000000
20.331200 -8.772829 1.187604 9.000000
16.577414 18.810003 1.063998 8.000000
71.303612 0.970757 4.386505 5.000000
21.529627 -9.209824 1.247714 19.000000
36.874462 -39.404907 2.016620 1.000000
40.317177 46.086388 2.652058 22.000000
32.697456 15.240127 2.086372 8.000000
36.570606 -38.794216 1.954942 1.000000
40.254848 46.356903 2.702061 1.000000
32.648426 15.342307 2.105261 38.000000
20.123766 -8.434465 1.147349 6.000000
36.482944 -38.418137 1.905679 1.000000
32.676991 15.502200 2.123420 17.000000
19.896633 -8.253663 1.125127 1.000000
36.369038 -38.018150 1.846467 1.000000
66.802307 1.877626 4.110833 9.000000
20.263042 -8.322876 1.132696 5.000000
36.110653 -37.485218 1.790313 1.000000
32.736046 15.825224 2.166581 21.000000
66.804939 2.122772 4.111446 17.000000
20.303030 -8.252462 1.125563 6.000000
36.085098 -37.184952 1.746061 4.000000
32.320713 15.763865 2.161617 28.000000
66.875793 2.370414 4.128038 3.000000
20.486385 -8.239628 1.126318 3.000000
35.966980 -36.792446 1.697848 1.000000
32.338161 15.919360 2.179300 19.000000
66.363457 2.584227 4.096945 10.000000
22.437654 -8.929027 1.223337 9.000000
35.611507 -36.162704 1.639330 28.000000
42.110073 50.667824 3.199134 20.000000
34.656338 17.218636 2.360098 9.000000
22.659578 -8.925844 1.225208 6.000000
35.801659 -36.102856 1.606739 42.000000
42.118427 51.021122 3.258903 22.000000
34.622047 17.352549 2.375443 8.000000
22.683229 -8.839261 1.216207 6.000000
36.005169 -36.042892 1.574331 37.000000
42.338081 51.690205 3.349684 8.000000
34.570457 17.485521 2.396646 9.000000
22.882034 -8.811094 1.216380 6.000000
36.240608 -36.013615 1.543142 53.000000
31.700691 16.180197 2.214263 10.000000
23.042177 -8.785131 1.214709 6.000000
36.408882 -35.916569 1.500021 42.000000
43.240673 53.588753 3.548475 14.000000
31.677219 16.321835 2.235716 26.000000
23.094830 -8.703785 1.207078 6.000000
36.609753 -35.863438 1.467321 37.000000
43.494316 54.289783 3.657864 15.000000
23.306442 -8.695381 1.207920 6.000000
36.791840 -35.778503 1.433497 34.000000
41.783203 52.547508 3.577134 8.000000
31.978836 16.775028 2.303589 5.000000
23.355614 -8.607080 1.199959 6.000000
37.002548 -35.720467 1.400663 30.000000
36.429302 19.255774 2.642964 29.000000
23.586170 -8.603316 1.201548 6.000000
27.105236 -25.974831 0.996180 22.000000
36.577389 19.505901 2.680672 23.000000
23.740089 -8.561003 1.198954 6.000000
27.146185 -25.823874 0.981112 35.000000
38.227867 49.158939 3.470718 17.000000
36.614674 19.698486 2.703252 27.000000
23.789038 -8.484934 1.191087 5.000000
27.156954 -25.654133 0.939112 38.000000
38.032639 49.243999 3.511375 10.000000
31.401653 17.042610 2.341759 36.000000
23.975811 -8.452624 1.189985 5.000000
27.251272 -25.554871 0.913031 21.000000
38.025688 49.591877 3.581406 14.000000
37.915230 -35.294716 1.229790 35.000000
37.688442 49.562817 3.622870 8.000000
33.058727 18.249399 2.514726 9.000000
38.151428 -35.254467 1.196967 33.000000
37.417439 49.564564 3.656933 15.000000
32.040661 17.840927 2.455100 8.000000
24.341085 -8.286381 1.181107 9.000000
38.365562 -35.192535 1.172356 34.000000
37.352737 49.821575 3.721267 18.000000
32.729614 18.374516 2.532532 20.000000
25.858223 -8.697229 1.243625 6.000000
38.518333 -35.085873 1.136883 36.000000
37.305363 50.140240 3.778620 18.000000
25.809753 -8.575758 1.230260 6.000000
38.743656 -35.032154 1.103253 29.000000
37.338657 50.552505 3.854890 6.000000
31.442625 17.949106 2.480913 25.000000
25.860403 -8.487466 1.221664 7.000000
38.983826 -34.990471 1.078993 31.000000
31.336592 18.041180 2.496770 9.000000
49.499397 5.150194 3.131049 17.000000
25.753742 -8.348024 1.210437 8.000000
39.157150 -34.887749 1.043615 33.000000
32.386341 18.803925 2.605586 32.000000
49.405220 5.323505 3.135013 17.000000
25.697500 -8.230780 1.196998 8.000000
39.397503 -34.843708 1.019061 32.000000
31.514353 18.445026 2.559809 50.000000
49.419552 5.508358 3.145895 17.000000
25.313541 -8.005622 1.168453 15.000000
39.587032 -34.765820 0.984023 34.000000
37.147354 51.848629 4.113450 16.000000
31.419994 18.544744 2.570447 40.000000
25.672108 -8.015636 1.174234 25.000000
39.741070 -34.643925 0.947870 32.000000
31.796375 18.924370 2.626366 24.000000
25.629515 -7.899360 1.175643 30.000000
39.970345 -34.586784 0.913396 34.000000
32.343975 19.403502 2.710259 31.000000
25.582220 -7.782228 1.162806 29.000000
40.214882 -34.541439 0.879065 39.000000
32.203152 19.479883 2.724232 27.000000
40.379711 -34.426636 0.842849 34.000000
32.064758 19.541700 2.737757 32.000000
40.642666 -34.418732 0.827355 31.000000
32.128452 19.750099 2.769502 8.000000
45.600815 6.084448 2.958881 14.000000
40.891953 -34.348923 0.792324 37.000000
35.888500 52.453098 4.433093 7.000000
45.399738 6.227063 2.955326 21.000000
41.046471 -34.235054 0.765006 33.000000
35.745026 52.636723 4.493838 1.000000
45.546833 6.401190 2.966267 10.000000
31.670958 -9.021709 1.385969 10.000000
41.248722 -34.172443 0.729256 36.000000
41.309322 26.013866 3.662063 9.000000
45.644863 6.593791 2.982361 8.000000
31.696207 -8.897465 1.374057 23.000000
41.567501 -34.156082 0.694896 17.000000
35.064102 52.437504 4.554885 1.000000
41.153843 26.106947 3.681598 13.000000
40.651814 6.010187 2.664613 4.000000
31.749378 -8.798914 1.380850 30.000000
34.921841 52.641289 4.616857 8.000000
41.114662 26.304035 3.712804 10.000000
40.617031 6.171757 2.671136 8.000000
31.746349 -8.661001 1.367688 31.000000
25.814787 -20.896942 0.388398 172.000000
34.898689 53.027271 4.706296 11.000000
41.002663 26.444677 3.754246 10.000000
31.821531 -8.556324 1.363806 31.000000
25.969358 -20.864981 0.366310 194.000000
36.785984 56.322086 5.046324 4.000000
40.853661 26.561100 3.775157 17.000000
31.824162 -8.432078 1.351073 28.000000
26.088755 -20.804024 0.355267 168.000000
36.568764 56.440262 5.103892 1.000000
40.963356 26.836311 3.819723 10.000000
40.330254 6.560973 2.706785 28.000000
31.833836 -8.315829 1.355996 33.000000
26.204525 -20.747122 0.332519 14.000000
36.824764 57.272476 5.227259 6.000000
40.169064 6.685966 2.683316 29.000000
31.847408 -8.206656 1.338158 32.000000
26.315903 -20.678841 0.315443 13.000000
36.317757 56.941647 5.232310 7.000000
40.367939 6.878466 2.719881 10.000000
31.923676 -8.089790 1.339988 34.000000
29.861164 -23.288160 0.330474 11.000000
35.919044 56.752495 5.262345 7.000000
40.313435 7.021320 2.710751 9.000000
31.929554 -7.966851 1.321741 27.000000
29.895054 -23.138880 0.310113 59.000000
43.791885 29.604769 4.243723 9.000000
40.656929 7.220141 2.757159 10.000000
31.992500 -7.858111 1.323145 22.000000
29.987755 -23.035370 0.283796 10.000000
36.028820 57.860210 5.472106 1.000000
43.555511 29.644766 4.276099 18.000000
40.596638 7.355703 2.762028 10.000000
32.016804 -7.757511 1.328895 27.000000
23.336363 -17.790421 0.209987 29.000000
35.770958 57.850346 5.520260 1.000000
43.272114 29.684534 4.286587 13.000000
39.970451 7.393655 2.728377 10.000000
32.026035 -7.635585 1.316596 33.000000
23.247824 -17.601334 0.193395 19.000000
35.665573 58.155350 5.596784 2.000000
43.079197 29.784977 4.305868 13.000000
32.083214 -7.525050 1.312043 31.000000
23.236332 -17.459017 0.172474 74.000000
42.838783 29.862524 4.339149 17.000000
32.113380 -7.396250 1.306292 31.000000
23.318304 -17.374598 0.162413 29.000000
42.778435 30.031738 4.370658 17.000000
32.137512 -7.289668 1.312043 31.000000
23.377874 -17.286091 0.147161 37.000000
43.765938 73.156525 7.233454 28.000000
42.638298 30.156092 4.403786 13.000000
32.183964 -7.176277 1.301329 23.000000
23.438148 -17.204439 0.126863 38.000000
57.906116 97.525009 9.703640 10.000000
42.452576 30.258776 4.423521 18.000000
32.223679 -7.067149 1.296163 9.000000
23.477905 -17.107832 0.111544 36.000000
57.427273 97.608994 9.828368 10.000000
42.243908 30.344151 4.477346 19.000000
23.563696 -17.032215 0.106565 33.000000
42.026863 30.411200 4.492931 22.000000
25.084558 -5.309012 1.007407 8.000000
23.666637 -16.974907 0.091499 32.000000
41.848820 30.516684 4.513148 23.000000
53.041889 11.400248 3.784237 21.000000
24.903631 -5.175428 0.990480 9.000000
23.732815 -16.890982 0.071178 32.000000
41.719421 30.645962 4.547118 27.000000
52.749950 11.539933 3.785342 18.000000
24.976114 -5.095068 0.997069 7.000000
23.862223 -16.864153 0.056098 22.000000
41.503536 30.722214 4.581244 27.000000
52.676151 11.726258 3.811501 9.000000
24.381227 -4.885127 0.976981 124.000000
24.079449 -16.885677 0.046197 10.000000
41.293011 30.790075 4.615149 29.000000
52.881031 11.965755 3.857856 8.000000
24.349777 -4.786064 0.979349 194.000000
24.317665 -16.920109 0.041364 11.000000
41.114243 30.891893 4.634937 37.000000
24.298641 -4.683579 0.972269 187.000000
30.506298 -21.060606 0.038820 76.000000
40.826797 30.910683 4.660327 25.000000
30.784515 7.192106 2.271629 4.000000
24.276371 -4.587068 0.970699 183.000000
30.537922 -20.917580 0.019381 48.000000
61.304672 111.282639 12.032277 10.000000
40.623035 30.980087 4.712324 27.000000
30.897598 7.332358 2.315277 3.000000
30.581299 -20.783030 0.012907 47.000000
61.242771 111.216194 12.113375 10.000000
40.622383 30.979593 4.775201 25.000000
30.914230 7.336305 2.355551 4.000000
24.261232 -4.496554 1.008281 239.000000
30.581781 -20.791162 0.051634 64.000000
61.802910 111.266296 12.076177 10.000000
40.826862 30.910732 4.768495 24.000000
30.731714 7.174115 2.345163 1.000000
24.253532 -4.587137 1.030230 116.000000
30.538321 -20.925686 0.083996 52.000000
62.129353 110.939949 11.974659 10.000000
41.024136 30.824190 4.769274 32.000000
24.378271 -4.703341 1.049277 104.000000
30.481916 -21.051630 0.116380 62.000000
41.268497 30.783007 4.767035 25.000000
52.813385 11.931071 4.042621 15.000000
24.468159 -4.813767 1.066979 119.000000
24.310452 -16.921385 0.113732 15.000000
41.483093 30.707079 4.751537 28.000000
24.822407 -4.978030 1.087641 8.000000
24.027163 -16.855267 0.133186 30.000000
41.745171 30.664875 4.750416 25.000000
23.854914 -16.865231 0.152969 35.000000
41.874073 30.535101 4.725564 26.000000
52.984177 11.387843 4.046343 8.000000
23.731764 -16.908962 0.172919 34.000000
56.794361 97.269829 10.171459 10.000000
42.067726 30.440769 4.716520 24.000000
44.234890 9.337881 3.367599 9.000000
25.293531 -5.357852 1.142407 7.000000
23.628885 -16.966574 0.198008 35.000000
57.287804 97.333076 10.139305 10.000000
42.301105 30.385235 4.703271 22.000000
44.395184 9.201881 3.385169 8.000000
23.520817 -17.013721 0.212799 38.000000
57.709671 97.232819 10.051368 10.000000
42.535183 30.317656 4.698529 23.000000
44.426456 9.030590 3.368972 8.000000
23.478344 -17.114426 0.238337 37.000000
42.752522 30.248072 4.683202 24.000000
44.426247 8.877240 3.374656 8.000000
23.403265 -17.191408 0.253419 32.000000
42.888889 30.109280 4.667583 20.000000
23.364023 -17.294779 0.279048 32.000000
42.954865 29.932304 4.635735 27.000000
23.316347 -17.392134 0.299547 28.000000
43.208340 29.874266 4.642001 13.000000
23.252272 -17.477345 0.319855 31.000000
35.671280 57.734180 5.770369 1.000000
40.510773 27.790262 4.306660 10.000000
23.319395 -17.661926 0.342092 28.000000
35.782024 57.441528 5.706604 1.000000
40.597042 27.641542 4.279634 10.000000
40.468964 7.325275 3.056234 10.000000
23.317951 -17.795698 0.358386 19.000000
40.571972 27.407372 4.240543 19.000000
40.191452 7.130242 3.011888 23.000000
29.902693 -22.994936 0.487221 29.000000
40.581116 27.207737 4.222956 27.000000
40.457531 7.024594 3.037084 10.000000
29.210484 -7.310073 1.425279 6.000000
29.849482 -23.128607 0.520691 41.000000
36.097431 56.574421 5.505617 5.000000
40.711437 27.079351 4.200369 10.000000
40.626091 6.900566 3.040587 9.000000
29.168245 -7.413210 1.440328 6.000000
26.481667 -20.674864 0.480857 3.000000
36.618019 56.950928 5.495183 1.000000
41.074245 27.114344 4.193399 10.000000
40.183151 6.681103 2.998524 10.000000
28.942123 -7.468777 1.440962 7.000000
26.326855 -20.709753 0.502810 39.000000
36.923458 56.965916 5.461947 1.000000
41.157291 26.953100 4.183115 17.000000
29.113720 -7.621551 1.456086 6.000000
26.168142 -20.740614 0.530374 171.000000
37.085766 56.824394 5.399928 1.000000
40.960056 26.630274 4.128306 10.000000
40.570862 6.440311 3.023851 24.000000
29.063902 -7.711584 1.460126 6.000000
26.048553 -20.794287 0.541055 174.000000
34.882812 53.023300 4.995098 17.000000
40.980068 26.419977 4.094357 10.000000
40.647820 6.307145 3.020709 10.000000
23.964478 -6.461626 1.213917 9.000000
25.901741 -20.832977 0.562801 184.000000
34.946121 52.697853 4.943161 11.000000
41.151989 26.338039 4.094197 10.000000
23.978554 -6.559790 1.228887 10.000000
25.785978 -20.895983 0.590918 95.000000
34.995419 52.334789 4.866400 8.000000
41.276852 26.195087 4.053624 10.000000
42.780201 6.317231 3.168061 8.000000
23.901003 -6.632827 1.234830 31.000000
35.298771 52.411469 4.840011 3.000000
23.824617 -6.701285 1.236415 35.000000
41.414295 -34.066532 1.020295 29.000000
23.847502 -6.802141 1.247566 33.000000
41.269493 -34.201801 1.047885 33.000000
35.655106 52.131500 4.726732 1.000000
45.504749 6.217194 3.356587 14.000000
23.841391 -6.894989 1.252903 30.000000
40.970608 -34.208176 1.080749 37.000000
35.912426 52.096920 4.702183 8.000000
32.091602 19.719732 3.057014 8.000000
45.304787 6.020807 3.340187 14.000000
40.779182 -34.302784 1.125532 38.000000
32.011818 19.509438 3.022825 26.000000
47.467529 6.139685 3.489640 13.000000
40.553421 -34.367474 1.159897 31.000000
32.185165 19.476677 3.013576 19.000000
42.346478 5.334587 3.119330 11.000000
25.633455 -7.714794 1.384177 9.000000
40.345135 -34.433651 1.194419 31.000000
32.347427 19.413252 3.002208 28.000000
42.381130 5.181225 3.112972 22.000000
25.612276 -7.801140 1.389108 28.000000
40.146164 -34.518963 1.220003 35.000000
31.801069 18.919649 2.938236 30.000000
42.445282 5.023730 3.116244 11.000000
25.613682 -7.914065 1.400280 25.000000
39.871208 -34.537521 1.261544 33.000000
31.350760 18.511257 2.858972 25.000000
42.489799 4.871152 3.095669 13.000000
25.631687 -8.022660 1.412263 26.000000
39.679829 -34.627117 1.287087 36.000000
37.210571 51.574753 4.413676 18.000000
31.595190 18.499746 2.868630 62.000000
42.715000 4.738420 3.118330 7.000000
25.444574 -8.066607 1.412917 6.000000
39.480637 -34.709011 1.321466 35.000000
37.365952 51.392090 4.365164 21.000000
32.402279 18.820740 2.916186 30.000000
42.661064 4.589278 3.113265 26.000000
25.734079 -8.257355 1.444775 5.000000
39.251244 -34.763226 1.363830 37.000000
31.316612 18.022400 2.792910 19.000000
42.554901 4.412635 3.096752 11.000000
39.095375 -34.869446 1.399233 79.000000
31.565161 18.011751 2.796409 16.000000
42.516205 4.251176 3.092781 14.000000
38.907269 -34.958553 1.424484 33.000000
37.458237 50.364067 4.168960 23.000000
32.372440 18.337828 2.856277 9.000000
38.655853 -34.989567 1.456393 36.000000
37.588116 50.172009 4.108951 23.000000
32.820999 18.418285 2.869486 23.000000
38.522896 -35.126949 1.492649 61.000000
37.508926 49.685749 4.036713 4.000000
32.129620 17.890463 2.784471 8.000000
24.323763 -8.285222 1.414143 6.000000
38.282688 -35.165764 1.524648 32.000000
37.747276 49.622208 3.988130 8.000000
23.761286 -8.200227 1.392145 6.000000
38.057384 -35.216854 1.557036 34.000000
31.285246 17.113981 2.668792 10.000000
23.613012 -8.246034 1.389598 6.000000
37.885883 -35.304443 1.591239 25.000000
40.974434 53.072132 4.194863 17.000000
31.500820 17.096432 2.663459 18.000000
23.643364 -8.353983 1.401957 6.000000
27.137989 -25.475357 1.163240 36.000000
40.995796 52.718346 4.131382 6.000000
23.580688 -8.424541 1.408744 5.000000
27.152771 -25.677099 1.194016 17.000000
41.117085 52.476276 4.065797 24.000000
36.387135 19.396288 3.028033 32.000000
23.309753 -8.424212 1.403073 6.000000
27.159178 -25.872375 1.224674 23.000000
41.397488 52.437119 4.027678 12.000000
31.744537 16.786592 2.618140 1.000000
23.290142 -8.504549 1.420948 5.000000
27.034386 -25.943165 1.262606 25.000000
41.554245 52.278294 3.979252 16.000000
32.002495 16.780315 2.621887 8.000000
23.094921 -8.529326 1.410935 6.000000
36.947380 -35.704605 1.749346 20.000000
43.332851 54.088245 4.068961 16.000000
31.688852 16.468065 2.572432 8.000000
36.736389 -35.762024 1.790344 31.000000
43.121864 53.422428 3.982643 9.000000
31.761915 16.351448 2.554446 31.000000
26.227320 -9.910479 1.636260 6.000000
36.532814 -35.825573 1.822576 35.000000
31.705708 16.189732 2.533104 8.000000
26.097563 -9.970910 1.630434 6.000000
36.361244 -35.919701 1.856301 30.000000
42.254318 51.587936 3.763234 12.000000
34.556332 17.485950 2.735333 11.000000
26.208183 -10.112896 1.649270 6.000000
36.167645 -35.978764 1.879565 30.000000
42.206875 51.146446 3.684238 24.000000
32.155033 16.123106 2.534253 33.000000
26.061138 -10.171294 1.662061 6.000000
35.974358 -36.049782 1.920880 56.000000
42.383591 50.996925 3.637668 24.000000
32.301243 16.055563 2.528690 8.000000
66.105392 2.793753 4.754331 5.000000
25.902428 -10.218907 1.664071 6.000000
35.717964 -36.056198 1.949717 37.000000
42.236904 50.478951 3.564605 17.000000
32.428177 15.970704 2.515008 30.000000
66.483971 2.565677 4.780849 5.000000
22.399879 -8.923053 1.445170 9.000000
35.658176 -36.260696 1.989252 1.000000
41.409550 49.123192 3.434578 9.000000
32.433487 15.825877 2.498246 24.000000
66.986343 2.339215 4.816327 6.000000
32.767731 15.847596 2.506950 21.000000
66.491478 2.089579 4.768522 10.000000
36.167534 -37.308968 2.114261 6.000000
32.706089 15.670132 2.466026 8.000000
20.283129 -8.335264 1.341236 4.000000
36.434811 -37.861370 2.174728 4.000000
20.348799 -8.449560 1.355338 3.000000
36.481079 -38.188610 2.222765 22.000000
32.765144 15.411122 2.430359 33.000000
20.133615 -8.446857 1.343058 6.000000
36.302517 -38.281624 2.238868 28.000000
32.721924 15.244580 2.422992 12.000000
36.132793 -38.370010 2.291942 27.000000
16.559359 18.802744 1.225396 9.000000
32.552608 15.020739 2.381221 24.000000
21.503193 -9.202955 1.455167 8.000000
35.967216 -38.475765 2.317999 26.000000
32.560596 14.886788 2.359162 10.000000
20.297535 -8.783527 1.387578 10.000000
33.383041 15.115128 2.414721 33.000000
20.150038 -8.794960 1.394787 22.000000
33.189350 14.881086 2.371248 27.000000
38.014118 -41.528759 2.595964 5.000000
39.494034 43.586418 2.701770 1.000000
33.106670 14.712353 2.355492 15.000000
20.580994 -9.163249 1.445021 5.000000
37.997818 -41.817669 2.654715 21.000000
39.745705 43.542362 2.666807 21.000000
20.377079 -9.153548 1.440657 5.000000
37.877762 -41.964302 2.695589 10.000000
39.747372 43.224941 2.615193 19.000000
34.931717 15.239516 2.451185 38.000000
75.823204 -0.582292 5.435236 2.000000
20.507900 -9.298481 1.464032 5.000000
39.712578 42.885677 2.562153 14.000000
34.668110 14.959146 2.415220 30.000000
75.737679 -0.859254 5.402719 2.000000
20.405636 -9.342429 1.459166 6.000000
39.734707 42.595348 2.502562 21.000000
34.398815 14.693631 2.359917 32.000000
40.339886 42.927578 2.489551 18.000000
34.128941 14.437693 2.324944 27.000000
40.645821 42.936691 2.457354 21.000000
34.030476 14.249215 2.301735 25.000000
39.028252 40.940754 2.311350 20.000000
34.249176 14.193478 2.300002 8.000000
23.009960 -10.940701 1.696751 6.000000
39.047653 40.661652 2.264236 20.000000
23.459133 -11.259877 1.746590 6.000000
38.989090 40.303940 2.213048 17.000000
23.490974 -11.376220 1.761059 8.000000
39.008602 40.029469 2.166733 22.000000
23.623075 -11.547274 1.787954 8.000000
39.247128 39.993980 2.133037 11.000000
23.723186 -11.704128 1.808042 7.000000
38.720558 39.169178 2.038844 19.000000
20.346869 8.006641 1.314371 7.000000
34.997490 -42.020206 3.038255 3.000000
38.547291 38.709095 1.993594 18.000000
20.567200 8.006413 1.318968 6.000000
23.570547 -11.839292 1.825947 8.000000
34.922882 -42.259544 3.103433 24.000000
38.460102 38.339466 1.934352 9.000000
20.491608 7.898836 1.304740 6.000000
23.442177 -11.882608 1.823973 11.000000
34.747021 -42.331833 3.119442 5.000000
19.052170 18.860277 0.940858 7.000000
20.383644 7.763381 1.288231 5.000000
52.337318 -2.861973 3.757191 19.000000
23.470472 -12.000112 1.847916 10.000000
34.458126 -42.325195 3.166077 17.000000
38.325474 37.662338 1.838859 31.000000
20.500200 7.725943 1.278537 8.000000
52.521957 -3.065188 3.752768 19.000000
23.395020 -12.069900 1.850063 36.000000
38.375973 37.462624 1.797827 18.000000
52.282524 -3.225214 3.736404 19.000000
23.442951 -12.203629 1.866649 55.000000
38.279236 37.069260 1.749068 18.000000
51.652653 -3.385494 3.692291 19.000000
23.531815 -12.354480 1.891134 26.000000
42.901291 -53.857101 4.139025 1.000000
38.177937 36.700966 1.701271 17.000000
20.472591 7.459507 1.248729 8.000000
51.475071 -3.563377 3.689557 19.000000
23.529570 -12.463525 1.908624 25.000000
42.528027 -53.791889 4.182066 20.000000
38.140583 36.409748 1.647871 17.000000
33.749020 -2.460608 2.419645 26.000000
23.549709 -12.584939 1.913987 28.000000
42.520233 -54.189098 4.237004 5.000000
37.977142 35.988605 1.598538 16.000000
33.561623 -2.564750 2.400932 32.000000
23.346706 -12.581421 1.915004 82.000000
37.943848 35.718979 1.573935 17.000000
33.204098 -2.648209 2.387657 31.000000
23.614702 -12.837751 1.959696 25.000000
43.284798 -55.943424 4.474969 25.000000
37.799534 35.298004 1.507852 17.000000
40.782669 14.194048 2.421817 15.000000
31.509228 -2.640366 2.255432 16.000000
23.641521 -12.964815 1.970583 32.000000
43.535351 -56.736370 4.561979 3.000000
37.708282 34.979427 1.463639 17.000000
40.830311 14.059005 2.406743 9.000000
31.360790 -2.732683 2.250965 35.000000
23.647581 -13.075715 1.989105 38.000000
43.491840 -57.091202 4.641164 4.000000
37.562538 34.601070 1.417603 16.000000
41.915733 14.269279 2.436766 9.000000
30.571259 -2.771443 2.194976 74.000000
23.764069 -13.254087 2.017301 32.000000
43.914413 -58.044205 4.757801 17.000000
37.502609 34.268600 1.374646 16.000000
41.864628 14.064607 2.415030 9.000000
30.630024 -2.889996 2.205339 33.000000
23.819014 -13.399424 2.035713 10.000000
37.401913 33.949684 1.340353 16.000000
41.892490 13.919538 2.406234 9.000000
30.574554 -2.997861 2.202121 36.000000
23.815155 -13.506908 2.044206 18.000000
37.326855 33.609253 1.297728 16.000000
46.251873 15.162129 2.636072 10.000000
30.597168 -3.118738 2.209992 37.000000
23.825148 -13.628229 2.063789 28.000000
37.200493 33.272762 1.245909 16.000000
46.232395 14.986140 2.598087 10.000000
30.582462 -3.219743 2.198899 32.000000
23.975170 -13.825337 2.095526 10.000000
37.150890 32.984100 1.205486 19.000000
46.333260 14.822478 2.583508 10.000000
30.649399 -3.340415 2.209986 37.000000
31.284428 -18.193354 2.759252 28.000000
37.026451 32.643208 1.163263 16.000000
46.130276 14.589090 2.561010 10.000000
30.587608 -3.441762 2.211783 34.000000
31.279009 -18.329277 2.776849 38.000000
36.894417 32.287247 1.121144 15.000000
46.251011 14.441015 2.547797 10.000000
30.500484 -3.545211 2.206408 37.000000
31.237181 -18.466259 2.798522 33.000000
36.008018 -50.202850 4.363500 20.000000
36.892467 32.047535 1.074841 15.000000
46.166100 14.229011 2.523320 10.000000
30.061817 -3.605942 2.170305 60.000000
31.181715 -18.588034 2.806012 35.000000
35.755486 -50.238541 4.398448 1.000000
36.786880 31.719986 1.034443 15.000000
46.596596 14.174896 2.518423 10.000000
24.083956 -2.978474 1.743768 26.000000
31.152828 -18.711107 2.828123 36.000000
7.420177 -10.499307 0.926090 39.000000
37.036224 31.699060 1.012644 24.000000
24.058567 -3.060636 1.742693 250.000000
31.129545 -18.845297 2.838353 36.000000
7.365925 -10.500117 0.932889 217.000000
37.179356 31.586208 0.979313 15.000000
24.051832 -3.149403 1.747285 234.000000
31.088774 -18.976667 2.860146 37.000000
7.318470 -10.514228 0.940745 229.000000
37.337425 31.485609 0.946319 15.000000
24.010170 -3.233502 1.749358 77.000000
31.031378 -19.105566 2.880793 35.000000
7.274649 -10.537333 0.953788 232.000000
37.564365 31.442120 0.906380 15.000000
69.582222 20.070721 3.630576 10.000000
24.088263 -3.329668 1.747352 6.000000
31.030100 -19.246977 2.905823 35.000000
7.228106 -10.544535 0.958996 206.000000
37.770485 31.391085 0.874406 15.000000
24.050909 -3.414386 1.749800 5.000000
30.962278 -19.362410 2.925340 36.000000
7.175012 -10.549787 0.966033 223.000000
37.901283 31.265636 0.831885 15.000000
24.117495 -3.514063 1.751294 7.000000
30.936234 -19.496670 2.935715 39.000000
7.134880 -10.569933 0.976785 230.000000
38.112770 31.206049 0.799613 15.000000
23.996889 -3.577796 1.747644 23.000000
30.901125 -19.633154 2.958486 37.000000
7.090066 -10.587016 0.987141 228.000000
38.362999 31.176764 0.776570 15.000000
53.319775 14.546638 2.712748 13.000000
23.948164 -3.664584 1.749358 251.000000
30.832592 -19.756199 2.978466 34.000000
7.035094 -10.592679 0.996307 226.000000
38.633076 31.161833 0.745060 15.000000
53.518784 14.390384 2.691085 6.000000
23.906321 -3.739355 1.747198 169.000000
30.787409 -19.871567 2.986888 39.000000
7.002384 -10.619674 1.003358 220.000000
38.790455 31.054790 0.702523 19.000000
23.876644 -3.832968 1.741897 146.000000
30.804947 -20.043207 3.015068 31.000000
6.951337 -10.622757 1.008040 228.000000
39.002159 30.990387 0.678207 30.000000
72.539078 18.935579 3.574829 17.000000
23.888792 -3.911940 1.747918 8.000000
30.733471 -20.149748 3.034311 34.000000
6.898307 -10.626520 1.017117 225.000000
39.268948 30.968256 0.645948 30.000000
72.155502 18.566662 3.539678 19.000000
23.618830 -3.956674 1.725013 8.000000
30.687626 -20.280901 3.050031 34.000000
6.858829 -10.650982 1.028173 231.000000
39.481045 30.901493 0.603810 25.000000
30.801603 7.805446 1.487365 8.000000
23.622120 -4.054778 1.730633 7.000000
30.637526 -20.409521 3.058935 34.000000
6.807900 -10.653407 1.032770 230.000000
39.675842 30.831234 0.570056 27.000000
30.718800 7.664752 1.476462 57.000000
23.658091 -4.137508 1.738426 7.000000
30.593721 -20.534885 3.081126 40.000000
6.749648 -10.648063 1.040923 218.000000
39.864178 30.743912 0.527202 32.000000
30.766586 7.556998 1.466335 255.000000
29.082541 -5.196102 2.133223 37.000000
30.574686 -20.685059 3.106288 36.000000
6.717258 -10.679221 1.052756 228.000000
40.099888 30.691963 0.502385 30.000000
30.770544 7.438494 1.448604 254.000000
29.764490 -5.430593 2.189998 31.000000
30.550798 -20.824718 3.124226 30.000000
6.667131 -10.686234 1.059886 202.000000
40.345074 30.667995 0.459951 25.000000
30.769180 7.318903 1.430672 246.000000
29.808495 -5.551589 2.189399 21.000000
30.477020 -20.938444 3.144008 31.000000
6.619007 -10.692024 1.064794 136.000000
40.559990 30.575243 0.416669 28.000000
30.772205 7.200559 1.412995 238.000000
24.919151 -4.731049 1.827034 10.000000
30.452904 -21.078728 3.149091 32.000000
6.675831 -10.872657 1.089310 1.000000
40.728054 30.468475 0.381734 32.000000
30.783028 7.089847 1.401299 254.000000
24.876846 -4.817548 1.829660 33.000000
30.414940 -21.217756 3.172745 34.000000
41.004303 30.441381 0.338707 28.000000
30.765671 6.967206 1.382788 195.000000
24.825089 -4.901993 1.822723 24.000000
30.356895 -21.343100 3.181353 33.000000
41.236542 30.379986 0.303944 35.000000
30.825834 6.862151 1.367785 13.000000
24.759245 -4.978850 1.814723 36.000000
30.321951 -21.477085 3.198595 33.000000
41.450245 30.325884 0.259955 28.000000
30.822193 6.742869 1.349967 1.000000
24.716711 -5.064621 1.808528 34.000000
30.323668 -21.645638 3.213674 35.000000
31.123869 -52.356102 5.371662 5.000000
41.686646 30.264896 0.233767 27.000000
58.172546 12.502975 2.535445 3.000000
24.708055 -5.157281 1.804838 36.000000
30.250137 -21.752945 3.240116 34.000000
30.913227 -52.417465 5.420376 21.000000
41.897278 30.161724 0.171195 30.000000
24.674660 -5.244761 1.799365 32.000000
30.219067 -21.899078 3.238801 35.000000
30.740057 -52.563171 5.445180 5.000000
42.094807 30.092495 0.117406 29.000000
63.677265 13.198519 2.657378 1.000000
24.637316 -5.326776 1.789143 32.000000
30.202791 -22.048487 3.245285 37.000000
42.154232 30.112747 0.036167 35.000000
63.594517 13.181366 2.517686 9.000000
24.649744 -5.333967 1.737034 33.000000
30.203297 -22.048857 3.179591 31.000000
41.882469 30.139965 0.036024 29.000000
63.754311 13.446762 2.503077 9.000000
24.685242 -5.247010 1.716042 32.000000
30.250717 -21.913963 3.130145 38.000000
41.674561 30.222813 0.053910 27.000000
24.695995 -5.154764 1.693349 36.000000
30.248318 -21.751637 3.089282 36.000000
41.498901 30.328136 0.071768 28.000000
58.363335 12.757280 2.284589 14.000000
24.705217 -5.066759 1.675073 32.000000
30.285400 -21.610344 3.052271 34.000000
41.182125 30.328812 0.080338 23.000000
30.815695 6.848605 1.190633 13.000000
24.748932 -4.981271 1.663511 36.000000
30.322573 -21.477526 3.009272 34.000000
40.946194 30.387156 0.097894 26.000000
30.766018 6.955995 1.189690 202.000000
24.807034 -4.898428 1.652902 13.000000
30.345715 -21.327324 2.977728 35.000000
40.766445 30.486101 0.115500 32.000000
30.769733 7.075476 1.185311 254.000000
24.898302 -4.826212 1.644515 22.000000
30.413532 -21.208883 2.944172 32.000000
40.542572 30.551022 0.141762 30.000000
30.772587 7.194983 1.191952 242.000000
24.876892 -4.727524 1.637507 25.000000
30.444397 -21.072840 2.907509 36.000000
6.611605 -10.759628 1.022733 89.000000
40.354622 30.641928 0.159184 34.000000
30.770313 7.313499 1.192894 246.000000
29.756140 -5.541838 1.941417 18.000000
30.449543 -20.911747 2.868229 35.000000
6.628689 -10.703490 1.006320 214.000000
40.052742 30.633713 0.184817 25.000000
30.769083 7.426773 1.188312 245.000000
29.668306 -5.418395 1.918585 32.000000
6.678896 -10.696775 0.996909 230.000000
39.849022 30.710045 0.210737 30.000000
30.755812 7.542969 1.199929 245.000000
29.658821 -5.304407 1.911422 49.000000
30.559578 -20.667063 2.825727 36.000000
6.716655 -10.674129 0.985904 231.000000
39.633457 30.776115 0.227709 26.000000
30.718462 7.653278 1.194025 38.000000
23.588894 -4.129650 1.506658 7.000000
30.587473 -20.522947 2.789001 35.000000
6.772304 -10.675563 0.975004 221.000000
39.453312 30.868689 0.262296 32.000000
30.655895 7.757134 1.203744 5.000000
23.652611 -4.055762 1.505610 7.000000
30.639387 -20.403042 2.767840 34.000000
6.825183 -10.672241 0.968082 228.000000
39.210186 30.910818 0.296289 30.000000
72.374496 18.596079 2.857599 9.000000
23.638044 -3.964135 1.499548 8.000000
30.674362 -20.264444 2.732009 36.000000
6.862940 -10.649198 0.954816 226.000000
38.975174 30.957853 0.312743 27.000000
23.741833 -3.892129 1.492571 39.000000
30.730209 -20.147610 2.698461 37.000000
6.907988 -10.633306 0.940076 225.000000
38.814419 31.062862 0.347073 30.000000
23.898170 -3.832145 1.501549 244.000000
30.733965 -19.989389 2.673040 35.000000
6.964540 -10.638878 0.933787 226.000000
38.521172 31.060472 0.362741 12.000000
53.407433 14.340454 2.124381 17.000000
23.907896 -3.743877 1.488569 255.000000
30.783831 -19.861645 2.638889 34.000000
7.004021 -10.614091 0.920471 230.000000
38.284336 31.090652 0.378747 15.000000
53.065632 14.457402 2.103266 15.000000
23.901217 -3.661670 1.474681 172.000000
30.807930 -19.725229 2.615784 37.000000
7.054367 -10.605623 0.910799 233.000000
38.104073 31.176718 0.421058 15.000000
23.979523 -3.579485 1.474406 8.000000
30.898014 -19.623608 2.598046 35.000000
7.105668 -10.602306 0.901445 225.000000
37.908352 31.249235 0.445884 15.000000
77.404045 21.684427 3.130197 18.000000
23.997673 -3.492327 1.470477 7.000000
30.912554 -19.474209 2.561208 34.000000
7.139420 -10.568702 0.887384 233.000000
37.704918 31.314342 0.470503 23.000000
77.376381 21.982851 3.146376 17.000000
24.044472 -3.417754 1.459879 6.000000
30.960325 -19.353672 2.540342 36.000000
7.190734 -10.564971 0.877967 209.000000
37.486160 31.365536 0.494799 23.000000
77.559341 22.342367 3.157125 4.000000
24.032116 -3.326182 1.458379 7.000000
30.990532 -19.214945 2.505052 35.000000
7.241212 -10.555751 0.865934 220.000000
37.301937 31.444544 0.519433 15.000000
77.677826 22.685158 3.179456 15.000000
23.969639 -3.232303 1.449658 116.000000
31.041536 -19.096880 2.484599 34.000000
7.285869 -10.537843 0.857665 206.000000
37.083263 31.493427 0.551962 27.000000
77.755966 23.017605 3.214437 19.000000
24.037611 -3.143274 1.440255 255.000000
31.052805 -18.947277 2.460791 35.000000
7.331588 -10.525237 0.847474 162.000000
36.885487 31.547745 0.576071 15.000000
24.049221 -3.055182 1.436024 234.000000
31.127775 -18.836802 2.435729 35.000000
7.373489 -10.503099 0.834365 1.000000
36.780743 31.692316 0.601670 25.000000
29.913626 -3.704733 1.785495 23.000000
31.147375 -18.700438 2.413033 32.000000
36.833912 31.974112 0.638510 15.000000
47.151730 14.514774 1.981507 10.000000
30.056778 -3.610659 1.777332 129.000000
31.186783 -18.568928 2.391709 34.000000
35.966297 -50.460133 3.920294 17.000000
36.885479 32.256699 0.675664 13.000000
47.064163 14.676879 1.997312 10.000000
30.739128 -3.578387 1.816893 43.000000
31.225630 -18.437374 2.370421 35.000000
36.931797 32.536854 0.704469 12.000000
46.907833 14.807986 1.992859 10.000000
30.489468 -3.436108 1.796007 107.000000
31.261435 -18.311649 2.336522 36.000000
37.047482 32.880733 0.743559 12.000000
64.620964 20.660471 2.772313 35.000000
30.427774 -3.321635 1.775598 34.000000
31.281931 -18.169991 2.314041 28.000000
37.185658 33.236137 0.774776 9.000000
64.529625 20.892263 2.795377 163.000000
30.464565 -3.212707 1.777045 34.000000
31.358011 -18.060797 2.295732 25.000000
37.256474 33.545883 0.805065 16.000000
64.633011 21.187771 2.803201 91.000000
30.521753 -3.105669 1.763588 47.000000
31.378918 -17.927263 2.267337 27.000000
37.429817 33.927387 0.846515 16.000000
30.656511 -3.005897 1.781514 180.000000
31.392654 -17.782814 2.257283 30.000000
37.489361 34.232491 0.886146 16.000000
45.755547 15.354004 2.014380 10.000000
30.508102 -2.883865 1.766928 40.000000
37.604961 34.615891 0.927850 16.000000
20.627104 7.009989 0.916901 11.000000
30.493610 -2.769770 1.765489 37.000000
43.165997 -57.013603 4.035659 1.000000
37.731739 34.964443 0.951796 16.000000
20.568205 7.074171 0.915429 225.000000
30.574099 -2.664133 1.753449 100.000000
43.552418 -57.087997 3.989340 5.000000
37.820946 35.293293 0.993276 17.000000
20.522963 7.142836 0.922174 240.000000
31.418928 -2.627277 1.801364 23.000000
43.215088 -56.237663 3.878354 16.000000
37.849457 35.605213 1.043135 17.000000
20.486916 7.214582 0.929331 235.000000
33.080700 -2.644177 1.890260 30.000000
43.295006 -55.916271 3.792834 1.000000
37.992115 35.977631 1.077757 17.000000
20.468550 7.280472 0.937129 240.000000
33.353088 -2.554669 1.905330 43.000000
38.170647 36.412987 1.114234 17.000000
20.410961 7.352423 0.935836 210.000000
51.980423 -3.771600 2.941171 10.000000
28.255535 -15.074378 1.874602 7.000000
42.355618 -53.901779 3.568672 20.000000
38.176926 36.687180 1.155316 17.000000
20.381464 7.418246 0.943191 202.000000
51.812737 -3.595839 2.931029 19.000000
28.345940 -15.002069 1.860439 7.000000
38.288715 37.052547 1.199822 16.000000
20.349140 7.491058 0.950543 189.000000
51.676125 -3.396090 2.922578 19.000000
28.319715 -14.861877 1.832900 7.000000
38.459869 37.492119 1.247000 18.000000
20.302511 7.558504 0.957230 165.000000
51.904102 -3.201870 2.925616 19.000000
38.353664 37.663731 1.285573 28.000000
20.266338 7.625690 0.964347 156.000000
52.133713 -3.042530 2.937973 19.000000
18.979431 18.775156 0.657121 7.000000
20.216574 7.699751 0.971008 102.000000
38.421982 38.274734 1.363308 14.000000
23.324354 -11.802425 1.438596 9.000000
34.760468 -42.318085 2.582611 13.000000
38.489368 38.650932 1.418825 18.000000
39.860130 15.508766 1.942216 9.000000
23.465637 -11.766088 1.444640 9.000000
34.881733 -42.149792 2.532277 9.000000
38.715305 39.136532 1.470389 7.000000
140.466904 -6.157480 7.836244 10.000000
39.089165 39.805210 1.529096 18.000000
140.858658 -5.632844 7.856834 10.000000
38.984318 39.976620 1.559703 19.000000
140.870651 -5.165493 7.782469 10.000000
38.958241 40.243931 1.613469 17.000000
140.923569 -4.650293 7.784399 10.000000
39.110966 40.699135 1.665401 20.000000
23.190771 -11.121111 1.352401 6.000000
39.230003 41.123638 1.706662 10.000000
23.164362 -11.004203 1.335036 6.000000
40.696892 42.960598 1.839018 21.000000
40.298843 42.853916 1.858947 17.000000
34.819542 14.715513 1.815732 8.000000
20.199463 -9.414872 1.140650 8.000000
40.181534 43.044209 1.901952 21.000000
34.873028 14.881803 1.834485 9.000000
75.511681 -1.120320 4.169337 1.000000
20.226755 -9.333225 1.132364 9.000000
39.920689 43.080250 1.938113 18.000000
35.124630 15.141592 1.870702 8.000000
20.190016 -9.235188 1.116931 8.000000
39.701233 43.144527 1.985981 18.000000
75.602638 -0.580598 4.174023 19.000000
20.237726 -9.167466 1.109930 10.000000
39.747463 43.513771 2.037451 16.000000
75.964439 -0.304942 4.180610 4.000000
20.224745 -9.076635 1.091959 10.000000
41.294319 45.509354 2.167421 22.000000
20.218575 -8.993434 1.082267 10.000000
41.036186 45.559307 2.194767 21.000000
33.446598 14.982408 1.837319 10.000000
20.197073 -8.895341 1.067780 9.000000
40.752098 45.562737 2.252165 14.000000
33.312939 15.069375 1.858589 8.000000
71.150162 0.459474 3.928168 15.000000
20.151718 -8.787320 1.063673 9.000000
16.659449 18.763990 0.942021 5.000000
71.407585 0.722877 3.942500 10.000000
20.329323 -8.780438 1.063675 8.000000
16.570370 18.788784 0.953638 9.000000
71.186348 0.969160 3.905522 9.000000
21.661833 -9.261906 1.111006 6.000000
40.381733 46.111443 2.376104 22.000000
36.428799 -38.630280 1.705766 1.000000
40.306328 46.399826 2.436326 4.000000
32.614262 15.326254 1.882253 33.000000
20.186605 -8.456662 1.016823 6.000000
36.474579 -38.395905 1.664299 1.000000
37.271130 17.681692 2.176398 9.000000
64.349266 1.561424 3.531129 10.000000
26.248064 -10.883040 1.310188 5.000000
36.367352 -38.016384 1.616577 1.000000
66.768845 1.853360 3.664234 7.000000
26.383345 -10.831359 1.305069 5.000000
36.292202 -37.660519 1.570543 4.000000
32.695862 15.798759 1.947563 29.000000
66.761604 2.098068 3.664234 13.000000
26.404985 -10.727322 1.289232 8.000000
36.052250 -37.164078 1.518638 1.000000
32.358902 15.782492 1.943528 20.000000
66.493385 2.333620 3.661605 7.000000
26.388929 -10.608281 1.276593 7.000000
41.124165 49.096817 2.785043 6.000000
32.316139 15.901511 1.963195 8.000000
26.188511 -10.411087 1.255097 9.000000
35.602333 -36.153389 1.408446 32.000000
32.082634 15.932939 1.965086 8.000000
64.270279 2.716197 3.540165 3.000000
26.176817 -10.306045 1.243052 9.000000
35.816246 -36.104961 1.376133 33.000000
42.005253 50.865944 2.972518 7.000000
34.576019 17.329479 2.141996 9.000000
64.130234 2.945786 3.533022 10.000000
26.093798 -10.163055 1.227539 12.000000
36.044399 -36.069576 1.344186 33.000000
34.527679 17.456316 2.163083 9.000000
26.033382 -10.029789 1.213202 9.000000
36.208935 -35.969582 1.309741 36.000000
25.991011 -9.904216 1.199800 30.000000
36.381176 -35.889236 1.275731 34.000000
43.233391 53.522358 3.268709 12.000000
31.632015 16.284575 2.020247 24.000000
26.067881 -9.829440 1.192015 26.000000
36.581104 -35.822865 1.233422 35.000000
43.291660 53.998188 3.336484 17.000000
36.669872 19.048473 2.368151 10.000000
25.963699 -9.681613 1.175930 22.000000
36.762943 -35.737919 1.199314 37.000000
39.029835 49.032085 3.076017 9.000000
36.712963 19.233887 2.389771 5.000000
25.952524 -9.569246 1.164155 10.000000
36.984203 -35.690285 1.166356 33.000000
38.656578 48.930161 3.104354 14.000000
36.473419 19.279093 2.400435 26.000000
26.011271 -9.482756 1.155542 29.000000
27.101925 -25.962585 0.825481 17.000000
38.447567 49.034000 3.156493 9.000000
36.559952 19.496601 2.432585 18.000000
25.919333 -9.341756 1.140295 28.000000
27.058788 -25.740734 0.795341 26.000000
38.369549 49.287857 3.218845 8.000000
36.693138 19.732445 2.460609 31.000000
25.872162 -9.222839 1.127193 23.000000
27.189695 -25.676083 0.770297 37.000000
31.455770 17.064875 2.132380 25.000000
25.882601 -9.119781 1.116589 15.000000
37.776730 -35.412724 1.030385 18.000000
38.128582 49.708096 3.316098 4.000000
35.812889 19.582619 2.439286 22.000000
25.795490 -8.993038 1.092435 28.000000
37.923740 -35.314991 0.995003 36.000000
37.729649 49.563126 3.351693 1.000000
35.722446 19.711716 2.473997 28.000000
25.831383 -8.889416 1.092435 26.000000
