VERSION .7
FIELDS x y z intensity
SIZE 4 4 4 4
TYPE F F F F
COUNT 1 1 1 1
WIDTH 1247
HEIGHT 1
VIEWPOINT 0 0 0 1 0 0 0
POINTS 1247
DATA ascii
11.957508 16.900700 -1.844055 6.000000
5.495544 0.639745 -1.042406 26.000000
8.430131 -2.646691 -1.711113 7.000000
7.202461 -6.381168 -1.539571 8.000000
11.864831 16.640020 -1.845513 6.000000
5.488015 0.617519 -1.041519 32.000000
8.252066 -2.625638 -1.673868 25.000000
7.161802 -6.392153 -1.525569 8.000000
11.916088 16.589100 -1.862439 6.000000
5.480652 0.596357 -1.038703 29.000000
8.206112 -2.644177 -1.660258 22.000000
7.098917 -6.382925 -1.508607 8.000000
11.770998 16.266972 -1.859148 6.000000
5.482360 0.575252 -1.041590 30.000000
8.136042 -2.656125 -1.643486 21.000000
7.051014 -6.386744 -1.493182 9.000000
11.668063 16.000908 -1.854533 6.000000
5.474933 0.553227 -1.038773 30.000000
8.047803 -2.659998 -1.623019 15.000000
7.028901 -6.413770 -1.481558 9.000000
11.551770 15.725830 -1.847929 6.000000
5.466963 0.532187 -1.037876 29.000000
7.977524 -2.670790 -1.607858 15.000000
6.962453 -6.400062 -1.465725 9.000000
11.433531 15.451531 -1.844072 7.000000
5.468786 0.511175 -1.038835 44.000000
7.889922 -2.673661 -1.584632 14.000000
6.918502 -6.406603 -1.449611 9.000000
11.366765 15.244131 -1.847728 6.000000
5.465815 0.489734 -1.037906 31.000000
7.795970 -2.675239 -1.567814 20.000000
6.875514 -6.411520 -1.435209 9.000000
11.421532 15.206524 -1.871448 6.000000
5.467393 0.469682 -1.038864 30.000000
7.712637 -2.678280 -1.548590 11.000000
6.813426 -6.400471 -1.417120 10.000000
11.482360 15.176895 -1.892847 6.000000
5.454287 0.447466 -1.037029 29.000000
7.624772 -2.680619 -1.525697 10.000000
6.758496 -6.395663 -1.402256 9.000000
11.379663 14.927131 -1.890048 4.000000
5.460862 0.426902 -1.037959 29.000000
7.560093 -2.689055 -1.510366 17.000000
6.728910 -6.414577 -1.391031 9.000000
11.296988 14.711884 -1.890670 2.000000
5.452773 0.406168 -1.035143 30.000000
7.457736 -2.684950 -1.489102 14.000000
6.670729 -6.405945 -1.373948 7.000000
11.243594 14.537021 -1.892677 2.000000
5.453751 0.385190 -1.038006 25.000000
7.359206 -2.685807 -1.466092 10.000000
6.638691 -6.419872 -1.362073 8.000000
11.232457 14.423532 -1.902090 1.000000
5.440485 0.363264 -1.035208 30.000000
7.296956 -2.700674 -1.451901 9.000000
6.594872 -6.424440 -1.348055 8.000000
11.086747 14.124216 -1.890395 1.000000
5.441600 0.343310 -1.036160 34.000000
7.214171 -2.714503 -1.432763 9.000000
6.526374 -6.404500 -1.329064 9.000000
11.042887 13.972690 -1.893865 1.000000
5.452572 0.324897 -1.038027 29.000000
7.190133 -2.738458 -1.425993 9.000000
6.486083 -6.411796 -1.317509 9.000000
10.995889 13.803935 -1.898509 4.000000
5.419374 0.300144 -1.032440 36.000000
7.132689 -2.753706 -1.411544 9.000000
6.463513 -6.436495 -1.307958 10.000000
10.975044 13.684404 -1.905649 4.000000
5.425244 0.282426 -1.033374 38.000000
6.973018 -2.718666 -1.377670 8.000000
6.403521 -6.421428 -1.290655 9.000000
10.821397 13.396745 -1.892130 5.000000
5.426559 0.259707 -1.032426 35.000000
6.889997 -2.716820 -1.359309 8.000000
6.356821 -6.421498 -1.273109 9.000000
10.893251 13.380269 -1.917033 1.000000
5.432063 0.239069 -1.035258 40.000000
6.824877 -2.722850 -1.344631 8.000000
6.323452 -6.434792 -1.264718 9.000000
10.696896 13.050453 -1.892742 1.000000
5.427814 0.218952 -1.035271 54.000000
6.747076 -2.720518 -1.327322 8.000000
6.284579 -6.440048 -1.251825 9.000000
10.732576 12.991913 -1.914044 4.000000
5.428615 0.198110 -1.035271 69.000000
6.664339 -2.716953 -1.309194 8.000000
6.217040 -6.417729 -1.233512 10.000000
10.721848 12.882473 -1.918514 2.000000
5.149660 2.522792 -0.964756 1.000000
5.434245 0.177424 -1.036207 44.000000
6.623126 -2.728503 -1.299180 10.000000
6.201236 -6.448542 -1.225512 10.000000
10.620211 12.679129 -1.916590 4.000000
5.434803 0.159402 -1.036207 40.000000
6.577847 -2.736747 -1.288311 10.000000
6.154495 -6.447066 -1.211429 9.000000
10.553213 12.505740 -1.913583 6.000000
5.425014 0.138269 -1.037176 44.000000
6.482001 -2.724782 -1.268952 11.000000
6.098732 -6.433465 -1.195412 10.000000
10.466872 12.315944 -1.907279 5.000000
5.420956 0.117339 -1.034345 54.000000
6.436273 -2.734688 -1.255746 10.000000
6.052192 -6.431420 -1.181487 10.000000
10.443636 12.189104 -1.914000 6.000000
5.426293 0.095664 -1.035282 47.000000
6.380626 -2.741333 -1.243273 19.000000
6.019408 -6.443742 -1.168726 10.000000
10.374324 12.023012 -1.913274 5.000000
5.426621 0.074828 -1.035282 40.000000
6.303402 -2.735566 -1.226458 10.000000
5.967366 -6.432899 -1.153625 10.000000
10.325150 11.886104 -1.910866 6.000000
5.436309 0.055982 -1.039053 72.000000
6.271663 -2.747847 -1.219676 10.000000
5.941205 -6.451966 -1.143790 10.000000
10.276585 11.747120 -1.916395 6.000000
5.426668 0.034097 -1.037176 58.000000
6.202649 -2.747341 -1.204725 10.000000
5.888079 -6.441493 -1.130355 10.000000
10.265745 11.648301 -1.922906 6.000000
5.436576 0.015182 -1.039053 38.000000
6.126177 -2.739089 -1.188097 10.000000
5.856482 -6.452007 -1.117783 10.000000
10.215353 11.517971 -1.923051 6.000000
5.451148 -0.002854 -1.042821 36.000000
6.076461 -2.743627 -1.175598 10.000000
5.820165 -6.459412 -1.107651 13.000000
10.137165 11.345770 -1.916674 5.000000
5.456190 -0.023807 -1.042808 79.000000
6.004193 -2.737534 -1.159988 16.000000
5.771891 -6.450975 -1.093532 9.000000
10.059599 11.172316 -1.912545 5.000000
5.450768 -0.046617 -1.043772 176.000000
5.958584 -2.744423 -1.148483 17.000000
5.723778 -6.449113 -1.078612 10.000000
10.021967 11.056567 -1.914292 5.000000
5.446036 -0.064638 -1.040931 34.000000
5.918726 -2.749893 -1.139030 13.000000
5.708521 -6.470491 -1.071703 10.000000
9.980594 10.930145 -1.917108 4.000000
5.455204 -0.085697 -1.044712 34.000000
5.859308 -2.750938 -1.125055 26.000000
5.657327 -6.457763 -1.055668 10.000000
9.990702 10.864807 -1.924851 5.000000
8.943067 3.868158 -1.723351 1.000000
5.459745 -0.106739 -1.045653 34.000000
5.810132 -2.752642 -1.113983 22.000000
5.614802 -6.456814 -1.043047 10.000000
9.930928 10.720673 -1.926507 5.000000
9.002676 3.851115 -1.738895 1.000000
5.474023 -0.128047 -1.048474 32.000000
5.778130 -2.763458 -1.107480 21.000000
5.579963 -6.462169 -1.031687 10.000000
9.794482 10.499621 -1.908216 5.000000
5.473517 -0.148109 -1.048474 34.000000
5.737768 -2.770040 -1.095957 25.000000
5.537672 -6.460913 -1.017692 12.000000
9.784014 10.411631 -1.913957 5.000000
8.755972 3.671684 -1.696384 1.000000
5.477817 -0.169276 -1.049414 31.000000
5.696767 -2.777268 -1.085599 28.000000
5.486811 -6.446980 -1.003484 10.000000
9.657216 10.201515 -1.896802 4.000000
8.927087 3.705024 -1.735598 1.000000
5.492033 -0.190826 -1.051276 25.000000
5.673453 -2.791685 -1.081963 27.000000
5.470228 -6.475433 -0.995785 9.000000
9.681031 10.148336 -1.911263 5.000000
8.932860 3.663633 -1.737201 1.000000
5.491297 -0.210954 -1.051276 30.000000
5.641143 -2.803970 -1.071150 27.000000
5.426027 -6.468780 -0.981387 10.000000
9.648124 10.039903 -1.912343 5.000000
8.849081 3.591440 -1.726942 1.000000
5.490365 -0.233954 -1.051276 29.000000
5.608639 -2.814722 -1.064769 29.000000
5.388071 -6.476152 -0.968786 9.000000
9.583777 9.906976 -1.905324 5.000000
8.728338 3.507000 -1.706066 1.000000
5.494604 -0.253353 -1.051255 26.000000
5.582175 -2.824653 -1.058148 31.000000
5.390500 -6.520627 -0.963925 9.000000
9.551247 9.804629 -1.906651 5.000000
8.813442 3.503731 -1.725309 1.000000
5.498544 -0.273734 -1.052194 28.000000
5.550811 -2.834384 -1.047452 29.000000
5.354595 -6.525753 -0.952822 9.000000
9.578778 9.761057 -1.919594 5.000000
8.829962 3.472875 -1.731172 1.000000
5.506892 -0.295351 -1.055996 20.000000
5.505642 -2.836808 -1.038661 33.000000
5.351242 -6.568289 -0.947315 8.000000
9.446009 9.555451 -1.900305 5.000000
8.879622 3.453096 -1.740014 1.000000
5.506269 -0.316525 -1.053109 19.000000
5.482545 -2.851600 -1.029709 27.000000
5.459099 -6.751058 -0.960045 255.000000
9.409660 9.455757 -1.903301 5.000000
5.509724 -0.335059 -1.055973 22.000000
5.441803 -2.855799 -1.021811 35.000000
5.474552 -6.816275 -0.959010 10.000000
9.395185 9.368984 -1.909625 5.000000
5.528183 -0.357492 -1.058764 12.000000
5.405771 -2.862208 -1.012621 24.000000
9.392867 9.298263 -1.916344 5.000000
5.531538 -0.380982 -1.059703 28.000000
5.382658 -2.875279 -1.006976 30.000000
6.122891 -7.739030 -1.059838 25.000000
9.387177 9.231195 -1.920659 5.000000
5.540225 -0.400044 -1.060611 25.000000
5.354823 -2.886893 -0.999473 31.000000
6.122452 -7.791435 -1.053733 30.000000
7.247955 2.635175 -1.437715 1.000000
5.548295 -0.423996 -1.062486 32.000000
5.336147 -2.902117 -0.993611 9.000000
6.102448 -7.827660 -1.043194 30.000000
7.356760 2.666014 -1.460156 1.000000
5.556757 -0.444158 -1.063389 34.000000
5.334735 -2.926736 -0.990978 9.000000
6.014983 -7.771260 -1.020736 29.000000
7.411101 2.657937 -1.473450 1.000000
5.574692 -0.468120 -1.066160 24.000000
5.301810 -2.936422 -0.983786 8.000000
5.950855 -7.746903 -1.002603 35.000000
7.599983 2.695774 -1.514951 1.000000
5.592223 -0.489256 -1.071864 23.000000
5.262323 -2.937398 -0.975023 7.000000
5.987757 -7.851523 -1.002984 10.000000
7.725492 2.708457 -1.539459 1.000000
5.610054 -0.512529 -1.074632 24.000000
5.243143 -2.953153 -0.968175 6.000000
5.914639 -7.814883 -0.983431 26.000000
7.827414 2.710485 -1.565169 1.000000
5.613214 -0.533570 -1.074585 33.000000
5.938646 -7.903787 -0.983291 16.000000
7.864408 2.691055 -1.575092 1.000000
5.630667 -0.559038 -1.077341 20.000000
5.183963 -2.970086 -0.952685 7.000000
5.974214 -8.009187 -0.981476 98.000000
5.657998 -0.581703 -1.082952 29.000000
5.143687 -2.972104 -0.943027 102.000000
5.907035 -7.979987 -0.962993 11.000000
5.670291 -0.603978 -1.086753 21.000000
5.197047 -3.028397 -0.952686 7.000000
5.862055 -7.977302 -0.949730 5.000000
5.692530 -0.628461 -1.090434 10.000000
5.185953 -3.048666 -0.948486 8.000000
5.883218 -8.067905 -0.947392 1.000000
9.801236 3.190289 -1.975563 1.000000
5.739065 -0.655913 -1.098778 13.000000
5.162706 -3.060518 -0.940913 8.000000
9.817102 3.153817 -1.981903 4.000000
5.761203 -0.679844 -1.102437 9.000000
5.147777 -3.077221 -0.935952 18.000000
9.785158 3.104035 -1.980576 1.000000
5.894883 -0.718579 -1.129611 7.000000
5.140974 -3.098787 -0.934628 12.000000
9.744479 3.050000 -1.975504 2.000000
5.965381 -0.750430 -1.142576 8.000000
5.126054 -3.115465 -0.928624 25.000000
5.756707 -8.133498 -0.898084 9.000000
9.736175 3.008264 -1.975262 1.000000
5.115152 -3.134569 -0.924436 38.000000
5.700277 -8.113684 -0.881481 8.000000
9.695019 2.954816 -1.970103 1.000000
10.576632 -1.366157 -2.024718 6.000000
5.098378 -3.143907 -0.919777 32.000000
5.767868 -8.274199 -0.885973 37.000000
9.704464 2.918865 -1.977178 1.000000
10.566089 -1.406064 -2.025646 15.000000
5.091698 -3.165605 -0.915304 39.000000
5.722469 -8.270462 -0.872816 23.000000
9.724347 2.884175 -1.982634 1.000000
10.541496 -1.444005 -2.020055 4.000000
5.084520 -3.187041 -0.913964 36.000000
5.637759 -8.209127 -0.852004 31.000000
9.687258 2.832752 -1.978327 1.000000
10.570533 -1.487473 -2.024721 1.000000
5.074461 -3.204224 -0.909774 36.000000
5.778026 -8.476624 -0.865044 21.000000
9.687483 2.794317 -1.979923 1.000000
10.544947 -1.525186 -2.022853 2.000000
5.066395 -3.227650 -0.905282 33.000000
5.919309 -8.749360 -0.877767 27.000000
9.649622 2.743305 -1.977292 2.000000
10.520273 -1.562881 -2.015410 8.000000
5.050769 -3.243781 -0.901394 30.000000
5.921037 -8.821406 -0.871610 32.000000
9.625553 2.698371 -1.975759 1.000000
10.588235 -1.608882 -2.027505 31.000000
5.049079 -3.266396 -0.896582 33.000000
5.893557 -8.847048 -0.859032 25.000000
9.639905 2.662514 -1.980219 4.000000
10.455426 -1.629799 -2.005170 39.000000
5.033193 -3.282349 -0.893747 32.000000
5.808473 -8.778975 -0.839552 13.000000
9.602066 2.612423 -1.973981 5.000000
10.434884 -1.667662 -2.000533 37.000000
5.034177 -3.309353 -0.890697 34.000000
5.802704 -8.843861 -0.828759 18.000000
9.600770 2.574315 -1.978975 1.000000
10.486973 -1.719187 -2.007984 39.000000
5.022660 -3.328210 -0.885439 34.000000
5.776160 -8.874148 -0.818452 1.000000
9.576729 2.528493 -1.975599 1.000000
10.418261 -1.745288 -1.994072 28.000000
5.014799 -3.349515 -0.884061 30.000000
5.802495 -8.983035 -0.813479 9.000000
9.560870 2.486856 -1.977606 1.000000
10.473462 -1.799670 -2.007984 9.000000
5.006053 -3.372813 -0.879519 28.000000
5.801233 -9.050240 -0.804518 10.000000
9.517438 2.436582 -1.970240 1.000000
10.560079 -1.850627 -2.021881 3.000000
5.007759 -3.398161 -0.876401 28.000000
5.737865 -9.020535 -0.790711 27.000000
9.501955 2.393780 -1.970455 1.000000
10.553243 -1.891223 -2.020009 4.000000
4.986883 -3.412034 -0.871804 32.000000
5.439240 -8.620674 -0.739599 10.000000
9.466846 2.348069 -1.966691 5.000000
10.550736 -1.932616 -2.020935 1.000000
4.987067 -3.439063 -0.869717 29.000000
5.650430 -9.025043 -0.759518 11.000000
9.431608 2.300922 -1.964574 2.000000
10.548065 -1.972111 -2.023734 1.000000
4.985909 -3.467879 -0.867609 30.000000
5.303469 -8.536977 -0.706305 94.000000
9.382524 2.250813 -1.956042 3.000000
10.545935 -2.013652 -2.020913 5.000000
4.987041 -3.493261 -0.865480 28.000000
5.446835 -8.836416 -0.716758 14.000000
9.375073 2.212718 -1.959787 4.000000
10.532956 -2.053123 -2.021861 5.000000
4.974574 -3.511776 -0.862292 27.000000
5.468402 -8.941126 -0.712671 18.000000
9.344654 2.167693 -1.955161 3.000000
10.559789 -2.098557 -2.024583 6.000000
4.974383 -3.539032 -0.859068 23.000000
9.332471 2.127138 -1.957849 5.000000
10.536860 -2.136089 -2.023687 4.000000
4.965767 -3.560386 -0.856565 23.000000
5.510579 -9.156656 -0.702333 9.000000
9.329310 2.090477 -1.962521 2.000000
10.509332 -2.172553 -2.019988 1.000000
4.972349 -3.576944 -0.857579 24.000000
5.312695 -8.897999 -0.670168 8.000000
9.279202 2.041862 -1.953772 9.000000
10.521222 -2.215251 -2.019934 2.000000
4.979736 -3.610029 -0.856751 30.000000
5.259128 -8.878547 -0.654657 15.000000
9.223745 1.992559 -1.945621 5.000000
10.550731 -2.263807 -2.029203 4.000000
4.974951 -3.634451 -0.853830 23.000000
9.244692 1.961647 -1.951949 6.000000
10.523849 -2.298419 -2.021747 7.000000
4.982139 -3.667784 -0.851863 34.000000
4.608378 -7.902117 -0.562703 190.000000
9.178257 1.910752 -1.946597 6.000000
10.533443 -2.342924 -2.029203 7.000000
4.988028 -3.701735 -0.854189 24.000000
4.473438 -7.738862 -0.538889 109.000000
9.174933 1.873333 -1.949468 1.000000
10.500406 -2.377926 -2.024583 7.000000
4.990653 -3.732126 -0.853651 18.000000
4.588194 -8.001720 -0.546381 68.000000
9.126947 1.828714 -1.948007 2.000000
10.485723 -2.416965 -2.027416 5.000000
4.996959 -3.765479 -0.854860 17.000000
4.512497 -7.930536 -0.532505 26.000000
9.032792 1.809849 -1.943020 3.000000
10.353024 -2.386378 -2.020966 1.000000
4.989666 -3.747709 -0.864811 23.000000
4.504814 -7.917032 -0.541171 38.000000
8.982637 1.835703 -1.933733 6.000000
10.288475 -2.331820 -2.014317 6.000000
5.001867 -3.729635 -0.872435 22.000000
4.623924 -8.060773 -0.565118 37.000000
9.027875 1.881088 -1.946694 6.000000
10.257633 -2.283456 -2.014151 1.000000
4.994866 -3.696007 -0.875480 24.000000
4.475360 -7.742188 -0.557921 162.000000
8.981966 1.910814 -1.936829 8.000000
10.202202 -2.231902 -2.009207 6.000000
4.996823 -3.666505 -0.880960 30.000000
4.778310 -8.200080 -0.605420 9.000000
8.980692 1.941694 -1.936257 7.000000
10.186351 -2.187484 -2.006303 1.000000
4.984330 -3.631972 -0.882120 23.000000
5.028853 -8.561199 -0.647295 4.000000
8.995707 1.984419 -1.944628 4.000000
10.154501 -2.141740 -2.005985 6.000000
4.989089 -3.606193 -0.890375 25.000000
5.091226 -8.598515 -0.667221 9.000000
8.941646 2.005250 -1.931102 5.000000
10.084369 -2.086537 -1.997992 5.000000
4.992475 -3.583495 -0.893234 25.000000
5.151466 -8.631387 -0.683500 9.000000
8.996549 2.053876 -1.941284 5.000000
10.053483 -2.039923 -1.992164 6.000000
5.000265 -3.544317 -0.901775 24.000000
5.206717 -8.655164 -0.702759 10.000000
8.979066 2.086190 -1.939226 4.000000
10.059525 -2.002789 -1.999325 3.000000
5.004484 -3.519821 -0.905659 30.000000
5.231277 -8.627666 -0.714392 17.000000
8.995829 2.124866 -1.941146 5.000000
10.018630 -1.954684 -1.991540 5.000000
5.008460 -3.495250 -0.910591 30.000000
5.271304 -8.625624 -0.728155 7.000000
8.987602 2.159392 -1.941146 5.000000
10.024360 -1.917689 -1.998666 5.000000
5.000256 -3.462342 -0.912212 35.000000
5.277307 -8.568084 -0.738973 9.000000
8.988752 2.196208 -1.943201 5.000000
10.035098 -1.879830 -2.006755 2.000000
5.010319 -3.446073 -0.918581 25.000000
5.353584 -8.631083 -0.760113 9.000000
8.991067 2.233393 -1.938789 4.000000
9.936419 -1.821881 -1.983777 8.000000
5.011195 -3.417124 -0.921634 28.000000
5.446607 -8.713010 -0.781623 1.000000
9.001801 2.271120 -1.942886 9.000000
9.878893 -1.773934 -1.978259 52.000000
5.014831 -3.392743 -0.925416 32.000000
5.091276 -8.075429 -0.739583 5.000000
9.036341 2.316776 -1.948847 5.000000
9.885293 -1.735929 -1.980011 41.000000
5.022321 -3.371044 -0.930995 29.000000
9.028364 2.351712 -1.943963 3.000000
9.838070 -1.690490 -1.971108 39.000000
5.017514 -3.341207 -0.933214 32.000000
6.506225 -10.161775 -0.968702 17.000000
9.042928 2.392622 -1.949062 5.000000
9.843128 -1.652473 -1.978077 35.000000
5.029045 -3.322345 -0.938474 28.000000
6.570729 -10.184062 -0.987911 16.000000
9.025298 2.423387 -1.943761 1.000000
9.965216 -1.633653 -2.003168 14.000000
5.032101 -3.297934 -0.943236 29.000000
5.720042 -8.798003 -0.870139 27.000000
9.077324 2.474762 -1.956997 1.000000
9.936204 -1.591522 -2.001627 5.000000
5.039322 -3.276326 -0.947708 35.000000
5.736480 -8.756250 -0.880863 23.000000
9.087615 2.515095 -1.956133 3.000000
9.902791 -1.547194 -1.997322 4.000000
5.046309 -3.254618 -0.953218 29.000000
5.747114 -8.706034 -0.892494 25.000000
9.083707 2.549894 -1.953856 1.000000
9.941718 -1.517745 -2.005917 1.000000
5.068987 -3.245494 -0.959772 9.000000
9.088631 2.588964 -1.953599 1.000000
9.908586 -1.472009 -1.999842 1.000000
5.122950 -3.251123 -0.972940 7.000000
5.924528 -8.836602 -0.936394 58.000000
9.107175 2.632095 -1.958017 4.000000
9.879159 -1.428889 -1.998216 1.000000
5.096370 -3.208113 -0.972122 7.000000
5.918266 -8.760990 -0.947304 28.000000
9.097190 2.668824 -1.954708 6.000000
9.849901 -1.386066 -1.994818 4.000000
5.149237 -3.215101 -0.985388 3.000000
5.889319 -8.652870 -0.950722 23.000000
9.112272 2.707830 -1.954780 1.000000
9.820571 -1.345251 -1.989666 4.000000
5.298849 -3.281586 -1.016177 1.000000
5.724535 -8.347965 -0.931881 22.000000
9.092125 2.743343 -1.949450 3.000000
9.830179 -1.308134 -1.992381 5.000000
5.116830 -3.142973 -0.983359 1.000000
5.611590 -8.122325 -0.919300 17.000000
9.082819 2.775163 -1.947793 1.000000
9.838511 -1.274307 -1.998561 5.000000
5.169416 -3.149236 -0.998835 4.000000
5.678887 -8.158689 -0.941406 19.000000
9.124707 2.824569 -1.955509 1.000000
5.170777 -3.116751 -1.001662 8.000000
5.705229 -8.132797 -0.953073 22.000000
9.120094 2.861561 -1.948171 3.000000
5.840928 -0.687185 -1.187997 7.000000
5.194264 -3.105011 -1.008342 7.000000
5.801938 -8.209553 -0.975060 25.000000
9.160905 2.911290 -1.959155 1.000000
5.740768 -0.652048 -1.170232 8.000000
5.200457 -3.082897 -1.013852 7.000000
5.861411 -8.232581 -0.996246 8.000000
9.136643 2.942253 -1.951134 1.000000
5.709332 -0.626282 -1.162282 10.000000
5.207013 -3.061047 -1.016188 8.000000
5.936000 -8.276049 -1.012982 2.000000
4.224400 3.875020 -0.945922 1.000000
9.130260 2.978939 -1.950454 1.000000
5.666621 -0.601586 -1.158330 22.000000
5.187154 -3.023846 -1.018766 9.000000
5.969635 -8.261896 -1.031764 7.000000
4.163784 3.847615 -0.929403 1.000000
9.142460 3.023580 -1.950387 1.000000
5.635068 -0.575370 -1.150370 13.000000
5.172289 -2.989834 -1.015832 28.000000
5.975921 -8.207063 -1.036595 7.000000
9.127848 3.054135 -1.946035 1.000000
5.627290 -0.554736 -1.148379 22.000000
5.187391 -2.972049 -1.020845 9.000000
5.868465 -8.000648 -1.025355 7.000000
7.914722 2.682065 -1.685029 1.000000
5.609667 -0.531258 -1.145382 21.000000
5.205886 -2.957355 -1.028798 9.000000
5.889591 -7.970958 -1.038167 9.000000
7.895844 2.707971 -1.681595 1.000000
5.577089 -0.504611 -1.141343 22.000000
5.220200 -2.940231 -1.034874 10.000000
6.360445 -8.542521 -1.128794 150.000000
7.811852 2.712733 -1.662910 1.000000
5.563892 -0.484821 -1.139322 21.000000
5.238752 -2.925440 -1.041812 8.000000
6.249196 -8.332230 -1.116752 48.000000
7.645421 2.686380 -1.625153 1.000000
5.565712 -0.463453 -1.139322 30.000000
5.179852 -2.867694 -1.032261 1.000000
7.645089 2.719287 -1.622871 1.000000
5.547323 -0.440481 -1.138238 34.000000
5.293154 -2.905126 -1.058141 4.000000
7.468783 2.688927 -1.586184 1.000000
5.539006 -0.418424 -1.137204 24.000000
5.272676 -2.868790 -1.057338 32.000000
7.344043 2.677369 -1.554870 3.000000
5.516074 -0.396365 -1.132189 26.000000
5.295332 -2.857206 -1.062041 39.000000
7.368676 7.210904 -1.610804 1.000000
7.232268 2.686783 -1.527653 1.000000
5.512471 -0.374836 -1.132151 14.000000
5.322479 -2.846716 -1.069731 31.000000
7.383369 7.275910 -1.608440 1.000000
5.513869 -0.353667 -1.132151 20.000000
5.358970 -2.838626 -1.081317 35.000000
5.114416 -6.525001 -0.951916 9.000000
7.371873 7.318031 -1.600630 1.000000
7.202769 2.740391 -1.520331 1.000000
5.490543 -0.331007 -1.128092 22.000000
5.386099 -2.827765 -1.089075 34.000000
5.130385 -6.498526 -0.959446 9.000000
7.412385 7.412385 -1.605951 1.000000
5.486436 -0.310582 -1.129006 19.000000
5.412873 -2.816563 -1.098990 32.000000
5.146018 -6.471749 -0.969841 9.000000
7.452714 7.507547 -1.607414 1.000000
7.159888 2.788645 -1.506106 1.000000
5.482501 -0.289245 -1.128958 23.000000
5.440801 -2.804600 -1.104672 33.000000
5.193902 -6.483049 -0.983200 10.000000
5.473788 -0.267713 -1.126944 19.000000
5.475667 -2.799629 -1.114294 29.000000
5.222086 -6.471802 -0.993085 9.000000
5.479625 -0.247870 -1.127951 24.000000
5.508597 -2.787421 -1.123061 34.000000
5.257527 -6.467079 -1.005639 10.000000
5.460767 -0.226010 -1.124877 21.000000
5.544632 -2.780177 -1.131678 31.000000
5.307698 -6.482432 -1.019804 10.000000
5.466488 -0.205224 -1.125885 255.000000
5.579535 -2.774562 -1.141414 28.000000
5.328484 -6.463967 -1.028577 11.000000
8.879342 9.272242 -1.879744 5.000000
5.462341 -0.184068 -1.124877 11.000000
5.593964 -2.753784 -1.148844 35.000000
5.380763 -6.476558 -1.047289 11.000000
8.945514 9.410145 -1.887155 4.000000
5.452964 -0.164698 -1.123813 23.000000
5.629876 -2.747090 -1.155374 35.000000
5.404922 -6.461922 -1.053788 10.000000
8.934346 9.464336 -1.877842 5.000000
5.433999 -0.142294 -1.119778 10.000000
5.656518 -2.734468 -1.165581 30.000000
5.447803 -6.462604 -1.070790 9.000000
9.022776 9.628466 -1.889729 5.000000
8.174737 3.438022 -1.701341 1.000000
5.439402 -0.121538 -1.120786 20.000000
5.693319 -2.724117 -1.175460 30.000000
5.485649 -6.461594 -1.082808 10.000000
9.005626 9.681037 -1.879428 5.000000
8.321097 3.535525 -1.729579 1.000000
5.430036 -0.100470 -1.118769 10.000000
5.729830 -2.714598 -1.184273 30.000000
5.537441 -6.474352 -1.098920 9.000000
9.070756 9.819562 -1.883503 5.000000
5.440175 -0.079763 -1.120786 18.000000
5.814621 -2.728719 -1.204364 10.000000
5.565724 -6.461621 -1.109131 9.000000
9.102965 9.927184 -1.883352 5.000000
5.420821 -0.061500 -1.116751 26.000000
5.594975 -6.447638 -1.120851 9.000000
9.084511 9.980247 -1.872682 4.000000
5.425929 -0.038828 -1.117760 19.000000
6.190663 -2.848696 -1.286409 6.000000
5.649290 -6.464505 -1.136351 10.000000
9.130862 10.101781 -1.872541 5.000000
8.203274 3.631765 -1.695136 1.000000
5.425836 -0.019887 -1.118707 24.000000
6.226280 -2.840104 -1.295557 7.000000
5.675298 -6.446429 -1.147501 9.000000
9.161250 10.210381 -1.871800 5.000000
8.267243 3.696385 -1.704596 1.000000
5.411376 0.000000 -1.114734 24.000000
6.226584 -2.814028 -1.297275 6.000000
5.720017 -6.458487 -1.160327 10.000000
9.205958 10.332541 -1.873533 4.000000
5.416240 0.018906 -1.115742 29.000000
6.088085 -2.724607 -1.271155 8.000000
5.763622 -6.457592 -1.174902 9.000000
9.268184 10.472092 -1.878342 5.000000
5.411231 0.039667 -1.114734 22.000000
6.111363 -2.706908 -1.277463 11.000000
5.807493 -6.463473 -1.187192 9.000000
9.296670 10.582177 -1.874447 4.000000
5.411049 0.059500 -1.114734 27.000000
6.174389 -2.707797 -1.293434 17.000000
5.831290 -6.440046 -1.197808 9.000000
9.397820 10.772924 -1.887178 5.000000
5.415677 0.080349 -1.115742 26.000000
6.241780 -2.710118 -1.311619 10.000000
5.870409 -6.435682 -1.213386 9.000000
9.427499 10.887240 -1.888353 5.000000
5.419800 0.103119 -1.118644 24.000000
6.306366 -2.706821 -1.327766 10.000000
5.908724 -6.432446 -1.225982 9.000000
9.400633 10.933104 -1.872688 5.000000
5.404720 0.121706 -1.115612 24.000000
6.369815 -2.706450 -1.342788 10.000000
5.948197 -6.427969 -1.238629 9.000000
9.455125 11.078358 -1.876112 4.000000
5.331048 2.577129 -1.085692 1.000000
5.409108 0.142587 -1.116622 27.000000
6.437384 -2.708672 -1.358825 11.000000
6.004432 -6.441219 -1.256390 9.000000
9.520985 11.226759 -1.880500 5.000000
5.321624 2.597829 -1.082591 1.000000
5.403849 0.162270 -1.114668 22.000000
6.514566 -2.713086 -1.376844 20.000000
6.034044 -6.432351 -1.266206 9.000000
9.544925 11.338978 -1.877652 5.000000
5.317156 2.619824 -1.079352 1.000000
5.398292 0.182853 -1.113659 22.000000
6.569638 -2.706468 -1.390139 12.000000
6.083703 -6.437835 -1.282713 9.000000
9.694467 11.598566 -1.896261 5.000000
5.312596 2.641820 -1.076106 6.000000
5.412230 0.204133 -1.116688 26.000000
6.637675 -2.706083 -1.407624 10.000000
6.126795 -6.436018 -1.296319 9.000000
9.663077 11.647504 -1.876999 5.000000
5.303418 2.662704 -1.069892 5.000000
5.407097 0.224734 -1.112845 22.000000
6.701931 -2.702315 -1.422969 10.000000
6.165399 -6.431465 -1.309258 9.000000
9.676504 11.755250 -1.869476 6.000000
5.400956 0.244311 -1.113725 23.000000
6.756658 -2.695633 -1.436439 10.000000
6.238168 -6.455301 -1.330404 9.000000
9.690908 11.861079 -1.867078 4.000000
5.223239 2.670566 -1.052354 1.000000
5.409760 0.265528 -1.115742 29.000000
6.848384 -2.701793 -1.457729 20.000000
6.250462 -6.420761 -1.337589 8.000000
9.799153 12.070763 -1.873202 6.000000
5.030664 2.595407 -1.009347 1.000000
5.414175 0.286588 -1.113913 28.000000
6.903215 -2.694227 -1.471321 16.000000
6.296082 -6.422617 -1.352176 9.000000
9.854769 12.226243 -1.875299 6.000000
4.842265 2.521798 -0.969550 1.000000
5.402867 0.306797 -1.113789 26.000000
6.953964 -2.683311 -1.483987 21.000000
6.344295 -6.429011 -1.366005 9.000000
9.876455 12.345485 -1.868436 1.000000
4.876872 2.562587 -0.976370 1.000000
5.416566 0.327496 -1.115866 27.000000
7.022578 -2.680257 -1.500615 8.000000
6.407215 -6.440851 -1.385330 8.000000
9.996908 12.594887 -1.883286 6.000000
4.833244 2.562312 -0.965570 1.000000
5.405494 0.347663 -1.113852 23.000000
7.091714 -2.675493 -1.517310 9.000000
6.435451 -6.424229 -1.397948 9.000000
10.073146 12.777724 -1.888350 3.000000
4.737123 2.534703 -0.944438 2.000000
5.409200 0.368762 -1.113913 27.000000
7.150748 -2.667867 -1.534766 9.000000
6.496517 -6.437822 -1.415884 9.000000
10.088270 12.889196 -1.876450 1.000000
5.417650 0.388342 -1.115925 32.000000
7.221601 -2.674217 -1.548566 9.000000
6.548635 -6.446568 -1.430788 8.000000
10.267153 13.212509 -1.897581 1.000000
5.421268 0.408579 -1.115982 35.000000
7.279147 -2.672436 -1.562116 9.000000
6.553298 -6.404034 -1.438137 8.000000
10.210561 13.239552 -1.881301 3.000000
5.414970 0.429020 -1.114029 31.000000
7.331658 -2.669955 -1.574714 8.000000
6.625270 -6.427063 -1.458658 8.000000
10.274629 13.419230 -1.877831 2.000000
5.423082 0.452530 -1.115088 17.000000
7.404036 -2.669997 -1.591310 9.000000
6.670324 -6.421239 -1.471421 9.000000
10.325988 13.589206 -1.875202 2.000000
5.426654 0.472862 -1.114191 26.000000
7.510386 -2.675805 -1.616292 10.000000
6.699836 -6.402502 -1.482696 8.000000
10.294828 13.646827 -1.857049 1.000000
5.410357 0.492381 -1.110237 30.000000
7.602531 -2.677274 -1.638394 10.000000
6.754358 -6.407406 -1.499556 8.000000
10.412191 13.903080 -1.868560 1.000000
5.433184 0.513587 -1.114290 24.000000
7.699863 -2.678363 -1.661587 9.000000
6.803351 -6.411153 -1.514075 8.000000
10.448526 14.058699 -1.862670 4.000000
5.436241 0.534944 -1.114336 30.000000
7.815356 -2.686466 -1.688881 13.000000
6.829246 -6.388459 -1.524668 8.000000
10.498156 14.228950 -1.858516 3.000000
5.439117 0.555363 -1.115336 33.000000
7.880717 -2.675143 -1.703800 12.000000
6.902058 -6.409300 -1.545797 8.000000
10.529290 14.375919 -1.847749 2.000000
5.442011 0.576780 -1.115380 22.000000
7.968565 -2.672432 -1.725249 14.000000
6.942445 -6.399577 -1.559734 7.000000
10.696817 14.712105 -1.863689 5.000000
5.445205 0.598271 -1.113511 28.000000
8.052873 -2.666352 -1.742815 12.000000
7.013070 -6.415044 -1.580281 8.000000
10.743418 14.896116 -1.859088 5.000000
5.452690 0.621256 -1.114545 27.000000
8.132005 -2.657949 -1.762389 12.000000
7.053971 -6.405129 -1.591034 8.000000
10.863297 15.168098 -1.865502 6.000000
5.450682 0.640308 -1.113587 25.000000
8.215668 -2.652005 -1.781543 7.000000
7.098135 -6.397922 -1.605983 7.000000
10.788716 15.175590 -1.835526 6.000000
5.453241 0.661846 -1.113623 30.000000
8.402182 -2.676631 -1.824561 1.000000
7.134975 -6.383887 -1.619325 7.000000
10.742702 15.223109 -1.813745 6.000000
5.460576 0.684022 -1.114649 27.000000
8.467835 -2.661776 -1.839816 1.000000
7.199259 -6.398546 -1.637736 8.000000
10.693448 15.271827 -1.798445 5.000000
5.463086 0.704684 -1.114680 27.000000
8.481289 -2.631887 -1.845481 1.000000
7.245777 -6.388012 -1.652882 8.000000
10.971207 15.785498 -1.823942 6.000000
5.475107 0.727618 -1.116691 22.000000
8.584329 -2.627770 -1.868962 3.000000
7.295489 -6.388968 -1.668092 7.000000
11.055812 16.026312 -1.823298 6.000000
5.492083 0.751345 -1.118720 22.000000
8.541286 -2.582020 -1.860867 12.000000
7.350999 -6.390126 -1.685921 8.000000
11.147319 16.280249 -1.823436 6.000000
4.472723 2.810087 -0.848912 1.000000
5.494339 0.772179 -1.118741 16.000000
8.649147 -2.576779 -1.887029 10.000000
7.420016 -6.398009 -1.706415 8.000000
11.153240 16.411495 -1.809317 6.000000
4.367206 2.766170 -0.825251 1.000000
5.501229 0.794699 -1.119747 26.000000
8.793609 -2.586432 -1.919905 3.000000
7.443799 -6.375601 -1.715827 7.000000
11.227996 16.646189 -1.806127 6.000000
4.378454 2.795833 -0.824659 8.000000
5.522573 0.819443 -1.123710 36.000000
11.292773 16.875315 -1.801479 6.000000
5.534118 0.842885 -1.125692 28.000000
9.150780 -2.613576 -2.002014 6.000000
5.151757 -4.321305 -1.197755 8.000000
11.408615 17.177851 -1.804124 6.000000
5.546619 0.859653 -1.127670 24.000000
9.141237 -2.572929 -2.001212 7.000000
5.125309 -4.267217 -1.192766 9.000000
11.462191 17.389929 -1.796546 7.000000
5.553656 0.880606 -1.127677 21.000000
9.130297 -2.535488 -2.002049 6.000000
5.105649 -4.219259 -1.192936 10.000000
11.503520 17.585920 -1.786773 8.000000
4.329134 2.849120 -0.806934 1.000000
5.574697 0.907897 -1.129636 28.000000
9.120853 -2.493472 -2.001216 4.000000
5.105217 -4.187507 -1.194001 10.000000
11.481225 17.686295 -1.766943 8.000000
5.581134 0.927954 -1.132584 25.000000
9.091900 -2.448076 -1.996220 6.000000
5.085386 -4.140155 -1.191717 8.000000
11.415181 17.719685 -1.740357 8.000000
5.597253 0.952735 -1.134528 18.000000
9.071353 -2.408615 -1.993274 6.000000
5.072612 -4.098932 -1.193427 7.000000
11.337879 17.742188 -1.712577 9.000000
5.623123 0.979370 -1.137418 15.000000
9.080688 -2.370420 -1.996551 5.000000
5.060095 -4.058252 -1.191656 10.000000
11.258306 17.753946 -1.684057 9.000000
5.648855 1.005197 -1.141278 22.000000
9.073617 -2.336462 -1.996700 6.000000
5.058732 -4.026781 -1.193685 11.000000
11.173766 17.757383 -1.647510 9.000000
5.693399 1.035692 -1.150023 10.000000
9.077442 -2.300318 -1.997292 5.000000
5.046168 -3.985223 -1.194065 10.000000
11.091649 17.764145 -1.618794 9.000000
5.776567 1.073752 -1.165515 8.000000
9.100557 -2.265650 -2.003695 4.000000
5.028970 -3.941799 -1.192338 17.000000
11.051612 17.838326 -1.596240 9.000000
9.036501 -2.216233 -1.991273 6.000000
5.034803 -3.916666 -1.196071 21.000000
11.158659 18.138142 -1.590021 8.000000
9.824688 1.870605 -1.978474 8.000000
9.035058 -2.180804 -1.989180 5.000000
5.025126 -3.879658 -1.194975 21.000000
11.228781 18.395697 -1.582677 9.000000
4.335461 3.061732 -0.782809 1.000000
9.702547 1.885984 -1.951736 10.000000
9.046769 -2.146903 -1.996718 6.000000
4.987785 -3.821733 -1.188435 25.000000
11.174690 18.466150 -1.554739 9.000000
9.744358 1.931202 -1.957955 12.000000
9.026381 -2.105487 -1.990419 8.000000
4.992946 -3.796725 -1.193146 38.000000
11.090731 18.472677 -1.521783 9.000000
9.733066 1.967834 -1.951789 5.000000
9.028955 -2.069566 -1.992603 9.000000
4.999146 -3.771233 -1.194556 38.000000
10.967180 18.397615 -1.486457 8.000000
9.759741 2.012265 -1.955060 6.000000
9.022530 -2.031660 -1.989449 8.000000
4.988513 -3.734601 -1.194373 37.000000
10.902708 18.450169 -1.453488 9.000000
9.734425 2.044268 -1.944267 2.000000
9.020032 -1.996390 -1.988958 6.000000
4.989337 -3.706760 -1.198059 46.000000
10.810238 18.425604 -1.422653 9.000000
9.803613 2.098133 -1.957864 7.000000
9.007847 -1.957442 -1.987966 8.000000
4.979316 -3.669727 -1.195620 38.000000
10.701546 18.387096 -1.390682 8.000000
9.806114 2.136286 -1.956277 4.000000
9.000957 -1.919781 -1.984804 9.000000
4.983965 -3.645040 -1.199111 40.000000
10.658216 18.460571 -1.363529 9.000000
9.808754 2.176344 -1.951176 1.000000
9.012367 -1.886065 -1.989073 8.000000
4.980556 -3.614603 -1.200669 49.000000
10.525208 18.378048 -1.325022 9.000000
9.868409 2.227562 -1.960990 1.000000
8.946734 -1.838128 -1.976424 20.000000
4.981452 -3.604645 -1.200785 38.000000
10.461896 18.416267 -1.295450 9.000000
9.918530 2.278936 -1.965303 4.000000
8.906157 -1.794179 -1.964264 38.000000
4.963307 -3.561246 -1.197383 37.000000
10.369892 18.396086 -1.258312 8.000000
4.468101 3.387787 -0.771086 1.000000
9.882759 2.308883 -1.952530 7.000000
8.917775 -1.760915 -1.965321 58.000000
4.971478 -3.539579 -1.201747 35.000000
10.284433 18.394287 -1.229889 10.000000
4.326281 3.305299 -0.743857 3.000000
9.936585 2.361731 -1.961245 3.000000
8.934066 -1.728517 -1.967434 19.000000
4.984517 -3.520100 -1.204943 46.000000
10.187094 18.370441 -1.196483 9.000000
4.232404 3.258214 -0.723118 203.000000
10.014783 2.419131 -1.972823 1.000000
8.897086 -1.685947 -1.959505 33.000000
4.987614 -3.497557 -1.206195 26.000000
10.099742 18.363770 -1.160720 9.000000
4.236692 3.286315 -0.720186 217.000000
10.006755 2.457895 -1.965630 1.000000
8.937129 -1.658012 -1.966907 24.000000
4.996115 -3.474977 -1.210535 29.000000
10.102439 18.368673 -1.150020 9.000000
4.239370 3.275375 -0.716716 213.000000
10.118472 2.485335 -1.976269 4.000000
9.001626 -1.669978 -1.971068 17.000000
4.988008 -3.480977 -1.201068 21.000000
10.195846 18.378660 -1.171374 9.000000
4.247414 3.256800 -0.716053 180.000000
10.138162 2.448934 -1.974492 3.000000
9.045546 -1.714079 -1.970345 31.000000
4.988623 -3.508665 -1.195459 23.000000
10.273953 18.368017 -1.195084 9.000000
4.298256 3.270838 -0.727397 3.000000
10.133150 2.406582 -1.971702 3.000000
9.096840 -1.760009 -1.981285 24.000000
4.984756 -3.533324 -1.190985 21.000000
10.381522 18.409204 -1.222319 8.000000
10.127964 2.364306 -1.968912 3.000000
9.062897 -1.787928 -1.968563 26.000000
4.968958 -3.549560 -1.182569 74.000000
10.467068 18.410404 -1.254488 9.000000
10.064074 2.310527 -1.958565 5.000000
9.104582 -1.832499 -1.975742 7.000000
4.968705 -3.576956 -1.180079 65.000000
10.555428 18.415907 -1.279674 9.000000
10.073205 2.271942 -1.956763 1.000000
9.256600 -1.900107 -2.005128 10.000000
4.972458 -3.607401 -1.177431 59.000000
10.643824 18.420790 -1.308676 9.000000
10.147938 2.249744 -1.973424 1.000000
9.227001 -1.929302 -1.993359 5.000000
4.972714 -3.651486 -1.173524 56.000000
10.717294 18.399378 -1.335919 9.000000
10.069436 2.191810 -1.960234 5.000000
9.243446 -1.969814 -1.998531 8.000000
4.975915 -3.681983 -1.171860 40.000000
10.831028 18.446285 -1.372050 9.000000
10.087385 2.155183 -1.962103 7.000000
9.255960 -2.009666 -1.997710 8.000000
4.987003 -3.718552 -1.170927 39.000000
10.923248 18.448151 -1.397702 8.000000
10.065703 2.112004 -1.960087 4.000000
9.287755 -2.053944 -1.999324 1.000000
4.986106 -3.746396 -1.167171 39.000000
11.012390 18.451485 -1.423458 9.000000
10.011532 2.060536 -1.946135 5.000000
9.262427 -2.083981 -1.988583 8.000000
4.985069 -3.774283 -1.163383 40.000000
11.104114 18.458450 -1.453412 7.000000
10.037961 2.025831 -1.953450 8.000000
9.302400 -2.130534 -1.997168 6.000000
4.983071 -3.802960 -1.160657 56.000000
11.193412 18.460697 -1.483155 9.000000
10.063919 1.992710 -1.960779 2.000000
9.328196 -2.174172 -2.000994 8.000000
4.982582 -3.830183 -1.155711 40.000000
11.290643 18.475281 -1.514064 10.000000
9.349420 -2.215279 -2.003775 6.000000
5.015288 -3.886052 -1.161027 21.000000
11.356702 18.438416 -1.540871 8.000000
9.336765 -2.250178 -1.999402 5.000000
5.021195 -3.920166 -1.159968 23.000000
11.493491 18.515450 -1.581237 9.000000
9.357263 -2.293170 -2.002153 4.000000
5.034814 -3.960585 -1.159531 18.000000
11.547164 18.450649 -1.602223 8.000000
5.727627 1.025403 -1.117344 7.000000
9.397659 -2.339616 -2.005566 3.000000
5.036480 -3.991865 -1.157485 22.000000
11.517348 18.260956 -1.615753 7.000000
5.687436 0.996709 -1.110873 22.000000
9.408272 -2.380659 -2.006234 7.000000
5.049524 -4.032425 -1.158050 17.000000
11.469503 18.059109 -1.623604 8.000000
5.642637 0.966541 -1.102426 26.000000
9.447165 -2.429135 -2.012952 6.000000
5.066492 -4.076477 -1.157162 10.000000
11.378890 17.765337 -1.630739 8.000000
5.621930 0.941797 -1.097699 31.000000
9.447923 -2.468044 -2.011564 6.000000
5.082896 -4.120457 -1.158460 10.000000
11.453259 17.744761 -1.658470 8.000000
5.615625 0.918588 -1.096801 33.000000
9.477365 -2.512877 -2.016213 2.000000
5.076324 -4.146053 -1.153341 10.000000
11.549345 17.757278 -1.689439 9.000000
4.271628 2.792082 -0.763587 1.000000
5.594682 0.893119 -1.093058 32.000000
9.478461 -2.552161 -2.011374 7.000000
5.088490 -4.187175 -1.153656 13.000000
11.631771 17.754911 -1.715245 9.000000
5.582496 0.872199 -1.093175 31.000000
9.468931 -2.588630 -2.009661 6.000000
5.092844 -4.222157 -1.152195 10.000000
11.715008 17.733049 -1.747339 9.000000
4.299282 2.765391 -0.773098 1.000000
5.566688 0.845858 -1.089376 36.000000
9.474892 -2.627620 -2.005806 6.000000
5.123788 -4.279595 -1.154335 10.000000
11.783609 17.715626 -1.767955 10.000000
4.350490 2.775840 -0.785078 5.000000
5.550282 0.821574 -1.086557 28.000000
9.522000 -2.680100 -2.014346 7.000000
5.154236 -4.337195 -1.157504 9.000000
11.811304 17.610252 -1.791767 9.000000
4.379540 2.765422 -0.793511 7.000000
5.520078 0.790539 -1.079902 26.000000
9.502892 -2.714144 -2.008901 7.000000
5.195464 -4.404514 -1.164262 8.000000
11.876490 17.587748 -1.819380 9.000000
4.380801 2.743811 -0.795605 8.000000
5.517650 0.768582 -1.081869 34.000000
9.183232 -2.659287 -1.938160 10.000000
11.810731 17.346382 -1.828610 6.000000
4.441565 2.757107 -0.809295 7.000000
5.525237 0.748023 -1.083795 22.000000
8.806846 -2.586986 -1.857470 28.000000
7.457606 -6.380661 -1.665322 10.000000
11.726440 17.100412 -1.825004 6.000000
4.416551 2.721333 -0.806797 2.000000
5.513156 0.725821 -1.081903 21.000000
8.722770 -2.597056 -1.838425 17.000000
7.417710 -6.391508 -1.652596 10.000000
11.665891 16.885437 -1.831667 6.000000
5.501484 0.702805 -1.078071 27.000000
8.619807 -2.602473 -1.813911 15.000000
7.354577 -6.384227 -1.633245 7.000000
11.575542 16.630238 -1.833311 6.000000
5.494214 0.680446 -1.077129 20.000000
8.512522 -2.605789 -1.786960 6.000000
7.307324 -6.388074 -1.618987 7.000000
11.514661 16.408043 -1.845426 6.000000
5.491238 0.659651 -1.079070 25.000000
8.521942 -2.642872 -1.789339 1.000000
7.266621 -6.399630 -1.604734 8.000000
11.450269 16.201754 -1.843946 6.000000
5.489042 0.638017 -1.077148 35.000000
8.470232 -2.662530 -1.777392 1.000000
7.196187 -6.384583 -1.585712 8.000000
11.346427 15.924734 -1.841462 6.000000
5.476634 0.615271 -1.075240 28.000000
8.288721 -2.638894 -1.735006 17.000000
7.144540 -6.385713 -1.569173 9.000000
11.270018 15.701230 -1.843980 6.000000
5.464030 0.593584 -1.073327 23.000000
8.209384 -2.648395 -1.715819 28.000000
7.120067 -6.415438 -1.559138 8.000000
11.064322 15.307248 -1.821970 6.000000
5.461002 0.573974 -1.073327 31.000000
8.139404 -2.660367 -1.698655 25.000000
7.056285 -6.400493 -1.537865 8.000000
11.125155 15.278791 -1.846502 6.000000
5.467861 0.553477 -1.075245 23.000000
8.074286 -2.671878 -1.684012 12.000000
7.008452 -6.404084 -1.522347 8.000000
11.147065 15.185998 -1.863684 6.000000
5.460084 0.530556 -1.074283 25.000000
7.981083 -2.675081 -1.662124 9.000000
6.966817 -6.415299 -1.508472 8.000000
11.201287 15.143198 -1.886698 4.000000
5.457010 0.509113 -1.074279 37.000000
7.907280 -2.682621 -1.642734 11.000000
6.897343 -6.398199 -1.488396 9.000000
11.107990 14.918807 -1.882755 5.000000
5.459127 0.490095 -1.072365 27.000000
7.795647 -2.678170 -1.617184 10.000000
6.851765 -6.398323 -1.474747 8.000000
11.053329 14.727005 -1.886622 4.000000
5.451086 0.467323 -1.071400 35.000000
7.679976 -2.669943 -1.590787 13.000000
6.837937 -6.436990 -1.467244 8.000000
10.995955 14.549814 -1.887884 1.000000
5.442717 0.447473 -1.070432 29.000000
7.591757 -2.671990 -1.570253 17.000000
6.760467 -6.406479 -1.443517 8.000000
10.927999 14.355442 -1.886700 3.000000
5.454178 0.427338 -1.072355 28.000000
7.517701 -2.676933 -1.554063 15.000000
6.720157 -6.415193 -1.429960 9.000000
10.864488 14.169114 -1.892391 1.000000
5.441055 0.403385 -1.070422 23.000000
7.411162 -2.671105 -1.529867 14.000000
6.682302 -6.428277 -1.417208 8.000000
10.787466 13.962386 -1.888735 3.000000
5.442310 0.383427 -1.071374 30.000000
7.339561 -2.684445 -1.512020 9.000000
6.634910 -6.429675 -1.402246 9.000000
10.718906 13.774000 -1.886790 2.000000
5.438720 0.364100 -1.070411 31.000000
7.248158 -2.694126 -1.490476 9.000000
6.593190 -6.431778 -1.389706 9.000000
10.629878 13.556786 -1.883656 4.000000
5.430099 0.342584 -1.069434 31.000000
7.176160 -2.708783 -1.470142 9.000000
6.542392 -6.429190 -1.374134 9.000000
10.635659 13.467080 -1.897558 1.000000
5.426421 0.322389 -1.068469 26.000000
7.106307 -2.715056 -1.453924 9.000000
6.489291 -6.421689 -1.357908 8.000000
10.501155 13.197033 -1.882797 1.000000
5.432331 0.301812 -1.070383 30.000000
7.036981 -2.719579 -1.437772 8.000000
6.431683 -6.411509 -1.341042 8.000000
10.499104 13.100338 -1.894989 4.000000
5.115702 2.629114 -0.982132 1.000000
5.433449 0.280951 -1.070383 31.000000
6.954462 -2.717026 -1.418886 8.000000
6.412619 -6.439537 -1.332256 9.000000
10.480694 12.984227 -1.907073 4.000000
5.046096 2.568896 -0.970936 1.000000
5.429401 0.259843 -1.070367 34.000000
7.003599 -2.767267 -1.429707 9.000000
6.348209 -6.421760 -1.314098 9.000000
10.489339 12.897927 -1.917670 5.000000
5.046072 2.545639 -0.973192 1.000000
5.435218 0.240158 -1.071333 36.000000
6.807496 -2.718670 -1.385073 8.000000
6.312849 -6.430733 -1.301782 9.000000
10.359722 12.648096 -1.906134 3.000000
5.138336 2.568602 -0.994327 1.000000
5.420835 0.218671 -1.071275 29.000000
6.724338 -2.715444 -1.368954 9.000000
6.276367 -6.440622 -1.289506 9.000000
10.313078 12.497426 -1.906311 6.000000
5.436715 0.198405 -1.072282 34.000000
6.664959 -2.719920 -1.354983 8.000000
6.222679 -6.432529 -1.273747 9.000000
10.186946 12.257171 -1.894820 6.000000
5.209600 2.555540 -1.010637 3.000000
5.432503 0.178316 -1.071315 34.000000
6.591955 -2.719700 -1.335812 10.000000
6.199981 -6.456252 -1.264374 9.000000
10.144472 12.115455 -1.895431 6.000000
5.395322 2.622155 -1.050189 1.000000
5.432773 0.157445 -1.073213 32.000000
6.546080 -2.728892 -1.325971 10.000000
6.157814 -6.457309 -1.250835 9.000000
10.060193 11.929949 -1.893999 6.000000
5.231193 2.518728 -1.020616 1.000000
5.438055 0.136702 -1.075131 32.000000
6.481838 -2.731372 -1.311262 10.000000
6.085093 -6.432557 -1.231845 10.000000
10.009589 11.782043 -1.890020 5.000000
5.333518 2.542815 -1.042920 1.000000
5.428710 0.116559 -1.073192 29.000000
6.404570 -2.726497 -1.293872 12.000000
6.054287 -6.442653 -1.222064 9.000000
10.042479 11.737475 -1.910377 6.000000
5.419310 0.095541 -1.071253 32.000000
6.349514 -2.731905 -1.281116 14.000000
6.015733 -6.446571 -1.209407 10.000000
9.967920 11.576510 -1.905511 4.000000
5.429044 0.076756 -1.075087 31.000000
6.304751 -2.737459 -1.271427 10.000000
5.976231 -6.451483 -1.195267 9.000000
9.983291 11.500668 -1.921207 1.000000
5.434223 0.054063 -1.076058 31.000000
6.226308 -2.734454 -1.254225 10.000000
5.914109 -6.436052 -1.180233 10.000000
9.875142 11.296186 -1.908759 5.000000
5.438913 0.034174 -1.078928 28.000000
6.158603 -2.731689 -1.237732 9.000000
5.888007 -6.448190 -1.169751 10.000000
9.862487 11.198610 -1.916896 5.000000
5.434475 0.013279 -1.076058 35.000000
6.090790 -2.728370 -1.222493 10.000000
5.845181 -6.448597 -1.156654 10.000000
9.817571 11.077251 -1.914524 5.000000
5.439208 -0.002848 -1.077979 32.000000
6.036994 -2.729614 -1.210015 17.000000
5.818997 -6.467189 -1.146886 9.000000
9.717855 10.884112 -1.905414 5.000000
5.439344 -0.023734 -1.077029 28.000000
5.979254 -2.727424 -1.196693 22.000000
5.767718 -6.455375 -1.128918 9.000000
9.713246 10.799019 -1.912209 5.000000
5.449007 -0.046602 -1.078972 30.000000
5.937263 -2.738372 -1.185858 20.000000
5.725965 -6.460657 -1.118152 10.000000
9.603123 10.601920 -1.898474 4.000000
8.455029 3.734402 -1.683073 1.000000
5.443906 -0.065563 -1.078001 28.000000
5.697578 -6.467184 -1.108704 10.000000
9.570101 10.495302 -1.900192 4.000000
8.725391 3.813844 -1.739116 1.000000
5.453061 -0.085664 -1.081847 27.000000
5.816866 -2.732251 -1.157485 15.000000
5.652997 -6.461916 -1.093750 10.000000
9.555107 10.398384 -1.906838 4.000000
8.490223 3.674047 -1.694553 1.000000
5.447788 -0.106505 -1.080874 33.000000
5.783870 -2.746383 -1.148584 16.000000
5.600750 -6.449744 -1.079119 9.000000
9.483883 10.252425 -1.900724 5.000000
5.457523 -0.127661 -1.080914 32.000000
5.735321 -2.746675 -1.137309 26.000000
5.575819 -6.466491 -1.068061 9.000000
9.469546 10.154845 -1.904477 5.000000
5.461869 -0.149702 -1.081885 27.000000
5.707238 -2.761445 -1.129362 22.000000
5.535783 -6.470128 -1.053070 9.000000
9.384797 10.000787 -1.895739 5.000000
8.569073 3.595069 -1.717260 1.000000
5.476021 -0.169221 -1.084799 24.000000
5.671551 -2.768651 -1.120796 30.000000
5.479655 -6.447688 -1.037459 10.000000
9.365590 9.907296 -1.899063 4.000000
8.694936 3.608674 -1.748191 1.000000
5.470618 -0.190082 -1.082872 26.000000
5.631149 -2.774532 -1.110294 28.000000
5.453368 -6.464624 -1.029471 10.000000
9.355855 9.817751 -1.905976 5.000000
8.770912 3.602579 -1.765937 1.000000
5.474674 -0.213187 -1.083843 24.000000
5.611842 -2.793071 -1.104177 30.000000
5.413492 -6.467578 -1.014675 11.000000
9.292704 9.683573 -1.900547 4.000000
8.601680 3.494529 -1.734180 1.000000
5.478756 -0.233460 -1.084813 31.000000
5.580250 -2.802913 -1.095480 27.000000
5.372630 -6.464474 -1.000823 10.000000
9.268260 9.587512 -1.902594 5.000000
5.487519 -0.253026 -1.087712 33.000000
5.552387 -2.815668 -1.088765 29.000000
5.348446 -6.478963 -0.994366 9.000000
9.256955 9.512491 -1.910337 5.000000
5.486507 -0.274094 -1.087712 21.000000
5.521766 -2.823199 -1.080129 30.000000
5.315987 -6.487934 -0.982357 9.000000
9.233285 9.422138 -1.912757 5.000000
5.490363 -0.294464 -1.088684 26.000000
5.485781 -2.830210 -1.070672 32.000000
5.272013 -6.480275 -0.969538 9.000000
9.158597 9.277655 -1.904168 4.000000
5.504072 -0.316399 -1.090635 24.000000
5.444945 -2.835667 -1.060405 24.000000
5.245846 -6.496607 -0.958760 10.000000
5.502816 -0.337531 -1.090635 22.000000
5.417559 -2.846694 -1.053797 33.000000
5.270375 -6.573799 -0.958493 9.000000
7.219898 2.720974 -1.473227 1.000000
5.511459 -0.359308 -1.091612 25.000000
5.384809 -2.857129 -1.046363 28.000000
5.269782 -6.620279 -0.952112 11.000000
7.729944 7.662780 -1.624743 1.000000
7.268388 2.716093 -1.484375 1.000000
5.524786 -0.380517 -1.094520 27.000000
5.349212 -2.862215 -1.038111 32.000000
5.329374 -6.745738 -0.956704 10.000000
7.657882 7.535896 -1.617201 1.000000
7.255469 2.678123 -1.483728 1.000000
5.527986 -0.402070 -1.096457 32.000000
5.321973 -2.872780 -1.030516 38.000000
5.337083 -6.804189 -0.953179 19.000000
7.659482 7.482409 -1.623205 1.000000
7.281538 2.660342 -1.494262 1.000000
5.541264 -0.424431 -1.098398 31.000000
5.298200 -2.887473 -1.022731 24.000000
7.343403 2.662625 -1.505618 2.000000
5.544560 -0.445131 -1.099367 24.000000
5.297706 -2.910031 -1.021237 7.000000
7.406183 2.659091 -1.522467 1.000000
5.562554 -0.468078 -1.102271 27.000000
