VERSION .7
FIELDS x y z intensity
SIZE 4 4 4 4
TYPE F F F F
COUNT 1 1 1 1
WIDTH 1224
HEIGHT 1
VIEWPOINT 0 0 0 1 0 0 0
POINTS 1224
DATA ascii
48.032753 -11.478457 6.414021 28.000000
16.560591 -12.547409 1.551303 24.000000
16.505915 -12.601476 1.561432 12.000000
19.986252 32.563549 5.199852 9.000000
16.435259 -12.643150 1.570040 10.000000
17.836432 28.823351 4.588913 8.000000
16.435442 -12.739450 1.585458 10.000000
17.891472 28.710333 4.561810 8.000000
16.446699 -12.844947 1.605729 26.000000
17.528189 27.877432 4.417209 5.000000
16.542147 -13.012712 1.630559 27.000000
17.666391 27.870020 4.402815 8.000000
16.532738 -13.103686 1.645467 25.000000
18.247747 28.566151 4.504759 8.000000
16.499050 -13.175735 1.665449 22.000000
44.068050 -11.890472 6.025359 5.000000
8.520119 -6.855249 0.868331 25.000000
17.705141 27.294804 4.283216 10.000000
43.627419 -11.935110 5.986835 8.000000
8.521686 -6.908116 0.876845 21.000000
17.720163 27.110216 4.246681 8.000000
43.780941 -12.149759 6.038182 5.000000
8.499692 -6.942066 0.884906 24.000000
18.322958 27.809341 4.343038 8.000000
46.513939 -13.091999 6.413105 9.000000
8.485497 -6.982475 0.889947 24.000000
18.704069 28.173220 4.386028 22.000000
46.364632 -13.224813 6.424536 18.000000
8.493895 -7.041756 0.901282 29.000000
18.717472 27.970385 4.347183 8.000000
46.343338 -13.402607 6.436918 9.000000
8.465075 -7.067866 0.906650 36.000000
18.760546 27.813652 4.309672 10.000000
46.248947 -13.559196 6.447791 10.000000
8.456484 -7.108417 0.914073 25.000000
17.986635 26.466528 4.087934 8.000000
46.152943 -13.714946 6.467034 21.000000
8.457678 -7.167559 0.927046 26.000000
18.048689 26.349581 4.057402 28.000000
8.450174 -7.214580 0.931069 22.000000
18.166075 26.313570 4.045071 30.000000
47.059917 -14.351744 6.634571 27.000000
8.426832 -7.248219 0.941186 21.000000
18.250526 26.239517 4.026453 10.000000
47.027363 -14.521430 6.645833 9.000000
8.414897 -7.291783 0.948704 21.000000
18.781851 26.773504 4.096737 8.000000
46.793018 -14.637139 6.628966 21.000000
8.406504 -7.338629 0.956670 29.000000
18.471371 26.146067 3.987383 9.000000
8.384200 -7.370887 0.962942 24.000000
18.431780 25.897726 3.936764 23.000000
8.360478 -7.404534 0.969219 66.000000
18.461254 25.738920 3.906046 8.000000
8.335242 -7.431651 0.978965 51.000000
18.754757 25.946795 3.925308 23.000000
8.327187 -7.484685 0.987447 26.000000
18.831810 25.862768 3.905515 31.000000
37.651779 -12.525080 5.428483 7.000000
8.336232 -7.548236 0.997728 31.000000
18.625635 25.383575 3.821130 10.000000
37.674240 -12.686104 5.452526 8.000000
8.311803 -7.581742 1.004061 81.000000
19.000500 25.696457 3.856049 9.000000
8.292104 -7.616971 1.012811 129.000000
18.862553 25.324499 3.798908 20.000000
44.620636 -15.381541 6.515597 9.000000
8.281884 -7.663740 1.022928 99.000000
18.888683 25.166512 3.757714 14.000000
44.553528 -15.541343 6.522465 11.000000
8.268046 -7.707381 1.028680 84.000000
18.961411 25.071478 3.731619 11.000000
44.556992 -15.725966 6.531365 9.000000
8.249310 -7.741201 1.035509 38.000000
19.504032 25.621250 3.811150 12.000000
46.127560 -16.443430 6.795258 9.000000
8.256536 -7.805089 1.048000 49.000000
19.617411 25.556671 3.790421 31.000000
46.096207 -16.641111 6.817863 9.000000
8.213794 -7.827359 1.054543 10.000000
19.679140 25.443472 3.761540 8.000000
30.043194 16.217199 5.236466 11.000000
46.127354 -16.834583 6.822384 10.000000
15.614399 -14.984138 2.019006 17.000000
19.986156 25.654867 3.780071 10.000000
30.083801 16.103762 5.221524 16.000000
46.130543 -17.027603 6.867036 9.000000
15.586734 -15.067715 2.041641 27.000000
19.627388 25.004761 3.677989 9.000000
30.120043 15.967939 5.198380 13.000000
46.224430 -17.255026 6.899160 9.000000
15.530635 -15.123994 2.052992 21.000000
19.775955 25.004791 3.666078 10.000000
30.159702 15.854347 5.183472 12.000000
42.144985 -15.900049 6.314566 8.000000
15.506310 -15.211432 2.068609 32.000000
20.212721 25.383581 3.714207 16.000000
30.204945 15.750510 5.170077 19.000000
41.896667 -15.965276 6.293237 10.000000
15.515212 -15.321457 2.088084 24.000000
20.442284 25.488779 3.722687 9.000000
30.218555 15.617002 5.162575 14.000000
41.686981 -16.077311 6.287288 9.000000
15.476398 -15.400949 2.106187 27.000000
20.333826 25.164017 3.668957 8.000000
30.169691 15.458549 5.126819 7.000000
41.505035 -16.157106 6.283328 11.000000
15.424460 -15.451405 2.117619 27.000000
20.404907 25.045650 3.640770 17.000000
30.210901 15.340127 5.106089 6.000000
41.212097 -16.233875 6.264565 19.000000
15.403546 -15.554838 2.134874 35.000000
20.589064 25.110182 3.636580 24.000000
30.313641 15.259434 5.108361 7.000000
40.960697 -16.308523 6.258942 10.000000
15.334919 -15.599480 2.148690 25.000000
20.916368 25.319515 3.660564 27.000000
30.406355 15.166677 5.102454 8.000000
40.774921 -16.399679 6.239264 10.000000
15.328247 -15.701954 2.167023 40.000000
21.146687 25.390051 3.659652 8.000000
30.442976 15.052467 5.087630 8.000000
40.501572 -16.462454 6.222198 9.000000
15.293774 -15.781950 2.185805 26.000000
21.530664 25.668344 3.686900 9.000000
30.708256 15.043818 5.110511 8.000000
40.312634 -16.549856 6.225290 10.000000
15.272972 -15.876512 2.202784 21.000000
21.648981 25.636255 3.674802 8.000000
30.791483 14.944901 5.102998 5.000000
40.075966 -16.624598 6.213565 18.000000
15.213881 -15.931547 2.214319 18.000000
26.470238 31.091429 4.450327 9.000000
39.898647 -16.722704 6.210947 12.000000
15.219075 -16.054386 2.243126 30.000000
26.381609 30.779951 4.382448 10.000000
39.703297 -16.804003 6.189631 17.000000
15.155587 -16.099600 2.249835 25.000000
24.182442 28.005747 3.980450 7.000000
39.433689 -16.860582 6.180111 17.000000
15.129361 -16.190228 2.270367 21.000000
24.157896 27.780685 3.934427 18.000000
39.270096 -16.953016 6.163710 13.000000
15.116464 -16.295746 2.289140 38.000000
24.277294 27.712206 3.917794 14.000000
98.947990 45.846191 16.064665 25.000000
39.007526 -16.993345 6.146470 19.000000
15.092370 -16.384109 2.305927 22.000000
24.403086 27.650667 3.902185 14.000000
98.896729 45.403790 15.991704 23.000000
38.818760 -17.080664 6.156778 11.000000
24.428585 27.485577 3.864940 9.000000
98.905411 44.969601 15.927608 19.000000
38.599159 -17.161242 6.132355 20.000000
15.023436 -16.551119 2.341475 29.000000
24.494465 27.357107 3.833556 10.000000
98.611259 44.421135 15.816608 26.000000
38.391106 -17.221441 6.123339 18.000000
14.988201 -16.634403 2.361274 34.000000
24.186831 26.833929 3.752341 9.000000
98.302246 43.890385 15.705234 22.000000
38.159996 -17.286057 6.104008 16.000000
14.949112 -16.707932 2.376160 23.000000
24.273399 26.732302 3.725067 13.000000
98.454277 43.567268 15.687162 26.000000
38.000057 -17.357687 6.102010 10.000000
14.944903 -16.803291 2.395312 24.000000
24.555397 26.853918 3.741099 9.000000
98.668663 43.209858 15.675573 26.000000
37.828983 -17.447407 6.114474 12.000000
6.798396 -7.705842 1.101826 30.000000
24.951544 27.087120 3.766816 10.000000
98.779419 42.827572 15.610562 13.000000
37.597424 -17.500023 6.086883 9.000000
6.742936 -7.694261 1.102386 17.000000
26.636450 28.704397 3.970742 8.000000
26.753559 28.619497 3.944905 10.000000
33.186237 -16.035707 5.462353 7.000000
6.831935 -8.027496 1.161893 5.000000
25.313084 26.497887 3.631867 19.000000
90.272697 37.263031 14.003593 10.000000
31.985834 -15.593624 5.286392 5.000000
27.099005 28.160032 3.845723 9.000000
90.114456 36.775028 13.921362 11.000000
30.759781 -15.135689 5.105125 6.000000
27.245461 28.105316 3.824272 10.000000
89.902573 36.322994 13.834419 19.000000
29.546507 -14.673442 4.924425 7.000000
6.800651 -8.173991 1.194573 23.000000
29.590500 30.311924 4.116163 11.000000
89.961433 35.963799 13.788595 32.000000
28.533606 -14.307257 4.776120 7.000000
6.583590 -7.972349 1.167053 22.000000
29.751163 30.275003 4.109568 10.000000
89.816254 35.578903 13.749142 29.000000
27.729931 -14.019547 4.660441 7.000000
6.563031 -8.001347 1.173593 29.000000
31.947838 32.272892 4.356632 13.000000
89.639320 35.129265 13.650827 27.000000
25.604738 -13.057527 4.321164 14.000000
6.575454 -8.073805 1.186370 30.000000
89.282608 34.612518 13.543000 29.000000
25.524593 -13.134758 4.325981 35.000000
6.548287 -8.100905 1.196026 34.000000
29.244720 29.091995 3.906577 10.000000
89.333336 34.273964 13.498398 31.000000
25.003334 -12.977111 4.255345 33.000000
6.480989 -8.078033 1.192797 46.000000
89.349457 33.904987 13.464955 22.000000
24.783485 -12.978532 4.235985 25.000000
6.511029 -8.173767 1.210963 45.000000
27.130499 26.605276 3.558485 9.000000
89.971413 33.728455 13.503966 23.000000
23.664219 -12.503131 4.057264 9.000000
6.403750 -8.105646 1.204361 32.000000
23.130566 -12.324644 3.982481 31.000000
26.502661 25.629101 3.407152 9.000000
91.465233 33.580173 13.641530 21.000000
77.820908 -5.523666 12.552119 1.000000
22.391754 -12.036560 3.871925 10.000000
29.963490 28.743996 3.800666 23.000000
77.586281 -5.792890 12.531547 1.000000
21.913872 -11.878461 3.805341 10.000000
29.740597 28.331488 3.738141 10.000000
21.258141 -11.624029 3.703174 10.000000
6.027186 -7.860461 1.177622 23.000000
20.730446 -11.429663 3.635092 10.000000
6.092217 -7.997178 1.202350 32.000000
93.619034 32.839958 13.749130 27.000000
20.200359 -11.234141 3.549337 26.000000
5.981756 -7.917913 1.193840 23.000000
30.008839 27.983696 3.662001 10.000000
94.055824 32.624912 13.761052 28.000000
20.105164 -11.277879 3.556325 20.000000
6.118937 -8.155587 1.232026 16.000000
29.922552 27.698887 3.617539 7.000000
94.673691 32.450977 13.816156 25.000000
19.260807 -10.892803 3.417629 159.000000
5.938832 -7.973361 1.206641 18.000000
30.037415 27.591808 3.597067 1.000000
95.152184 32.244263 13.833737 27.000000
18.837727 -10.744849 3.357274 11.000000
5.968071 -8.080123 1.228058 21.000000
30.740904 28.050631 3.648194 7.000000
95.469162 31.962065 13.808988 16.000000
18.375048 -10.566121 3.288945 10.000000
5.603581 -7.645118 1.163852 89.000000
17.972406 -10.422431 3.227406 10.000000
5.593781 -7.682249 1.171875 24.000000
97.544304 31.863550 14.020244 13.000000
78.325966 -8.370631 12.673637 1.000000
17.546814 -10.257639 3.164657 10.000000
5.620443 -7.778619 1.188527 31.000000
30.762743 27.456799 3.534979 10.000000
97.664307 31.525888 13.985096 25.000000
78.605545 -8.705907 12.766674 1.000000
17.384729 -10.248564 3.149393 17.000000
30.939133 27.411161 3.521878 10.000000
97.979767 31.231653 13.995503 23.000000
17.369612 -10.321523 3.156775 18.000000
31.048712 27.305779 3.493862 10.000000
17.334007 -10.386520 3.171655 18.000000
31.670614 27.657255 3.530787 8.000000
100.213814 31.155573 14.226439 3.000000
17.296698 -10.446391 3.178708 24.000000
5.724559 -8.169447 1.261967 33.000000
32.131310 27.852652 3.540848 11.000000
100.073898 30.710291 14.134689 22.000000
17.274693 -10.519703 3.185347 14.000000
5.653020 -8.127576 1.259466 24.000000
32.094826 27.615654 3.503327 11.000000
17.220081 -10.569023 3.189288 10.000000
101.845917 30.458389 14.259376 1.000000
79.233414 -10.473486 12.887388 6.000000
17.214352 -10.652564 3.199058 17.000000
5.634571 -8.229084 1.279375 17.000000
25.115179 21.291685 2.683853 6.000000
101.745369 30.022490 14.210947 1.000000
17.192400 -10.722154 3.212790 22.000000
5.666630 -8.338193 1.300410 32.000000
30.868666 25.975420 3.260134 7.000000
17.160395 -10.789754 3.221431 19.000000
5.702179 -8.457012 1.321102 24.000000
17.138838 -10.859860 3.228112 16.000000
5.669352 -8.471976 1.327577 30.000000
30.699568 25.460129 3.180916 10.000000
17.126751 -10.931967 3.239918 15.000000
5.602230 -8.438423 1.324487 20.000000
30.894014 25.430857 3.170300 10.000000
17.083221 -10.996729 3.250556 17.000000
5.663594 -8.599085 1.351920 30.000000
30.518211 24.934425 3.087732 21.000000
17.050804 -11.056005 3.251346 15.000000
30.529337 24.757481 3.058950 22.000000
85.712898 -13.529587 13.992180 2.000000
17.027458 -11.133970 3.265949 21.000000
30.671602 24.687054 3.043378 24.000000
85.772392 -13.861372 14.025651 2.000000
17.010103 -11.203321 3.277021 10.000000
30.763117 24.575460 3.022762 10.000000
85.350952 -14.099151 13.980192 1.000000
16.983944 -11.275561 3.290873 15.000000
5.615351 -8.797384 1.398125 15.000000
31.768785 25.188658 3.084017 15.000000
85.437386 -14.435314 13.987404 1.000000
16.960415 -11.345438 3.297621 10.000000
5.587847 -8.825453 1.406745 25.000000
58.487331 46.024990 5.596037 12.000000
85.580994 -14.767023 13.988167 1.000000
16.941174 -11.418364 3.301610 15.000000
5.591014 -8.899033 1.419089 26.000000
58.814789 45.967682 5.573448 7.000000
85.149948 -14.983588 13.941238 1.000000
16.889610 -11.473859 3.310706 21.000000
5.964136 -9.570610 1.528699 3.000000
58.706322 45.504478 5.493673 15.000000
84.967865 -15.288133 13.905478 1.000000
16.881599 -11.563400 3.321480 10.000000
5.878964 -9.511426 1.523744 9.000000
58.744579 45.223083 5.444161 21.000000
16.890472 -11.651957 3.341838 25.000000
13.197914 -21.520174 3.453627 14.000000
58.930283 45.023018 5.367968 19.000000
84.915123 -15.876094 13.883273 7.000000
16.983908 -11.804124 3.364750 17.000000
13.143751 -21.609177 3.473647 32.000000
58.993813 44.730072 5.319819 14.000000
85.060043 -16.226070 13.916596 2.000000
17.024446 -11.925074 3.388866 11.000000
5.164351 -8.557665 1.379838 14.000000
59.076103 44.468559 5.274295 23.000000
84.668007 -16.473129 13.846798 10.000000
16.958042 -11.967015 3.387661 13.000000
5.109689 -8.537667 1.378894 12.000000
59.168976 44.199657 5.229222 10.000000
84.806160 -16.807453 13.894381 7.000000
17.001081 -12.090973 3.416305 10.000000
13.025823 -21.937984 3.553931 12.000000
59.422043 44.034229 5.171745 12.000000
84.760887 -17.121584 13.881669 2.000000
9.148973 -6.554852 1.845056 5.000000
12.987094 -22.056511 3.579060 10.000000
59.441978 43.712414 5.094801 11.000000
84.514267 -17.379034 13.804792 1.000000
9.101144 -6.571199 1.838243 9.000000
12.949669 -22.169584 3.594620 17.000000
59.544216 43.452236 5.038176 19.000000
84.428192 -17.684109 13.785788 8.000000
9.109815 -6.625958 1.846674 5.000000
12.904606 -22.279531 3.618501 14.000000
12.858508 -22.379704 3.632051 18.000000
84.323669 -17.969702 13.547494 11.000000
12.842093 -22.342104 3.598797 10.000000
59.583080 43.464661 4.833945 22.000000
84.314980 -17.660395 13.428288 1.000000
9.127851 -6.636641 1.811686 4.000000
12.903734 -22.260109 3.561141 12.000000
59.435436 43.691616 4.834926 10.000000
84.605598 -17.413206 13.418488 5.000000
9.101087 -6.566326 1.793549 5.000000
12.937422 -22.130877 3.516115 11.000000
59.333305 43.904335 4.850752 10.000000
84.622169 -17.093563 13.333942 6.000000
9.141532 -6.547108 1.784931 7.000000
12.987294 -22.030462 3.484966 10.000000
59.278614 44.201015 4.885416 10.000000
84.598633 -16.781672 13.290100 9.000000
16.880156 -11.996102 3.268806 10.000000
5.145776 -8.659588 1.363728 8.000000
59.227890 44.501896 4.894646 16.000000
84.734306 -16.486029 13.255564 11.000000
16.885504 -11.907001 3.246586 27.000000
5.134912 -8.569626 1.341863 7.000000
59.071663 44.724190 4.908237 17.000000
84.735023 -16.179398 13.200532 10.000000
16.904997 -11.832609 3.223924 29.000000
5.167010 -8.551946 1.331401 9.000000
59.095615 45.067715 4.962355 15.000000
16.929804 -11.757758 3.205675 13.000000
13.154310 -21.592569 3.351136 10.000000
59.098717 45.446445 5.004035 7.000000
16.901388 -11.646431 3.177516 10.000000
13.177808 -21.453766 3.314712 10.000000
58.702435 45.452282 4.996231 12.000000
85.008064 -15.310681 13.109384 1.000000
16.882128 -11.546455 3.155333 10.000000
5.453929 -8.810014 1.356765 8.000000
58.588440 45.708473 5.039840 5.000000
110.835701 27.901707 13.851302 1.000000
85.302155 -15.041072 13.146147 8.000000
16.913433 -11.477104 3.142344 10.000000
5.578692 -8.938184 1.370292 8.000000
58.713482 46.136616 5.090605 10.000000
110.254372 28.164976 13.811008 26.000000
85.404747 -14.751961 13.107520 5.000000
16.942907 -11.410934 3.125805 14.000000
5.464031 -8.683455 1.327019 10.000000
58.440392 46.302681 5.109150 16.000000
85.445663 -14.406037 13.058414 8.000000
16.990538 -11.352715 3.112296 10.000000
5.606598 -8.841404 1.342994 22.000000
31.722431 25.305559 2.787770 10.000000
85.609428 -14.157198 13.030117 8.000000
17.005445 -11.272741 3.089223 11.000000
5.636924 -8.817602 1.333226 25.000000
107.813919 28.787836 13.543535 31.000000
85.602173 -13.833862 13.021208 7.000000
17.029072 -11.203036 3.079113 17.000000
5.597156 -8.685085 1.308952 20.000000
30.622864 24.797905 2.748503 10.000000
107.489578 29.123707 13.496387 16.000000
17.058945 -11.133318 3.066208 16.000000
5.743081 -8.840191 1.326146 28.000000
30.484169 24.880007 2.758412 10.000000
17.074593 -11.058735 3.047541 18.000000
5.339875 -8.150867 1.217168 144.000000
30.265501 24.869209 2.766685 23.000000
105.315773 29.345259 13.268833 38.000000
17.095549 -10.983576 3.033198 19.000000
5.340013 -8.092406 1.204202 13.000000
30.234869 25.030243 2.786022 32.000000
105.014221 29.676439 13.263783 26.000000
17.120790 -10.911347 3.016072 15.000000
5.708138 -8.581687 1.272809 34.000000
30.203085 25.191065 2.812280 10.000000
78.279404 -11.224457 11.762156 1.000000
17.160105 -10.852361 3.005442 29.000000
5.637793 -8.408928 1.243067 45.000000
30.786303 25.860254 2.889079 10.000000
78.338776 -10.940092 11.736753 1.000000
17.184776 -10.779990 2.988351 15.000000
5.673393 -8.398498 1.233673 20.000000
25.155117 21.287844 2.385282 8.000000
79.657623 -10.840927 11.914262 1.000000
17.211029 -10.712922 2.975551 19.000000
5.707414 -8.382460 1.227198 23.000000
31.364336 26.740372 2.997795 10.000000
79.369560 -10.505576 11.822499 1.000000
17.247730 -10.648257 2.960675 14.000000
5.671288 -8.264129 1.204035 19.000000
31.200209 26.798540 3.020343 10.000000
79.305313 -10.201454 11.835804 1.000000
17.276798 -10.583088 2.955693 11.000000
5.675047 -8.208047 1.193443 23.000000
31.074585 26.889185 3.032124 10.000000
17.300316 -10.510488 2.938675 28.000000
5.705687 -8.188043 1.184735 25.000000
31.043646 27.052485 3.052753 10.000000
17.309929 -10.429659 2.926592 17.000000
5.702004 -8.119154 1.169004 17.000000
31.018019 27.230816 3.081758 10.000000
17.347980 -10.370219 2.912483 17.000000
5.508415 -7.782693 1.116711 35.000000
17.378668 -10.302295 2.900479 15.000000
5.501512 -7.715683 1.101462 72.000000
78.445351 -8.674306 11.555898 1.000000
17.426586 -10.244570 2.887788 17.000000
5.524404 -7.688022 1.093699 30.000000
78.562248 -8.395883 11.554422 1.000000
17.656208 -10.305057 2.913178 22.000000
5.552991 -7.668338 1.087089 112.000000
18.110779 -10.481565 2.970643 10.000000
5.790964 -7.938483 1.121295 20.000000
18.529682 -10.629235 3.025031 19.000000
5.676407 -7.721842 1.085154 70.000000
18.961586 -10.793578 3.081912 18.000000
5.994844 -8.092702 1.135011 31.000000
30.158346 27.848816 3.209060 10.000000
19.378506 -10.937057 3.123336 9.000000
5.864546 -7.856439 1.096219 18.000000
30.228758 28.129648 3.249776 10.000000
20.155981 -11.274032 3.233425 13.000000
5.939946 -7.894035 1.097656 34.000000
29.872158 27.983223 3.242963 10.000000
20.302486 -11.267753 3.242652 35.000000
5.750571 -7.589841 1.049593 31.000000
30.069027 28.375278 3.297388 10.000000
91.939400 32.539394 12.095872 1.000000
20.872475 -11.488977 3.314546 18.000000
6.023095 -7.889290 1.087036 20.000000
91.741859 32.830276 12.119422 1.000000
77.904121 -6.103827 11.330177 1.000000
21.446882 -11.702932 3.381541 10.000000
6.103955 -7.934737 1.089301 24.000000
29.594530 28.340500 3.318433 10.000000
91.558266 33.143627 12.128395 4.000000
78.014786 -5.824883 11.343091 1.000000
21.991667 -11.895810 3.451646 10.000000
29.849728 28.785299 3.372865 18.000000
77.783875 -5.534682 11.264955 1.000000
22.544811 -12.093489 3.522716 9.000000
90.081734 33.340122 11.998152 8.000000
23.181000 -12.315179 3.600365 10.000000
27.206034 26.623520 3.142929 9.000000
89.747879 33.591068 11.986989 12.000000
23.864851 -12.582509 3.690826 22.000000
27.031862 26.657036 3.147952 23.000000
89.176064 33.732403 11.960073 1.000000
24.813364 -12.955573 3.809539 35.000000
6.437174 -8.063709 1.086284 22.000000
32.044849 31.810802 3.767801 12.000000
89.149857 34.096516 12.007082 1.000000
25.354515 -13.131306 3.875763 10.000000
6.467160 -8.040650 1.079080 24.000000
31.971975 31.971975 3.804774 13.000000
89.333176 34.506634 12.081076 16.000000
25.538038 -13.113502 3.886590 24.000000
6.547157 -8.079297 1.080141 52.000000
31.874228 32.108742 3.830979 5.000000
88.987473 34.766354 12.052289 20.000000
25.732870 -13.094584 3.898648 22.000000
6.561591 -8.036710 1.068505 59.000000
29.785746 30.225660 3.623094 9.000000
89.271194 35.218864 12.123484 11.000000
27.907661 -14.078838 4.209558 7.000000
6.668818 -8.110090 1.077645 31.000000
29.602518 30.250212 3.628511 28.000000
88.853348 35.466873 12.119905 17.000000
6.619760 -7.990550 1.055828 36.000000
29.399427 30.263784 3.646864 10.000000
89.009010 35.853596 12.190477 12.000000
6.668599 -7.989714 1.051600 20.000000
88.964294 36.215122 12.202450 20.000000
31.156326 -15.297055 4.618842 5.000000
6.674510 -7.940289 1.040840 18.000000
25.312569 26.441854 3.208926 15.000000
32.372498 -15.747179 4.777760 5.000000
6.633182 -7.832659 1.024483 1.000000
33.288834 -16.042307 4.891162 7.000000
90.535912 38.039200 12.580032 4.000000
90.594849 38.436569 12.641705 10.000000
90.551605 38.810467 12.672914 26.000000
37.439240 -17.553761 5.429161 8.000000
6.809834 -7.809010 1.006796 5.000000
25.073599 27.152979 3.344024 9.000000
90.698235 39.248631 12.747600 27.000000
37.716373 -17.515360 5.445238 10.000000
24.851204 27.110828 3.353480 9.000000
90.842529 39.707008 12.805840 17.000000
37.906963 -17.419228 5.432993 19.000000
24.673014 27.115288 3.368632 9.000000
90.753738 40.065014 12.866753 13.000000
38.094070 -17.360468 5.437106 24.000000
24.357119 26.956558 3.351119 10.000000
38.276680 -17.274544 5.439190 17.000000
24.651379 27.464767 3.436598 9.000000
90.059349 40.455387 12.840120 1.000000
38.465889 -17.206623 5.450462 22.000000
14.994835 -16.589291 2.098062 9.000000
90.123108 40.881653 12.905618 1.000000
38.717873 -17.157400 5.462617 22.000000
15.056519 -16.535299 2.082450 9.000000
24.782850 28.002066 3.528182 18.000000
90.174103 41.284927 12.968688 1.000000
38.909393 -17.071932 5.465696 11.000000
15.074747 -16.439674 2.061315 9.000000
24.416414 27.792622 3.503522 9.000000
39.128105 -16.997147 5.472494 17.000000
15.132253 -16.381447 2.049179 9.000000
39.325626 -16.920019 5.476637 15.000000
15.152457 -16.283175 2.028161 10.000000
24.142044 27.899841 3.546083 9.000000
39.571659 -16.854259 5.487001 20.000000
8.033782 -8.570084 1.064911 135.000000
26.619179 30.991388 3.955380 10.000000
39.764545 -16.772671 5.490285 19.000000
8.040226 -8.517178 1.053574 208.000000
26.470739 31.037104 3.970958 10.000000
40.028923 -16.711636 5.502909 21.000000
8.071769 -8.488050 1.047441 210.000000
26.359438 31.114994 3.998459 10.000000
31.034880 15.029585 4.576467 1.000000
40.165920 -16.596218 5.490222 16.000000
8.079212 -8.433760 1.036171 210.000000
30.737696 15.024995 4.552887 6.000000
40.438286 -16.551979 5.504424 11.000000
8.083023 -8.376065 1.022478 195.000000
21.111557 25.302937 3.265968 8.000000
30.710304 15.144646 4.568797 6.000000
40.636673 -16.451292 5.507244 23.000000
8.110569 -8.343194 1.015948 179.000000
20.959406 25.290600 3.278545 19.000000
30.684219 15.271849 4.585390 7.000000
40.859673 -16.367525 5.513692 8.000000
8.112260 -8.286860 1.004373 197.000000
20.707451 25.173813 3.270783 9.000000
30.784298 15.455971 4.620620 1.000000
41.042870 -16.274885 5.515060 10.000000
8.111466 -8.225522 0.994442 158.000000
20.597868 25.228500 3.291025 8.000000
41.334084 -16.215296 5.538298 20.000000
8.145558 -8.199761 0.986802 154.000000
41.570808 -16.132603 5.546249 11.000000
8.154777 -8.149085 0.978214 130.000000
30.210894 15.579653 4.589793 18.000000
41.781536 -16.046797 5.550992 17.000000
8.156775 -8.091550 0.966811 94.000000
20.133104 25.211279 3.328444 30.000000
30.185902 15.707091 4.618903 21.000000
42.027431 -15.964724 5.559916 15.000000
8.185210 -8.063265 0.962800 76.000000
20.111506 25.365309 3.362333 8.000000
30.138950 15.816592 4.626189 19.000000
8.190369 -8.009408 0.949881 36.000000
20.118795 25.566431 3.396414 27.000000
30.117319 15.946300 4.656042 19.000000
8.205724 -7.965796 0.942240 29.000000
20.011250 25.622448 3.417035 9.000000
30.086256 16.064564 4.672009 25.000000
8.228159 -7.929206 0.933442 53.000000
19.644629 25.343966 3.392907 17.000000
30.047543 16.185701 4.687315 24.000000
8.238136 -7.883545 0.925436 18.000000
19.590981 25.457785 3.421648 20.000000
30.033728 16.320562 4.712697 8.000000
8.241916 -7.829492 0.918637 14.000000
19.586613 25.646042 3.460065 10.000000
29.802822 16.330091 4.685381 5.000000
8.278390 -7.806618 0.909513 22.000000
29.774574 16.456795 4.714595 1.000000
44.895081 -15.792441 5.809802 9.000000
8.288983 -7.759408 0.903558 18.000000
18.900555 25.118349 3.414939 8.000000
29.827263 16.622105 4.750320 6.000000
44.614956 -15.492929 5.731997 9.000000
8.288617 -7.702258 0.892486 16.000000
18.883896 25.288603 3.456523 8.000000
29.721523 16.706236 4.755332 8.000000
8.319345 -7.676870 0.888927 24.000000
19.047436 25.703587 3.520632 9.000000
29.718229 16.848017 4.782889 8.000000
8.307447 -7.609706 0.876757 18.000000
18.832455 25.599804 3.519848 8.000000
29.710827 16.981136 4.791209 4.000000
37.676727 -12.628396 4.794606 8.000000
8.313601 -7.559493 0.866585 19.000000
18.719467 25.642584 3.538711 16.000000
8.345402 -7.532716 0.859121 21.000000
18.723011 25.845827 3.579824 18.000000
8.354611 -7.485642 0.853300 23.000000
18.828463 26.183287 3.640240 10.000000
8.354949 -7.433531 0.844790 22.000000
18.335554 25.696009 3.585447 17.000000
8.374993 -7.396550 0.838187 21.000000
18.268505 25.801535 3.613162 19.000000
8.379880 -7.346371 0.830107 20.000000
18.696007 26.591860 3.732378 26.000000
8.395900 -7.306166 0.821223 20.000000
48.650421 -14.976118 6.078864 9.000000
8.437932 -7.288569 0.818803 27.000000
18.162975 26.230665 3.708487 8.000000
48.693771 -14.794299 6.050439 32.000000
8.428425 -7.231693 0.807754 20.000000
18.072187 26.324713 3.745391 9.000000
48.542156 -14.554111 6.033902 11.000000
8.425968 -7.173597 0.800990 24.000000
18.094223 26.535086 3.789948 8.000000
48.556595 -14.373900 6.011497 9.000000
8.475378 -7.162250 0.797346 25.000000
18.241905 26.983740 3.866596 9.000000
8.467502 -7.102559 0.788334 23.000000
18.200621 27.116037 3.900006 8.000000
8.451631 -7.036636 0.778663 32.000000
18.608006 27.933201 4.031938 9.000000
8.493161 -7.018666 0.772383 32.000000
18.561419 28.085825 4.067965 8.000000
8.479360 -6.957592 0.763144 20.000000
18.530270 28.263357 4.107755 9.000000
43.569740 -12.042023 5.318158 5.000000
8.497376 -6.920419 0.756712 27.000000
43.802231 -11.933647 5.325096 1.000000
8.530749 -6.895748 0.751657 22.000000
17.567814 27.218161 3.989124 8.000000
44.106495 -11.851308 5.365104 5.000000
8.534223 -6.851888 0.748038 4.000000
17.511917 27.351059 4.022186 8.000000
44.539379 -11.792764 5.404314 7.000000
16.491928 -13.132377 1.426125 26.000000
44.605206 -11.643729 5.399180 9.000000
16.531862 -13.074829 1.418430 23.000000
18.082092 28.691660 4.254296 8.000000
46.429035 -11.938227 5.597647 17.000000
16.531090 -12.980678 1.399728 28.000000
46.625584 -11.806746 5.624598 19.000000
16.429214 -12.803616 1.383468 21.000000
47.746815 -11.913470 5.746098 9.000000
16.484997 -12.741053 1.372890 26.000000
17.736876 28.830877 4.324264 16.000000
16.495874 -12.662305 1.363001 9.000000
20.576799 33.723442 5.074774 10.000000
16.522892 -12.587071 1.350490 22.000000
47.792747 -11.377024 5.719090 9.000000
16.619434 -12.560061 1.343476 17.000000
20.067495 33.424339 5.077208 9.000000
16.733387 -12.559216 1.338314 20.000000
20.087605 33.737423 5.141426 11.000000
16.767487 -12.488997 1.333707 21.000000
19.991772 33.858170 5.183532 10.000000
9.115360 -6.732709 0.718920 8.000000
20.092556 34.301777 5.261854 10.000000
84.327560 -18.787640 10.026817 3.000000
9.061587 -6.646663 0.705060 9.000000
84.638344 -18.547010 10.071337 3.000000
9.057645 -6.592849 0.702868 9.000000
84.367584 -18.163866 10.015864 13.000000
9.130691 -6.594957 0.698762 8.000000
19.413425 33.980217 5.284284 10.000000
84.663696 -17.903179 10.027853 5.000000
16.912525 -12.126046 1.283759 20.000000
19.161936 33.827267 5.284091 10.000000
84.519714 -17.564737 10.018747 15.000000
16.892336 -12.018076 1.267978 13.000000
19.074371 33.962345 5.328859 9.000000
84.679146 -17.274343 10.045360 1.000000
16.997608 -11.999381 1.268925 31.000000
19.398109 34.837215 5.490390 10.000000
84.620331 -16.954891 10.046566 13.000000
16.963989 -11.882726 1.259528 21.000000
19.304722 34.956020 5.541077 10.000000
84.743538 -16.656742 10.069157 1.000000
16.837715 -11.706876 1.239926 19.000000
19.233595 35.130878 5.593211 9.000000
84.811203 -16.378122 10.085970 8.000000
16.884796 -11.648040 1.236647 26.000000
19.069300 35.135906 5.618418 10.000000
16.877951 -11.552248 1.233037 26.000000
19.048548 35.112286 5.656774 10.000000
16.878977 -11.557277 1.254760 22.000000
19.123867 34.944935 5.619792 10.000000
85.029396 -16.435652 10.311487 5.000000
16.856318 -11.632736 1.270589 21.000000
19.249544 34.884876 5.599630 10.000000
84.764526 -16.676233 10.331893 18.000000
16.837416 -11.711027 1.286766 26.000000
18.804058 33.784222 5.399579 9.000000
84.776100 -17.032278 10.372171 9.000000
16.952806 -11.883716 1.317043 25.000000
19.030958 33.898903 5.408269 10.000000
84.829353 -17.366682 10.432398 2.000000
16.969513 -11.988425 1.336310 22.000000
19.155441 33.843346 5.389286 9.000000
84.439056 -17.578724 10.406782 13.000000
16.892370 -12.026982 1.344600 17.000000
19.334774 33.869991 5.383966 10.000000
84.264999 -17.849602 10.438706 9.000000
16.887945 -12.117352 1.362347 9.000000
19.427578 33.758316 5.349254 10.000000
84.027412 -18.121321 10.432654 2.000000
9.084355 -6.568730 0.742631 9.000000
19.657021 33.869255 5.357323 10.000000
9.055871 -6.598814 0.748167 9.000000
19.997171 34.179962 5.389318 10.000000
84.180664 -18.801180 10.529621 7.000000
9.043370 -6.640586 0.755041 8.000000
19.912258 33.750404 5.312162 10.000000
9.078588 -6.717801 0.769933 1.000000
20.011576 33.649799 5.279458 10.000000
47.668713 -11.005190 6.006939 7.000000
16.741903 -12.479031 1.430849 21.000000
20.329885 33.901588 5.309545 10.000000
47.565163 -11.182587 6.008156 24.000000
16.746897 -12.578496 1.453571 17.000000
20.363598 33.677338 5.258109 10.000000
47.643440 -11.376634 6.049059 34.000000
16.576782 -12.546021 1.453725 11.000000
47.817394 -11.603587 6.085224 25.000000
16.490417 -12.575983 1.461096 28.000000
17.724297 28.844263 4.481105 8.000000
47.780369 -11.762514 6.111603 9.000000
16.486902 -12.669142 1.479478 19.000000
17.803028 28.746941 4.451595 8.000000
47.846611 -11.964987 6.134386 9.000000
16.459459 -12.744275 1.492152 11.000000
46.445988 -11.804408 5.986062 9.000000
16.411814 -12.803872 1.506684 13.000000
16.524891 -12.989803 1.532490 20.000000
18.189308 28.672825 4.404035 8.000000
44.555729 -11.655737 5.769116 16.000000
16.496086 -13.065263 1.545326 16.000000
44.475246 -11.809014 5.796893 7.000000
16.466515 -13.140341 1.565542 22.000000
17.604416 27.316704 4.174616 8.000000
44.037136 -11.857398 5.737064 6.000000
8.534687 -6.859612 0.815622 23.000000
17.657366 27.179571 4.140522 8.000000
43.647865 -11.924330 5.700028 9.000000
8.497308 -6.880984 0.824050 27.000000
43.524498 -12.062231 5.713678 9.000000
8.483283 -6.921263 0.830910 23.000000
18.621893 28.220142 4.277257 9.000000
8.480630 -6.971027 0.838929 46.000000
18.671900 28.071569 4.241171 8.000000
46.687576 -13.299306 6.167073 9.000000
8.454683 -7.001782 0.844677 28.000000
18.715525 27.914738 4.203979 10.000000
46.546944 -13.443886 6.163558 9.000000
8.447762 -7.048407 0.852355 25.000000
18.214161 26.962980 4.052892 9.000000
46.434746 -13.587268 6.180687 9.000000
8.444193 -7.098086 0.864299 28.000000
18.029598 26.480011 3.967492 8.000000
48.309319 -14.328216 6.446088 9.000000
8.432873 -7.141481 0.873576 31.000000
18.072325 26.334763 3.927330 8.000000
48.881245 -14.692979 6.547653 9.000000
8.411453 -7.173910 0.877830 24.000000
18.148371 26.248709 3.906960 26.000000
48.728935 -14.832857 6.543184 9.000000
8.411215 -7.227128 0.886407 25.000000
18.349926 26.352982 3.914451 8.000000
8.399155 -7.270445 0.897695 20.000000
18.769119 26.735500 3.958804 21.000000
8.390875 -7.317248 0.905538 24.000000
18.415180 26.027952 3.847065 8.000000
8.378617 -7.360795 0.912999 16.000000
18.388079 25.788652 3.799199 29.000000
8.366149 -7.404348 0.920481 19.000000
18.517183 25.778879 3.784783 8.000000
8.339891 -7.433184 0.926330 24.000000
18.748837 25.919546 3.803217 11.000000
8.360183 -7.506433 0.941507 24.000000
18.776054 25.738960 3.753918 29.000000
37.682205 -12.520596 5.185342 7.000000
8.324980 -7.530118 0.944590 20.000000
18.806610 25.602097 3.726169 8.000000
37.639904 -12.659914 5.192921 8.000000
8.300640 -7.563601 0.950889 25.000000
19.056660 25.734806 3.739110 10.000000
8.319960 -7.637206 0.966230 20.000000
18.858438 25.291321 3.661417 9.000000
44.584148 -15.351554 6.207825 9.000000
8.287882 -7.663922 0.971714 21.000000
18.892864 25.144650 3.627932 12.000000
44.389782 -15.466845 6.205308 9.000000
8.257059 -7.689062 0.977193 58.000000
19.092581 25.226608 3.632566 8.000000
44.699165 -15.749831 6.264620 9.000000
8.261144 -7.749594 0.987007 38.000000
19.614218 25.719393 3.690976 14.000000
29.777946 16.336742 5.027617 1.000000
8.250282 -7.796451 0.997102 110.000000
19.600941 25.507551 3.648111 27.000000
29.823299 16.226444 5.013569 6.000000
8.221272 -7.826276 1.003045 129.000000
19.648836 25.385975 3.617813 16.000000
30.007303 16.170782 5.021392 15.000000
8.220909 -7.883569 1.012530 142.000000
19.977806 25.616472 3.649589 8.000000
29.984579 16.037184 5.003070 13.000000
8.217906 -7.935940 1.023605 138.000000
30.028749 15.919541 4.976432 16.000000
8.184811 -7.962160 1.029138 129.000000
20.058886 25.344343 3.585484 9.000000
30.133455 15.827127 4.983675 14.000000
42.188503 -15.899648 6.055689 8.000000
8.179823 -8.015869 1.042275 119.000000
20.162495 25.284262 3.564562 24.000000
30.162848 15.701784 4.960801 15.000000
41.943729 -15.983210 6.036899 10.000000
8.174933 -8.070026 1.049457 107.000000
20.517689 25.537106 3.593425 8.000000
30.270102 15.616875 4.956851 19.000000
41.698086 -16.056517 6.009574 10.000000
8.141378 -8.096035 1.055014 77.000000
20.495712 25.328171 3.551052 8.000000
41.510372 -16.159184 6.022679 19.000000
8.114514 -8.128690 1.065495 30.000000
20.426634 25.054455 3.500315 9.000000
41.237793 -16.227371 5.999597 15.000000
8.113736 -8.184852 1.075224 10.000000
20.557352 25.026930 3.489817 16.000000
30.805292 15.493448 4.981229 1.000000
41.013199 -16.304554 5.990854 10.000000
15.346273 -15.594689 2.048938 23.000000
20.944880 25.309013 3.522433 22.000000
30.637531 15.268634 4.932822 6.000000
40.781128 -16.385641 5.981313 9.000000
15.336456 -15.699397 2.074618 21.000000
21.085987 25.299208 3.502222 17.000000
30.690390 15.154808 4.920161 7.000000
40.549026 -16.465252 5.971642 20.000000
15.267658 -15.744000 2.084689 21.000000
21.656563 25.790998 3.557490 8.000000
30.806881 15.078803 4.918149 8.000000
40.394089 -16.566822 5.965067 10.000000
15.256477 -15.842753 2.106196 9.000000
21.706785 25.659248 3.538405 8.000000
30.800364 14.935928 4.902238 1.000000
40.129814 -16.630520 5.950449 18.000000
15.242253 -15.944535 2.123942 9.000000
26.206402 30.759771 4.225833 10.000000
39.941654 -16.716148 5.946563 10.000000
15.203239 -16.020872 2.142237 10.000000
26.403591 30.783844 4.219680 10.000000
39.674194 -16.759035 5.930303 15.000000
15.183394 -16.106592 2.158654 9.000000
23.978458 27.730350 3.788419 5.000000
39.518150 -16.880383 5.932345 10.000000
15.150998 -16.196375 2.178506 10.000000
24.238483 27.824284 3.787328 7.000000
99.137314 46.333858 15.515813 22.000000
39.285213 -16.943275 5.913829 16.000000
15.107685 -16.269190 2.192575 9.000000
24.736969 28.197176 3.829968 9.000000
99.028343 45.841442 15.433502 25.000000
39.025711 -17.001268 5.899250 20.000000
15.080635 -16.359907 2.213023 20.000000
24.647554 27.888403 3.774020 17.000000
98.846130 45.338791 15.341629 28.000000
38.823708 -17.074753 5.892778 10.000000
15.036582 -16.432566 2.227160 29.000000
38.641315 -17.163832 5.889647 16.000000
24.589022 27.433794 3.690174 9.000000
38.415482 -17.232376 5.864814 10.000000
14.970349 -16.597107 2.258527 26.000000
24.252548 26.869097 3.606438 11.000000
38.232956 -17.294985 5.860147 19.000000
14.965035 -16.713984 2.278820 23.000000
24.353659 26.801888 3.576324 10.000000
90.489159 39.967083 13.797025 1.000000
38.033886 -17.357096 5.853303 12.000000
14.921689 -16.777191 2.296516 9.000000
24.422335 26.680332 3.559276 9.000000
90.750618 39.704567 13.815674 25.000000
37.796337 -17.416353 5.848750 14.000000
14.875406 -16.843184 2.310318 9.000000
24.977055 27.086338 3.599658 9.000000
90.590935 39.239746 13.734247 18.000000
37.649090 -17.508083 5.842775 18.000000
14.884633 -16.978649 2.337331 18.000000
90.656441 38.874134 13.652297 29.000000
37.340809 -17.531466 5.819551 8.000000
90.595383 38.474121 13.587779 25.000000
90.512054 38.047764 13.554274 28.000000
6.843535 -7.978851 1.108535 21.000000
90.333145 37.602058 13.472939 27.000000
33.238270 -16.046543 5.246356 7.000000
6.672046 -7.836857 1.090852 17.000000
25.330784 26.488632 3.470994 26.000000
90.179413 37.150860 13.412268 28.000000
6.594649 -7.803713 1.090080 23.000000
90.039215 36.707664 13.302155 28.000000
30.915216 -15.212173 4.922109 6.000000
6.602277 -7.868287 1.099501 27.000000
29.477703 30.386778 3.957154 15.000000
90.003952 36.345688 13.244555 24.000000
6.690110 -8.026871 1.127779 17.000000
29.590324 30.280010 3.934987 31.000000
89.941353 35.955769 13.182353 23.000000
6.669773 -8.062370 1.134867 30.000000
31.690952 32.192703 4.158855 13.000000
89.598686 35.402290 13.094068 15.000000
27.679504 -13.981924 4.463152 7.000000
6.582897 -8.017002 1.132405 25.000000
88.272446 34.522522 12.848865 1.000000
25.655031 -13.071891 4.144051 14.000000
6.607888 -8.104959 1.147105 22.000000
29.150972 29.191704 3.754455 10.000000
88.236649 34.136185 12.825356 20.000000
25.551556 -13.137354 4.155562 15.000000
6.468423 -7.999249 1.137546 28.000000
29.228294 29.055363 3.714412 10.000000
88.376213 33.818310 12.743456 8.000000
25.162092 -13.059508 4.105398 24.000000
6.432590 -8.014842 1.140034 37.000000
26.904305 26.549780 3.386733 9.000000
24.775406 -12.963283 4.059264 36.000000
6.410271 -8.044395 1.148318 148.000000
27.166351 26.612545 3.387347 9.000000
89.023865 33.337799 12.768333 1.000000
23.774782 -12.545629 3.912053 10.000000
6.392573 -8.082793 1.157731 9.000000
89.083450 33.006008 12.726519 1.000000
23.150951 -12.325133 3.826161 27.000000
89.861572 32.920238 12.769354 1.000000
77.882523 -5.528039 12.031375 1.000000
22.767775 -12.223327 3.769862 19.000000
6.263582 -8.037240 1.155564 77.000000
29.852615 28.617630 3.596182 10.000000
90.074364 32.624249 12.748479 1.000000
77.896286 -5.843379 12.023071 1.000000
21.968695 -11.908177 3.658800 15.000000
6.206234 -8.024137 1.157575 38.000000
21.397224 -11.690380 3.587450 9.000000
6.055425 -7.888732 1.140107 19.000000
29.901352 28.246660 3.533617 10.000000
20.823355 -11.471412 3.497928 10.000000
6.022976 -7.906287 1.146477 24.000000
29.813868 27.957945 3.482402 10.000000
20.209244 -11.239082 3.414691 25.000000
5.728335 -7.574217 1.100457 31.000000
29.828747 27.776850 3.451298 10.000000
20.142590 -11.285010 3.417638 10.000000
6.063742 -8.073211 1.175385 24.000000
29.986557 27.719290 3.436245 10.000000
19.256090 -10.881267 3.281858 191.000000
5.902994 -7.925246 1.160874 11.000000
95.134285 32.182674 13.168415 1.000000
18.904280 -10.769696 3.228286 16.000000
5.954621 -8.047209 1.179536 32.000000
95.534248 31.909700 13.170959 1.000000
18.498726 -10.628649 3.177078 10.000000
5.989342 -8.162455 1.200061 30.000000
18.047924 -10.457808 3.113660 11.000000
5.605035 -7.692061 1.134902 58.000000
97.572647 31.797440 13.328412 9.000000
17.613729 -10.288509 3.048569 10.000000
5.551960 -7.681015 1.133474 34.000000
30.977819 27.629339 3.361619 10.000000
97.712799 31.485060 13.315002 1.000000
17.391777 -10.244540 3.023836 35.000000
5.528890 -7.702773 1.140688 66.000000
31.143629 27.572941 3.346701 10.000000
17.355001 -10.304646 3.030882 16.000000
31.379829 27.558151 3.323490 10.000000
99.783920 31.327772 13.509127 13.000000
78.870415 -9.307014 12.237736 1.000000
17.329390 -10.375534 3.036634 10.000000
30.877016 26.916763 3.238183 5.000000
100.159470 31.081177 13.527333 6.000000
78.668991 -9.575725 12.211845 1.000000
17.303946 -10.442527 3.052975 15.000000
31.329134 27.128578 3.254312 10.000000
100.219704 30.716763 13.483709 20.000000
78.409134 -9.808069 12.190610 1.000000
17.281080 -10.515326 3.066554 14.000000
5.657526 -8.124975 1.215647 14.000000
31.357817 26.952938 3.225224 10.000000
17.244270 -10.575583 3.066554 28.000000
5.776721 -8.361339 1.255037 23.000000
17.225046 -10.650868 3.080906 18.000000
5.669586 -8.277122 1.247860 21.000000
25.162666 21.309309 2.525589 5.000000
17.207825 -10.723433 3.091744 21.000000
5.690755 -8.364268 1.261883 30.000000
30.908226 25.990286 3.071881 10.000000
78.593536 -10.975670 12.242449 1.000000
17.155392 -10.778254 3.093018 20.000000
5.698425 -8.441905 1.277658 28.000000
30.736567 25.654217 3.024371 10.000000
78.249359 -11.206210 12.208980 1.000000
17.154333 -10.861289 3.106897 21.000000
5.664188 -8.457870 1.284142 49.000000
30.340935 25.135902 2.941780 10.000000
105.040451 29.723452 13.810095 15.000000
17.126451 -10.931776 3.112713 23.000000
30.276138 24.895662 2.905993 20.000000
105.141464 29.336243 13.789788 24.000000
17.099283 -10.998630 3.125630 21.000000
30.426689 24.833092 2.884120 10.000000
105.513519 29.023643 13.766332 1.000000
17.058399 -11.060930 3.129178 12.000000
30.495426 24.703524 2.861374 9.000000
17.072550 -11.154947 3.146185 13.000000
5.738214 -8.839452 1.351901 30.000000
30.762209 24.733450 2.850179 10.000000
107.724075 28.804131 13.968184 30.000000
85.745010 -13.856946 13.399683 5.000000
17.005411 -11.200232 3.152273 16.000000
5.597745 -8.692663 1.335476 27.000000
31.699715 25.296492 2.907086 14.000000
85.452179 -14.131193 13.346449 8.000000
16.985876 -11.272573 3.163214 15.000000
5.636411 -8.820191 1.357611 26.000000
31.848536 25.224743 2.883728 8.000000
85.205139 -14.396073 13.331073 1.000000
16.960415 -11.345436 3.169842 10.000000
5.603231 -8.846334 1.363737 20.000000
58.399609 45.906467 5.207381 7.000000
110.319695 28.222687 14.123030 24.000000
85.305038 -14.734738 13.339596 1.000000
16.932539 -11.412544 3.175708 10.000000
58.608833 45.740841 5.172650 10.000000
110.559471 27.852690 14.079950 11.000000
85.216446 -15.025960 13.318402 13.000000
16.918207 -11.484657 3.187457 10.000000
58.738785 45.496826 5.130278 18.000000
85.073265 -15.322425 13.304711 3.000000
16.877556 -11.543328 3.191025 10.000000
58.967987 45.329540 5.070540 14.000000
16.878960 -11.644014 3.207435 10.000000
13.177424 -21.461542 3.342392 9.000000
59.004959 45.014866 5.020459 19.000000
84.990578 -15.936263 13.309276 8.000000
16.906290 -11.741427 3.226983 11.000000
13.138702 -21.575424 3.370554 9.000000
59.105404 44.749733 4.950029 14.000000
84.927002 -16.231419 13.292663 3.000000
16.891008 -11.822818 3.236003 11.000000
5.143583 -8.513172 1.330665 8.000000
59.176041 44.462936 4.890361 1.000000
84.621826 -16.494804 13.238868 1.000000
16.873274 -11.907197 3.245034 11.000000
5.119629 -8.544122 1.337870 4.000000
59.226009 44.161789 4.816332 16.000000
84.953812 -16.867538 13.284464 5.000000
16.861259 -11.991533 3.254854 10.000000
5.142466 -8.650578 1.358873 5.000000
59.361416 43.925137 4.775391 24.000000
9.164521 -6.561153 1.775082 2.000000
12.986011 -22.028284 3.466440 15.000000
59.500557 43.691517 4.721920 20.000000
84.445160 -17.410913 13.193725 12.000000
9.124139 -6.582958 1.773934 6.000000
12.930630 -22.110399 3.485896 10.000000
59.558083 43.398663 4.662176 13.000000
84.434502 -17.716200 13.186232 16.000000
9.120831 -6.629104 1.779796 4.000000
12.928115 -22.293200 3.520967 12.000000
84.219894 -17.962954 13.100429 9.000000
12.847748 -22.333897 3.520290 10.000000
28.176842 20.366671 2.095981 9.000000
130.919037 27.947134 15.560176 10.000000
83.997711 -17.915565 12.897210 11.000000
12.883438 -22.386898 3.496858 18.000000
59.621090 43.412720 4.433341 9.000000
130.721832 28.382494 15.477437 10.000000
84.352753 -17.699045 12.834985 9.000000
9.098728 -6.610612 1.737053 3.000000
12.920275 -22.261770 3.452669 9.000000
59.497791 43.657528 4.436041 16.000000
130.692719 28.878170 15.415403 10.000000
9.104321 -6.563828 1.721484 7.000000
12.951327 -22.128061 3.407387 10.000000
59.380268 43.907017 4.465120 17.000000
84.505783 -17.116112 12.685993 3.000000
9.156776 -6.553191 1.715000 4.000000
13.016212 -22.053112 3.380431 21.000000
59.222008 44.110577 4.477706 13.000000
84.550713 -16.802841 12.668035 16.000000
16.743435 -11.898939 3.110182 10.000000
13.005899 -21.860950 3.335331 15.000000
59.054699 44.323406 4.503179 1.000000
84.428848 -16.457188 12.594646 13.000000
16.776669 -11.821487 3.092860 10.000000
13.062219 -21.773602 3.302243 16.000000
84.686623 -16.200796 12.578477 14.000000
16.806999 -11.755279 3.079886 10.000000
5.287022 -8.740235 1.321246 7.000000
84.635178 -15.869623 12.516069 1.000000
16.839989 -11.686670 3.059772 18.000000
5.213860 -8.548382 1.284465 2.000000
58.979557 45.289330 4.613316 24.000000
84.130348 -15.440808 12.402067 1.000000
16.845778 -11.603776 3.038849 16.000000
13.189559 -21.456102 3.212983 10.000000
58.753368 45.442532 4.621017 15.000000
84.178345 -15.161242 12.386421 1.000000
16.905838 -11.554011 3.031067 23.000000
5.362187 -8.651694 1.289472 10.000000
58.737370 45.775208 4.685114 13.000000
110.551521 27.768623 13.047489 2.000000
85.202072 -15.038757 12.483009 5.000000
16.917068 -11.470948 3.010941 11.000000
5.376053 -8.603483 1.276220 96.000000
58.407639 45.863323 4.685204 24.000000
110.297585 28.135004 13.049729 2.000000
16.933811 -11.404808 2.996608 15.000000
5.628603 -8.938069 1.321268 30.000000
58.476574 46.264931 4.730436 17.000000
85.115990 -14.396293 12.393472 1.000000
16.952389 -11.318667 2.977296 18.000000
5.582158 -8.792681 1.293562 21.000000
58.468540 46.608028 4.782883 8.000000
85.221901 -14.093112 12.401288 10.000000
16.966381 -11.246845 2.962302 12.000000
5.596348 -8.744040 1.278377 14.000000
31.694757 25.446831 2.614213 18.000000
85.350258 -13.808439 12.366677 1.000000
17.019436 -11.188187 2.949523 20.000000
5.615388 -8.703366 1.268091 27.000000
31.668049 25.598557 2.626134 10.000000
17.054020 -11.130103 2.934590 18.000000
31.536537 25.702246 2.652284 15.000000
17.072987 -11.049237 2.919664 18.000000
30.276556 24.860596 2.574564 21.000000
17.082186 -10.966569 2.896266 19.000000
30.204626 24.978563 2.582716 27.000000
17.119308 -10.910403 2.889180 18.000000
5.583448 -8.384702 1.201208 86.000000
30.329956 25.269966 2.629017 10.000000
17.162352 -10.845397 2.878550 14.000000
5.574647 -8.308475 1.182443 32.000000
31.055962 26.049810 2.706527 10.000000
17.170561 -10.771072 2.859487 21.000000
5.616651 -8.305122 1.177791 26.000000
25.098770 21.225128 2.217817 6.000000
17.204653 -10.700623 2.847481 17.000000
5.672689 -8.322090 1.176010 29.000000
31.189030 26.553331 2.770921 10.000000
79.218742 -10.485614 11.230574 1.000000
17.229090 -10.636748 2.831259 10.000000
5.665730 -8.249856 1.159739 24.000000
31.028578 26.622902 2.794402 18.000000
100.201843 30.214556 12.053832 1.000000
79.014229 -10.178029 11.196476 1.000000
17.266844 -10.568704 2.819967 13.000000
5.676600 -8.201110 1.148747 28.000000
31.182524 26.954042 2.838827 10.000000
100.015129 30.558609 12.081756 1.000000
17.306303 -10.505856 2.812900 10.000000
5.675814 -8.136088 1.135528 28.000000
17.320675 -10.436134 2.802401 10.000000
5.676068 -8.076228 1.122951 21.000000
29.746494 26.077791 2.759289 9.000000
98.044220 30.687616 11.886800 1.000000
17.329332 -10.359072 2.779979 20.000000
5.643016 -7.966968 1.101998 32.000000
29.593550 26.136158 2.774743 10.000000
97.998749 31.105860 11.914515 1.000000
17.363087 -10.284868 2.771571 13.000000
5.635096 -7.894282 1.087937 103.000000
29.609491 26.334780 2.798741 8.000000
97.437126 31.283638 11.894984 12.000000
17.415842 -10.238254 2.760189 11.000000
5.516653 -7.668758 1.049620 26.000000
97.008102 31.519842 11.837927 12.000000
78.098984 -8.373948 10.941169 1.000000
17.726624 -10.337861 2.792763 10.000000
5.800448 -8.004179 1.091308 22.000000
78.274185 -8.088850 10.919282 1.000000
18.185564 -10.516375 2.851507 19.000000
95.658455 31.876974 11.773440 22.000000
78.529999 -7.824493 10.950893 1.000000
