VERSION .7
FIELDS x y z intensity
SIZE 4 4 4 4
TYPE F F F F
COUNT 1 1 1 1
WIDTH 1247
HEIGHT 1
VIEWPOINT 0 0 0 1 0 0 0
POINTS 1247
DATA ascii
10.882597 -1.651667 -2.014246 44.000000
5.050378 -3.263487 -0.865421 28.000000
5.878077 -8.807142 -0.816604 30.000000
9.939790 2.745341 -1.978304 1.000000
10.871314 -1.692684 -2.013346 49.000000
5.034866 -3.279684 -0.859466 24.000000
5.831326 -8.803494 -0.801397 16.000000
9.911217 2.698391 -1.974353 2.000000
10.885507 -1.735782 -2.011175 39.000000
5.027451 -3.301162 -0.855975 23.000000
5.787399 -8.803775 -0.786634 36.000000
9.973265 2.670463 -1.991943 1.000000
10.892978 -1.779889 -2.015794 10.000000
5.020067 -3.322710 -0.851426 34.000000
5.820518 -8.932065 -0.784777 20.000000
9.938004 2.625734 -1.990595 1.000000
11.017046 -1.843621 -2.040048 1.000000
5.024700 -3.352325 -0.851064 21.000000
5.933765 -9.168695 -0.792428 19.000000
9.896318 2.570422 -1.981922 1.000000
11.049395 -1.894662 -2.041365 1.000000
5.016047 -3.375729 -0.845431 25.000000
9.895263 2.529629 -1.987150 1.000000
11.056897 -1.935704 -2.046011 1.000000
5.009290 -3.395371 -0.842955 13.000000
5.765610 -9.053682 -0.752453 23.000000
9.832408 2.475204 -1.976366 2.000000
11.069799 -1.979806 -2.045672 1.000000
4.997296 -3.414039 -0.838730 10.000000
5.695579 -9.016482 -0.734529 40.000000
9.825694 2.437074 -1.978797 1.000000
11.066605 -2.023117 -2.048530 5.000000
5.005508 -3.446625 -0.838980 10.000000
5.657027 -9.018073 -0.722007 18.000000
9.828448 2.399552 -1.984901 1.000000
11.068426 -2.067401 -2.050322 2.000000
5.005410 -3.473671 -0.837841 10.000000
5.491457 -8.822395 -0.693870 142.000000
9.766026 2.344616 -1.970462 1.000000
11.070790 -2.109864 -2.050146 1.000000
5.009480 -3.503768 -0.835231 9.000000
5.447960 -8.821000 -0.679538 236.000000
9.740193 2.298894 -1.970711 1.000000
11.053650 -2.150614 -2.044426 1.000000
5.029595 -3.545361 -0.835276 9.000000
5.603619 -9.147859 -0.691850 22.000000
9.675541 2.246229 -1.963156 1.000000
11.107690 -2.205426 -2.058013 1.000000
5.037119 -3.578372 -0.835404 9.000000
5.885614 -9.683941 -0.718920 23.000000
9.693090 2.207554 -1.972035 4.000000
11.070601 -2.240269 -2.052649 2.000000
5.040442 -3.608602 -0.834838 9.000000
5.864352 -9.732965 -0.704954 22.000000
9.656997 2.163904 -1.966734 2.000000
11.096346 -2.289865 -2.054953 1.000000
5.062543 -3.637806 -0.837333 8.000000
5.944296 -9.936131 -0.706142 13.000000
9.596811 2.113508 -1.958235 2.000000
11.116415 -2.336518 -2.062289 1.000000
5.069600 -3.671127 -0.837384 8.000000
5.897214 -9.935990 -0.692521 7.000000
9.580225 2.071318 -1.956771 1.000000
11.103253 -2.378304 -2.057432 4.000000
5.104743 -3.725173 -0.839826 9.000000
9.557995 2.028128 -1.957720 6.000000
11.089233 -2.419871 -2.056541 1.000000
5.083422 -3.738244 -0.835205 9.000000
4.558151 -7.806595 -0.522820 29.000000
9.525633 1.984804 -1.956655 6.000000
11.104302 -2.465832 -2.060998 4.000000
5.081986 -3.765965 -0.833861 9.000000
4.698826 -8.112426 -0.530709 20.000000
9.503365 1.942119 -1.955819 2.000000
11.046415 -2.497522 -2.054060 1.000000
5.089684 -3.797881 -0.833804 9.000000
4.588681 -7.986410 -0.511738 69.000000
9.421255 1.889394 -1.951449 4.000000
11.011376 -2.534081 -2.057488 3.000000
5.099738 -3.834562 -0.835482 9.000000
4.517542 -7.929739 -0.500652 20.000000
9.336592 1.872415 -1.949492 1.000000
10.831415 -2.488685 -2.043746 6.000000
5.032179 -3.772776 -0.838069 8.000000
4.524693 -7.942292 -0.511046 18.000000
9.329333 1.908251 -1.949492 4.000000
10.795402 -2.442750 -2.041403 7.000000
5.009484 -3.727159 -0.838664 9.000000
4.658932 -8.111957 -0.536110 35.000000
9.318147 1.941571 -1.945166 7.000000
10.717610 -2.381925 -2.028911 5.000000
4.998604 -3.690678 -0.840093 10.000000
4.534326 -7.831571 -0.529715 44.000000
9.290792 1.973124 -1.944478 5.000000
10.680964 -2.332732 -2.032184 3.000000
4.974426 -3.646065 -0.843753 17.000000
5.701635 -9.772835 -0.682112 19.000000
9.293055 2.010927 -1.944824 3.000000
10.621861 -2.277130 -2.023183 5.000000
4.971136 -3.615720 -0.846407 16.000000
5.783355 -9.833881 -0.701767 17.000000
9.294832 2.048704 -1.946828 1.000000
10.581001 -2.227838 -2.019691 8.000000
4.979617 -3.594056 -0.852156 25.000000
5.868035 -9.898633 -0.723975 13.000000
9.291676 2.085451 -1.947830 8.000000
10.539966 -2.176967 -2.018024 4.000000
4.979207 -3.567392 -0.857579 24.000000
9.284632 2.119644 -1.944505 5.000000
10.523104 -2.133300 -2.017165 9.000000
4.982401 -3.526432 -0.864395 21.000000
5.619249 -9.329856 -0.717677 24.000000
9.300947 2.160976 -1.946174 6.000000
10.497133 -2.086105 -2.012571 7.000000
4.998112 -3.511429 -0.870427 28.000000
5.879136 -9.684704 -0.760450 28.000000
9.311652 2.201181 -1.950168 1.000000
10.464748 -2.039828 -2.012622 5.000000
4.998268 -3.484246 -0.872564 19.000000
5.443732 -8.897301 -0.714741 15.000000
9.331713 2.243791 -1.956159 5.000000
10.452165 -1.995748 -2.014484 1.000000
4.997914 -3.456849 -0.877863 22.000000
5.442811 -8.826440 -0.725118 79.000000
9.324089 2.278141 -1.952809 2.000000
10.453888 -1.956392 -2.017267 5.000000
5.005837 -3.435274 -0.882446 27.000000
5.349386 -8.607536 -0.721108 15.000000
9.339711 2.319996 -1.954434 4.000000
10.354677 -1.896703 -1.998605 1.000000
5.021718 -3.419166 -0.889528 26.000000
5.667390 -9.048621 -0.774698 20.000000
9.373492 2.366637 -1.963390 1.000000
10.360507 -1.856683 -2.005954 7.000000
5.017174 -3.389225 -0.891915 28.000000
5.631892 -8.922559 -0.778543 8.000000
9.370165 2.402363 -1.961009 1.000000
10.294333 -1.805907 -1.993737 9.000000
5.020567 -3.364785 -0.896787 27.000000
5.472419 -8.603225 -0.766657 203.000000
9.371349 2.441054 -1.957925 4.000000
10.232739 -1.754629 -1.984245 35.000000
5.028094 -3.343189 -0.901323 34.000000
5.808615 -9.061756 -0.822546 6.000000
9.391201 2.481262 -1.963871 1.000000
10.262290 -1.721001 -1.994386 48.000000
5.031532 -3.318944 -0.904054 31.000000
5.827711 -9.018620 -0.833760 7.000000
9.433895 2.533099 -1.971360 6.000000
10.210328 -1.672005 -1.984898 38.000000
5.042159 -3.300753 -0.911418 34.000000
5.765961 -8.855099 -0.837199 24.000000
9.363286 2.552725 -1.955114 6.000000
10.234694 -1.635668 -1.995902 29.000000
5.045397 -3.276519 -0.914123 31.000000
5.796271 -8.834057 -0.850109 11.000000
9.415818 2.605929 -1.962835 1.000000
10.347692 -1.614855 -2.014875 6.000000
5.052544 -3.254895 -0.918617 31.000000
5.812753 -8.792111 -0.860981 16.000000
9.396304 2.639412 -1.960866 1.000000
10.284822 -1.564615 -2.007097 5.000000
5.063627 -3.235835 -0.924910 32.000000
5.906274 -8.866138 -0.885220 23.000000
9.430595 2.682817 -1.966307 1.000000
10.284592 -1.526034 -2.011595 5.000000
5.074906 -3.216907 -0.929105 34.000000
5.969901 -8.894205 -0.903276 19.000000
9.424314 2.723752 -1.965578 1.000000
10.275105 -1.484326 -2.012370 2.000000
5.081515 -3.195049 -0.935675 26.000000
5.941591 -8.785599 -0.909263 28.000000
9.409739 2.758733 -1.961173 6.000000
10.275519 -1.444130 -2.013229 5.000000
5.092636 -3.176056 -0.939866 22.000000
5.870617 -8.615689 -0.906626 30.000000
9.451921 2.808761 -1.968517 1.000000
10.187306 -1.393676 -2.000519 4.000000
5.112085 -3.162220 -0.945609 11.000000
5.758989 -8.388787 -0.899176 34.000000
9.451443 2.848160 -1.965307 1.000000
10.245751 -1.361615 -2.012827 4.000000
5.147907 -3.158350 -0.957651 8.000000
5.553877 -8.026803 -0.874571 18.000000
9.454835 2.888829 -1.966510 1.000000
10.206751 -1.316569 -2.006021 1.000000
5.171531 -3.146813 -0.964226 7.000000
5.612570 -8.051419 -0.891471 14.000000
9.445493 2.923869 -1.959608 1.000000
5.168661 -3.111787 -0.966346 6.000000
5.720133 -8.144968 -0.916296 22.000000
9.462602 2.969027 -1.963709 1.000000
5.863207 -0.686694 -1.153899 7.000000
5.136922 -3.067083 -0.963659 6.000000
5.762255 -8.144351 -0.930777 10.000000
9.414910 2.992012 -1.952492 1.000000
5.791952 -0.656838 -1.142563 7.000000
5.223997 -3.093157 -0.982210 1.000000
5.840628 -8.191281 -0.949209 10.000000
9.437746 3.035581 -1.955817 1.000000
5.721465 -0.626602 -1.127132 11.000000
5.158630 -3.027761 -0.972012 1.000000
5.763969 -8.024366 -0.944372 4.000000
9.491757 3.095052 -1.964139 1.000000
5.693966 -0.601474 -1.124365 16.000000
5.219985 -3.038104 -0.987961 1.000000
5.805752 -8.023279 -0.960579 1.000000
9.448165 3.121024 -1.952173 1.000000
5.656891 -0.576601 -1.117650 19.000000
5.192028 -2.996411 -0.984882 8.000000
5.923894 -8.126666 -0.987830 7.000000
9.445741 3.160501 -1.952360 1.000000
5.629767 -0.552004 -1.111864 26.000000
5.150847 -2.947531 -0.980334 109.000000
5.817427 -7.919466 -0.977352 5.000000
7.956784 2.694771 -1.643589 1.000000
5.626767 -0.529904 -1.111886 34.000000
5.216791 -2.959938 -0.995116 16.000000
7.914697 2.714437 -1.632488 1.000000
5.604049 -0.507050 -1.108042 22.000000
5.243887 -2.949957 -1.004690 9.000000
7.850812 2.721657 -1.616648 1.000000
5.585828 -0.483785 -1.107114 31.000000
5.271276 -2.939983 -1.012198 1.000000
7.808151 2.740497 -1.608520 1.000000
5.582595 -0.463878 -1.106145 23.000000
5.277082 -2.917914 -1.015581 9.000000
5.868733 -7.757041 -1.017195 255.000000
7.594592 2.698339 -1.563729 1.000000
5.559693 -0.440487 -1.102276 28.000000
5.303746 -2.908530 -1.024182 8.000000
5.940624 -7.801008 -1.035785 30.000000
7.405254 2.661676 -1.522467 2.000000
5.546022 -0.418954 -1.102280 31.000000
5.314750 -2.886875 -1.028405 6.000000
7.236357 2.656727 -1.483054 1.000000
5.538188 -0.396982 -1.098397 25.000000
5.311801 -2.860110 -1.029049 32.000000
5.541242 -7.164359 -0.979132 21.000000
7.159595 2.668321 -1.465829 1.000000
5.524418 -0.374680 -1.098386 25.000000
5.343192 -2.851800 -1.038539 32.000000
5.382201 -6.908765 -0.957589 10.000000
5.511070 -0.353487 -1.095467 28.000000
5.370388 -2.841074 -1.046160 30.000000
7.417994 2.792675 -1.516317 1.000000
5.507301 -0.332017 -1.095457 18.000000
5.397244 -2.830013 -1.055937 30.000000
7.240548 2.777936 -1.479375 1.000000
5.493845 -0.310039 -1.092536 21.000000
5.433644 -2.822552 -1.065333 30.000000
8.535095 3.286575 -1.739731 1.000000
5.494754 -0.289891 -1.093496 27.000000
5.477672 -2.822396 -1.074341 30.000000
5.226766 -6.519405 -0.952039 9.000000
9.147470 9.266382 -1.908818 4.000000
8.564457 3.335699 -1.743328 1.000000
5.495827 -0.268791 -1.093496 23.000000
5.504688 -2.810832 -1.083170 35.000000
5.250919 -6.498247 -0.963705 9.000000
9.132594 9.325897 -1.897224 5.000000
8.342739 3.284611 -1.695773 1.000000
5.487020 -0.247245 -1.091547 26.000000
5.533318 -2.796292 -1.090951 34.000000
5.269688 -6.475109 -0.973332 9.000000
9.123878 9.385566 -1.888552 4.000000
8.362293 3.329452 -1.700706 1.000000
5.482458 -0.225949 -1.093446 28.000000
5.573320 -2.790911 -1.103545 32.000000
5.314557 -6.481571 -0.989090 10.000000
9.179568 9.505721 -1.897177 5.000000
5.478349 -0.205669 -1.092469 27.000000
5.595254 -2.778726 -1.109431 31.000000
5.352295 -6.481321 -1.000823 10.000000
9.220108 9.614639 -1.893501 5.000000
5.469297 -0.184302 -1.090514 40.000000
5.628104 -2.766931 -1.115991 33.000000
5.381803 -6.468618 -1.009348 9.000000
9.251047 9.724748 -1.893519 5.000000
5.459971 -0.163002 -1.089513 23.000000
5.655334 -2.753405 -1.126083 28.000000
5.416192 -6.463925 -1.023506 10.000000
9.259433 9.801850 -1.885429 5.000000
5.480139 -0.143502 -1.093425 29.000000
5.677976 -2.738730 -1.133127 34.000000
5.461445 -6.469615 -1.038068 9.000000
9.288774 9.898462 -1.888416 5.000000
8.543215 3.587728 -1.724039 1.000000
5.451237 -0.121802 -1.087557 25.000000
5.714078 -2.730374 -1.141751 29.000000
5.492930 -6.461023 -1.048774 9.000000
9.308127 9.999225 -1.881055 5.000000
8.603526 3.650208 -1.732149 1.000000
5.446762 -0.100779 -1.086579 28.000000
5.754930 -2.722801 -1.152406 26.000000
5.522191 -6.447404 -1.060374 10.000000
9.412561 10.175323 -1.893823 5.000000
5.452011 -0.079936 -1.087557 25.000000
5.808870 -2.722310 -1.164671 22.000000
5.569858 -6.457297 -1.074262 10.000000
9.413175 10.258289 -1.887366 4.000000
8.567504 3.714593 -1.718919 1.000000
5.452268 -0.059953 -1.087557 27.000000
5.858225 -2.719298 -1.177218 20.000000
5.599253 -6.443475 -1.084452 10.000000
9.433621 10.349256 -1.885893 5.000000
8.465205 3.705397 -1.695977 1.000000
5.447554 -0.038983 -1.086579 24.000000
5.921692 -2.721170 -1.191390 14.000000
5.650228 -6.456477 -1.100606 10.000000
9.485449 10.479357 -1.885976 5.000000
8.564838 3.786475 -1.713639 1.000000
5.442571 -0.018048 -1.086551 27.000000
5.975629 -2.719473 -1.204965 9.000000
5.686206 -6.449734 -1.112156 9.000000
9.581028 10.663244 -1.894915 5.000000
8.520551 3.804290 -1.700825 1.000000
5.437887 0.000000 -1.084623 33.000000
6.015416 -2.713537 -1.214739 17.000000
5.722116 -6.449508 -1.124392 9.000000
9.587971 10.746188 -1.888353 5.000000
5.428047 0.018948 -1.082667 29.000000
6.060182 -2.708312 -1.225456 17.000000
5.777965 -6.464572 -1.139938 10.000000
9.638365 10.882703 -1.893218 4.000000
5.432823 0.041722 -1.083645 32.000000
6.136720 -2.715577 -1.243757 10.000000
5.814084 -6.457194 -1.151645 10.000000
9.669037 10.990549 -1.890804 5.000000
5.427374 0.059679 -1.084562 28.000000
6.196036 -2.713423 -1.257322 10.000000
5.852147 -6.454019 -1.167095 9.000000
9.720224 11.126812 -1.890049 4.000000
5.432357 0.082493 -1.083645 28.000000
6.269216 -2.715530 -1.274885 10.000000
5.898468 -6.457382 -1.179375 10.000000
9.765375 11.261539 -1.888335 4.000000
5.432000 0.103351 -1.083645 26.000000
6.328197 -2.713577 -1.288579 12.000000
5.926841 -6.443134 -1.189880 9.000000
9.793069 11.377458 -1.888432 6.000000
5.426661 0.124096 -1.082667 28.000000
6.400863 -2.715687 -1.307524 17.000000
5.966115 -6.438309 -1.205504 9.000000
9.896842 11.579526 -1.894624 5.000000
5.421319 0.141962 -1.081689 27.000000
6.445861 -2.709590 -1.316137 17.000000
6.002472 -6.430110 -1.215902 9.000000
9.887503 11.654819 -1.887459 6.000000
5.368330 2.617150 -1.056304 1.000000
5.425446 0.162919 -1.083614 27.000000
6.528683 -2.712282 -1.337105 12.000000
6.057776 -6.444112 -1.233554 9.000000
9.931372 11.789706 -1.884560 5.000000
5.200464 2.558946 -1.019896 1.000000
5.420257 0.183597 -1.080743 27.000000
6.573334 -2.705307 -1.348261 10.000000
6.087272 -6.428114 -1.244208 9.000000
9.984872 11.941772 -1.886462 6.000000
5.165221 2.565162 -1.010671 2.000000
5.428970 0.203815 -1.084593 25.000000
6.641941 -2.703767 -1.365380 13.000000
6.129271 -6.427377 -1.257684 10.000000
10.036345 12.088836 -1.887455 6.000000
5.151246 2.582926 -1.007797 1.000000
5.423437 0.224465 -1.082667 29.000000
6.706751 -2.698817 -1.380388 16.000000
6.193021 -6.446752 -1.275459 10.000000
10.153663 12.317377 -1.894986 5.000000
5.427811 0.245526 -1.081749 35.000000
6.765643 -2.695112 -1.394517 12.000000
6.232727 -6.440666 -1.289941 8.000000
10.175736 12.436748 -1.890537 5.000000
5.426828 0.266366 -1.081749 32.000000
6.948390 -2.738445 -1.434160 13.000000
6.271492 -6.435619 -1.302913 8.000000
10.239974 12.604779 -1.893395 2.000000
5.430424 0.288398 -1.083674 28.000000
6.936223 -2.700137 -1.433343 17.000000
6.307942 -6.425735 -1.315213 8.000000
10.297831 12.771360 -1.895324 1.000000
5.419592 0.306798 -1.081720 31.000000
6.976502 -2.689211 -1.443877 10.000000
6.345793 -6.421557 -1.326705 9.000000
10.385229 12.972161 -1.896224 1.000000
5.423834 0.327935 -1.079852 26.000000
7.060400 -2.687636 -1.463001 9.000000
6.398296 -6.422911 -1.343598 9.000000
10.474257 13.177383 -1.900036 4.000000
5.427490 0.348126 -1.080827 30.000000
7.132858 -2.688172 -1.480301 8.000000
6.437188 -6.416997 -1.356782 8.000000
10.416129 13.193839 -1.882563 6.000000
5.430817 0.369284 -1.082751 28.000000
7.195471 -2.685983 -1.497102 9.000000
6.492552 -6.429403 -1.373733 8.000000
10.504902 13.411854 -1.883819 1.000000
5.424845 0.389809 -1.079877 26.000000
7.257705 -2.687587 -1.508581 9.000000
6.545493 -6.429992 -1.389289 9.000000
10.528514 13.534215 -1.880946 3.000000
5.447714 0.410572 -1.085700 29.000000
7.310504 -2.683949 -1.522225 9.000000
6.590497 -6.431397 -1.404173 9.000000
10.614732 13.753694 -1.881224 1.000000
5.441322 0.432064 -1.083772 23.000000
7.358969 -2.678446 -1.533592 11.000000
6.621362 -6.412066 -1.413725 9.000000
10.683341 13.947987 -1.883819 3.000000
5.439623 0.452954 -1.083772 25.000000
7.408851 -2.668811 -1.544989 14.000000
6.671886 -6.413774 -1.432712 8.000000
10.764307 14.145531 -1.883959 4.000000
5.443294 0.474312 -1.081885 23.000000
7.496854 -2.668036 -1.565520 10.000000
6.717404 -6.414807 -1.444552 8.000000
10.828341 14.343632 -1.879419 1.000000
5.446592 0.494720 -1.081902 22.000000
7.575743 -2.664868 -1.581399 12.000000
6.770688 -6.413923 -1.460466 8.000000
10.886756 14.526182 -1.879132 3.000000
5.444840 0.515648 -1.080948 27.000000
7.668011 -2.664283 -1.605872 8.000000
6.818219 -6.411697 -1.475683 9.000000
10.927019 14.691806 -1.869528 1.000000
5.457653 0.538013 -1.082899 20.000000
7.798809 -2.676213 -1.631101 9.000000
6.869418 -6.412564 -1.491754 9.000000
11.036387 14.947533 -1.877498 6.000000
5.450764 0.557513 -1.081930 29.000000
7.900650 -2.678834 -1.654875 9.000000
6.912530 -6.407799 -1.504684 8.000000
11.046633 15.060194 -1.864232 6.000000
5.459104 0.577629 -1.080993 27.000000
7.979807 -2.671555 -1.673875 9.000000
6.978593 -6.421642 -1.522419 9.000000
11.063709 15.211134 -1.850883 6.000000
5.466578 0.601584 -1.081965 27.000000
8.072791 -2.669821 -1.694401 22.000000
7.022769 -6.414917 -1.537135 9.000000
10.993678 15.215107 -1.827309 6.000000
5.459866 0.619177 -1.080041 26.000000
8.133410 -2.655266 -1.709630 22.000000
7.041581 -6.384915 -1.544633 8.000000
11.043509 15.397003 -1.817810 6.000000
5.472253 0.641874 -1.081972 23.000000
8.208020 -2.644792 -1.727862 14.000000
7.109376 -6.403558 -1.563409 9.000000
11.196052 15.736917 -1.832443 6.000000
5.474575 0.665405 -1.081973 23.000000
8.296499 -2.639775 -1.747600 3.000000
7.148311 -6.386839 -1.578347 8.000000
11.317618 16.019993 -1.833394 6.000000
5.487012 0.686361 -1.083896 28.000000
8.441914 -2.650390 -1.777681 1.000000
7.205311 -6.394926 -1.594878 8.000000
11.320080 16.142750 -1.818614 6.000000
5.494380 0.707745 -1.084853 20.000000
8.529972 -2.643730 -1.800658 1.000000
7.257260 -6.393634 -1.609852 9.000000
11.418353 16.404409 -1.822484 6.000000
4.661702 2.878002 -0.855957 1.000000
5.506402 0.730799 -1.086766 20.000000
8.515724 -2.603518 -1.800380 14.000000
7.305357 -6.388604 -1.625762 8.000000
11.532119 16.691814 -1.824941 6.000000
5.498882 0.751298 -1.084837 31.000000
8.586656 -2.589194 -1.813261 14.000000
7.355724 -6.380722 -1.641743 9.000000
11.584797 16.906506 -1.814692 6.000000
4.351866 2.733097 -0.794629 1.000000
5.525625 0.775593 -1.088645 22.000000
8.712289 -2.592280 -1.844378 20.000000
7.418845 -6.387975 -1.661140 9.000000
11.661421 17.139948 -1.813711 6.000000
4.304710 2.725533 -0.784196 1.000000
5.522794 0.796831 -1.087671 22.000000
8.805877 -2.583362 -1.867081 15.000000
7.467332 -6.382214 -1.675568 9.000000
11.783958 17.450720 -1.816312 6.000000
4.354446 2.777294 -0.791239 6.000000
5.534965 0.819307 -1.087611 28.000000
11.779671 17.576347 -1.799057 7.000000
4.335527 2.789775 -0.785226 1.000000
5.546147 0.842737 -1.091452 23.000000
5.149061 -4.309866 -1.164666 8.000000
11.771394 17.710665 -1.778262 7.000000
4.390922 2.841702 -0.792868 1.000000
5.563362 0.861254 -1.094290 29.000000
9.454880 -2.657647 -2.010664 6.000000
5.126152 -4.258837 -1.161937 9.000000
11.700413 17.724405 -1.749816 9.000000
5.560733 0.881728 -1.091342 37.000000
9.441412 -2.614787 -2.005650 5.000000
5.118301 -4.220702 -1.161416 10.000000
11.633637 17.764526 -1.727170 9.000000
4.466938 2.935346 -0.802642 1.000000
5.577064 0.906284 -1.093175 26.000000
9.439230 -2.580510 -2.010476 7.000000
5.100850 -4.177972 -1.161424 12.000000
11.510393 17.710913 -1.688356 9.000000
5.607629 0.933365 -1.098832 28.000000
9.430698 -2.535771 -2.008156 8.000000
5.088441 -4.136739 -1.162220 9.000000
11.444049 17.744081 -1.665449 10.000000
5.619067 0.956448 -1.099689 29.000000
9.449156 -2.501868 -2.013582 5.000000
5.079792 -4.098876 -1.162681 14.000000
11.426125 17.852800 -1.645845 8.000000
5.634890 0.981419 -1.102479 20.000000
9.404782 -2.453268 -2.009271 8.000000
5.067096 -4.058058 -1.162209 10.000000
11.322193 17.827164 -1.610166 7.000000
5.684440 1.012553 -1.111881 13.000000
9.418195 -2.418181 -2.013678 7.000000
5.054015 -4.017266 -1.162803 12.000000
11.452488 18.172173 -1.607544 7.000000
5.710419 1.036729 -1.115528 10.000000
9.402845 -2.379286 -2.008608 9.000000
5.033142 -3.970658 -1.160421 19.000000
11.556587 18.480047 -1.604425 8.000000
5.817253 1.081315 -1.136202 8.000000
9.387886 -2.335443 -2.006916 6.000000
5.042989 -3.948526 -1.165120 18.000000
11.474029 18.498503 -1.575629 9.000000
5.905701 1.120165 -1.149921 8.000000
9.377082 -2.294557 -2.006223 7.000000
5.043298 -3.914804 -1.165998 18.000000
11.379772 18.483097 -1.540632 9.000000
9.347746 -2.249372 -1.998084 6.000000
5.028182 -3.876417 -1.165251 18.000000
11.284467 18.479671 -1.506506 8.000000
9.350100 -2.215440 -2.000421 3.000000
5.002494 -3.827463 -1.161722 29.000000
11.188005 18.459047 -1.471511 9.000000
4.495965 3.195116 -0.776157 1.000000
10.118260 2.003469 -1.963903 13.000000
9.367010 -2.183219 -2.005816 3.000000
5.004095 -3.799691 -1.163388 43.000000
11.077498 18.428766 -1.439461 9.000000
10.106706 2.039705 -1.959369 6.000000
9.341926 -2.139587 -1.998671 4.000000
5.001472 -3.768880 -1.165213 36.000000
11.006330 18.455963 -1.412207 9.000000
10.119383 2.082733 -1.955891 4.000000
9.354166 -2.104622 -2.003039 6.000000
4.991634 -3.731502 -1.164076 37.000000
10.940413 18.491861 -1.378131 9.000000
10.169717 2.131975 -1.965238 6.000000
9.377238 -2.068583 -2.006106 6.000000
4.988672 -3.700864 -1.165825 36.000000
10.833702 18.458216 -1.346543 9.000000
10.162795 2.171294 -1.957983 1.000000
9.355374 -2.027832 -2.003313 7.000000
4.989512 -3.673212 -1.168465 37.000000
10.758297 18.469772 -1.314816 9.000000
10.208254 2.220161 -1.964520 6.000000
9.342910 -1.991010 -2.000884 7.000000
4.983082 -3.639057 -1.168140 56.000000
10.639733 18.413712 -1.278370 9.000000
10.229110 2.265866 -1.966407 1.000000
9.336115 -1.952117 -1.997808 5.000000
4.979650 -3.608640 -1.169787 53.000000
10.582867 18.471251 -1.253562 9.000000
10.264217 2.313141 -1.972872 1.000000
9.314095 -1.910215 -1.994977 6.000000
4.973036 -3.591947 -1.169126 65.000000
10.475534 18.425299 -1.218385 9.000000
10.285344 2.359437 -1.971034 4.000000
9.335083 -1.878892 -1.999719 8.000000
4.974316 -3.563888 -1.169522 68.000000
10.382453 18.410854 -1.189119 9.000000
10.349771 2.414180 -1.977386 1.000000
9.308624 -1.836405 -1.992526 7.000000
4.974505 -3.536504 -1.172032 65.000000
10.280027 18.378876 -1.151549 9.000000
4.299046 3.282115 -0.709189 1.000000
10.399167 2.467843 -1.980900 6.000000
9.286780 -1.795077 -1.986360 9.000000
4.991390 -3.519734 -1.177240 34.000000
10.221425 18.424768 -1.122676 9.000000
4.248370 3.268143 -0.696140 46.000000
10.400283 2.508409 -1.978988 1.000000
9.259610 -1.752969 -1.980812 13.000000
4.991347 -3.492383 -1.179717 32.000000
10.120883 18.379412 -1.088593 9.000000
10.473102 2.568564 -1.986921 1.000000
9.334312 -1.730013 -1.991897 10.000000
5.003776 -3.473831 -1.181844 30.000000
10.132486 18.408087 -1.075478 9.000000
10.551994 2.585961 -1.990042 1.000000
9.417486 -1.745428 -2.002666 8.000000
4.995465 -3.479702 -1.173454 24.000000
10.225299 18.424170 -1.096933 9.000000
4.271626 3.271815 -0.692143 33.000000
10.519042 2.537052 -1.978157 1.000000
9.450905 -1.789184 -2.002459 6.000000
4.992665 -3.503699 -1.166832 22.000000
10.306048 18.417852 -1.120855 9.000000
10.610065 2.515935 -1.993443 1.000000
9.498186 -1.834221 -2.008604 7.000000
4.992198 -3.532058 -1.163247 26.000000
10.379505 18.398125 -1.144037 9.000000
10.538215 2.456198 -1.978157 1.000000
9.511662 -1.874735 -2.005902 6.000000
4.976372 -3.548302 -1.154846 68.000000
10.488788 18.426147 -1.177969 9.000000
10.512917 2.409710 -1.975628 1.000000
9.524282 -1.915243 -2.006563 5.000000
4.974873 -3.577443 -1.152284 65.000000
10.570732 18.435150 -1.206706 9.000000
10.512495 2.367165 -1.973826 3.000000
9.517885 -1.952010 -2.001477 8.000000
4.995803 -3.617687 -1.153218 59.000000
10.665077 18.442709 -1.232135 9.000000
10.544436 2.333784 -1.982100 1.000000
9.559290 -1.997040 -2.008156 7.000000
4.975541 -3.648218 -1.144605 65.000000
10.754355 18.440798 -1.264541 9.000000
10.519679 2.285969 -1.975782 5.000000
9.566951 -2.037009 -2.006056 7.000000
4.983031 -3.681868 -1.141596 39.000000
10.862927 18.485832 -1.288870 8.000000
10.508804 2.241385 -1.974047 2.000000
9.584363 -2.079218 -2.004232 8.000000
4.989375 -3.716257 -1.140698 39.000000
10.927811 18.433834 -1.318192 9.000000
10.506648 2.200695 -1.975987 1.000000
9.586927 -2.116595 -2.002807 3.000000
4.992251 -3.746926 -1.138858 53.000000
11.018211 18.453918 -1.344691 9.000000
10.515020 2.160336 -1.975987 4.000000
9.617652 -2.162141 -2.007362 7.000000
4.991205 -3.774818 -1.134998 37.000000
11.153872 18.533838 -1.376086 9.000000
10.498427 2.116854 -1.973331 1.000000
9.638962 -2.205847 -2.008171 6.000000
4.997689 -3.808598 -1.133976 59.000000
11.214777 18.488653 -1.409738 9.000000
10.505802 2.076394 -1.977069 5.000000
9.659447 -2.247824 -2.014142 7.000000
4.992286 -3.833486 -1.130260 39.000000
11.327912 18.528999 -1.438661 9.000000
4.306091 2.995041 -0.724107 3.000000
9.661649 -2.287478 -2.009201 6.000000
5.022115 -3.885734 -1.132224 23.000000
11.430847 18.551544 -1.470242 8.000000
4.296346 2.964957 -0.723422 1.000000
9.701123 -2.336198 -2.015635 6.000000
5.024148 -3.916828 -1.130175 24.000000
11.487278 18.491034 -1.495492 9.000000
5.871057 1.073304 -1.106170 6.000000
9.717667 -2.377898 -2.013601 5.000000
5.037636 -3.957115 -1.130699 20.000000
11.556070 18.457716 -1.522784 9.000000
4.382446 2.977189 -0.743651 4.000000
5.753775 1.029048 -1.085431 7.000000
9.718660 -2.417730 -2.012079 6.000000
5.051057 -3.997680 -1.130038 15.000000
11.667332 18.491602 -1.555776 9.000000
4.335205 2.921931 -0.739397 5.000000
5.699389 0.996753 -1.075486 22.000000
9.737820 -2.462239 -2.017988 6.000000
5.064096 -4.038276 -1.130434 18.000000
11.792472 18.546169 -1.586954 9.000000
4.337334 2.900304 -0.740728 4.000000
5.654367 0.967534 -1.067349 31.000000
9.772830 -2.509236 -2.019808 8.000000
5.069537 -4.073100 -1.126788 14.000000
11.848014 18.490650 -1.612705 8.000000
4.335020 2.875820 -0.743160 5.000000
5.643495 0.943385 -1.064605 30.000000
9.768550 -2.548158 -2.017266 4.000000
5.070656 -4.104671 -1.124510 14.000000
11.741481 18.177378 -1.615708 7.000000
4.336828 2.854184 -0.745370 6.000000
5.622636 0.917719 -1.061027 28.000000
9.783072 -2.592107 -2.018631 5.000000
5.083069 -4.145650 -1.124731 17.000000
11.714022 17.996725 -1.629658 7.000000
4.355001 2.843324 -0.751331 8.000000
5.596473 0.892403 -1.057512 34.000000
9.798544 -2.634679 -2.016438 7.000000
5.083829 -4.177390 -1.122370 10.000000
11.679977 17.808146 -1.642435 9.000000
4.364952 2.827057 -0.754961 5.000000
5.589598 0.869312 -1.058640 33.000000
9.830934 -2.683907 -2.025210 5.000000
5.099764 -4.221892 -1.122163 10.000000
11.749199 17.778057 -1.669625 9.000000
4.362241 2.802660 -0.757331 8.000000
5.582914 0.849320 -1.055815 36.000000
9.831030 -2.724538 -2.021818 4.000000
5.122870 -4.272760 -1.124698 10.000000
11.821095 17.751820 -1.697245 10.000000
4.359633 2.778463 -0.757870 14.000000
5.561932 0.822307 -1.052202 29.000000
9.817612 -2.759606 -2.013726 1.000000
5.145978 -4.324114 -1.124799 9.000000
11.912368 17.754236 -1.727730 11.000000
4.388626 2.767946 -0.767111 9.000000
5.550925 0.792979 -1.051400 29.000000
5.198450 -4.400813 -1.134899 8.000000
12.004086 17.749973 -1.757938 12.000000
4.452909 2.785729 -0.779368 8.000000
5.539010 0.770572 -1.049611 25.000000
12.073172 17.718529 -1.785361 9.000000
4.492040 2.787354 -0.788196 8.000000
5.532007 0.747957 -1.048741 24.000000
8.822877 -2.588350 -1.803931 22.000000
7.461123 -6.372401 -1.620852 10.000000
12.125244 17.662144 -1.810291 9.000000
4.548080 2.799092 -0.800035 6.000000
5.529658 0.727011 -1.048791 22.000000
8.742932 -2.601398 -1.786308 26.000000
7.416348 -6.381318 -1.607425 10.000000
12.174400 17.601751 -1.831020 9.000000
4.570130 2.789619 -0.808799 6.000000
5.517358 0.705811 -1.046990 23.000000
8.649367 -2.608104 -1.765858 8.000000
7.356679 -6.377051 -1.590823 9.000000
12.055234 17.293634 -1.829499 6.000000
4.525105 2.739421 -0.800937 5.000000
5.500342 0.682179 -1.044258 25.000000
8.504069 -2.599955 -1.733386 19.000000
7.319637 -6.392078 -1.577422 9.000000
11.936758 16.996897 -1.828073 6.000000
5.493097 0.658902 -1.043372 29.000000
8.499748 -2.632737 -1.731236 1.000000
7.250899 -6.383536 -1.556008 9.000000
11.960198 16.904503 -1.848112 6.000000
5.495406 0.637784 -1.044337 24.000000
8.448294 -2.652394 -1.718006 8.000000
7.208536 -6.388797 -1.542832 8.000000
11.907984 16.706709 -1.856289 6.000000
5.488015 0.617519 -1.041519 31.000000
8.256744 -2.627126 -1.674817 24.000000
7.163972 -6.396336 -1.529707 8.000000
11.793892 16.418983 -1.846898 6.000000
5.475408 0.595787 -1.039700 26.000000
8.191816 -2.639570 -1.658924 34.000000
7.091571 -6.376320 -1.507046 9.000000
11.706789 16.178238 -1.849007 6.000000
5.477474 0.574739 -1.040661 30.000000
8.130829 -2.654423 -1.645529 21.000000
7.061609 -6.396342 -1.498834 8.000000
11.650416 15.982569 -1.855654 6.000000
5.470044 0.552733 -1.037845 25.000000
8.052464 -2.661539 -1.623959 12.000000
7.028518 -6.413421 -1.484879 9.000000
11.601483 15.793507 -1.862783 6.000000
5.476743 0.533139 -1.039733 27.000000
7.954239 -2.662995 -1.603165 12.000000
6.947904 -6.386687 -1.462662 8.000000
11.365439 15.359510 -1.833090 6.000000
5.468786 0.511175 -1.038835 33.000000
7.871721 -2.664431 -1.583796 13.000000
6.900371 -6.389814 -1.445813 9.000000
11.375808 15.261817 -1.852984 6.000000
5.460561 0.489263 -1.038890 28.000000
7.786679 -2.672051 -1.565945 16.000000
6.874212 -6.412549 -1.436850 9.000000
11.403405 15.182391 -1.871824 6.000000
5.462498 0.469262 -1.037934 29.000000
7.694075 -2.671834 -1.544863 17.000000
6.802256 -6.389978 -1.418130 10.000000
11.464149 15.152823 -1.893194 6.000000
5.464079 0.448269 -1.038890 26.000000
7.615933 -2.674525 -1.526660 20.000000
6.776452 -6.412654 -1.405981 9.000000
11.388711 14.938999 -1.891551 1.000000
5.455965 0.426519 -1.037029 32.000000
7.527191 -2.677352 -1.506681 10.000000
6.711015 -6.397517 -1.387331 9.000000
11.325359 14.759496 -1.893000 4.000000
5.452412 0.406141 -1.037052 30.000000
7.435065 -2.673857 -1.487244 9.000000
6.688566 -6.423073 -1.377621 8.000000
11.253225 14.554721 -1.894726 2.000000
5.448851 0.384844 -1.037074 30.000000
7.330571 -2.678257 -1.460574 10.000000
6.635135 -6.416433 -1.361344 9.000000
11.163922 14.325209 -1.892841 1.000000
5.450288 0.363919 -1.037074 34.000000
7.267184 -2.696868 -1.445045 8.000000
6.591329 -6.420988 -1.347331 10.000000
11.172715 14.233736 -1.905054 1.000000
5.451405 0.343929 -1.038027 32.000000
7.214171 -2.714503 -1.432763 9.000000
6.540501 -6.418363 -1.331941 8.000000
11.051082 13.978043 -1.901142 3.000000
5.437614 0.322101 -1.037128 31.000000
7.199812 -2.739267 -1.430504 9.000000
6.486083 -6.411796 -1.317509 10.000000
11.051641 13.873927 -1.908135 1.000000
5.424277 0.300415 -1.033374 61.000000
7.100581 -2.741310 -1.405190 9.000000
6.449485 -6.422526 -1.305119 10.000000
10.885182 13.577212 -1.896603 2.000000
5.425342 0.280532 -1.033374 40.000000
6.945529 -2.707949 -1.372239 8.000000
6.407016 -6.424933 -1.291360 9.000000
10.913138 13.500676 -1.913480 4.000000
5.421293 0.259455 -1.033387 38.000000
6.879900 -2.715615 -1.357504 8.000000
6.356508 -6.421182 -1.276263 8.000000
10.881716 13.370866 -1.912368 4.000000
5.427073 0.240747 -1.034322 83.000000
6.816690 -2.716826 -1.342831 8.000000
6.309570 -6.420665 -1.261941 9.000000
10.718734 13.077097 -1.899595 5.000000
5.427814 0.218952 -1.035271 38.000000
6.737952 -2.716839 -1.325527 8.000000
6.274203 -6.429415 -1.249758 9.000000
10.797622 13.079947 -1.926458 1.000000
5.428254 0.198096 -1.037167 47.000000
6.655752 -2.710743 -1.309913 8.000000
6.227380 -6.428402 -1.235563 9.000000
10.727775 12.889593 -1.925505 4.000000
5.114236 2.505438 -0.958120 1.000000
5.429336 0.177264 -1.035271 58.000000
6.618577 -2.726629 -1.298287 10.000000
6.201236 -6.448542 -1.225512 10.000000
10.637399 12.690646 -1.918893 5.000000
5.371159 2.606936 -1.008743 1.000000
5.434859 0.157505 -1.036207 58.000000
6.572349 -2.737151 -1.287421 16.000000
6.140810 -6.432731 -1.208735 9.000000
10.485953 12.426037 -1.901387 3.000000
5.429923 0.138394 -1.038115 65.000000
6.486537 -2.726689 -1.269840 15.000000
6.091914 -6.426273 -1.194076 9.000000
10.454009 12.300808 -1.904935 6.000000
5.425505 0.117438 -1.037176 76.000000
6.426811 -2.730667 -1.256416 10.000000
6.069173 -6.449465 -1.184802 9.000000
10.439163 12.192496 -1.916801 6.000000
5.425899 0.097551 -1.037176 76.000000
6.363093 -2.731170 -1.242166 10.000000
6.022513 -6.447066 -1.172462 9.000000
10.340951 11.992796 -1.907891 5.000000
5.431143 0.076786 -1.038115 44.000000
6.308479 -2.735153 -1.229737 12.000000
5.973835 -6.439872 -1.157995 10.000000
10.314947 11.874358 -1.914549 6.000000
5.431398 0.055931 -1.038115 72.000000
6.271663 -2.747847 -1.219676 12.000000
5.927500 -6.437083 -1.144258 10.000000
10.227571 11.691092 -1.907255 4.000000
5.426668 0.034097 -1.037176 61.000000
6.193646 -2.743353 -1.202976 16.000000
5.888079 -6.441493 -1.130355 10.000000
10.131742 11.488164 -1.899769 6.000000
5.441129 0.013295 -1.041891 39.000000
6.116421 -2.737289 -1.185185 13.000000
5.844102 -6.442887 -1.117393 10.000000
10.139414 11.432348 -1.911464 6.000000
5.450784 -0.002854 -1.044723 40.000000
6.076087 -2.743458 -1.177925 10.000000
5.820165 -6.459412 -1.107651 10.000000
10.137165 11.345770 -1.916674 6.000000
5.450915 -0.023784 -1.043772 36.000000
6.003824 -2.737366 -1.162291 18.000000
5.775198 -6.454673 -1.094159 10.000000
10.078698 11.201388 -1.919592 5.000000
5.455694 -0.044754 -1.044712 29.000000
5.950047 -2.737974 -1.150188 19.000000
5.732368 -6.454252 -1.082866 10.000000
10.021743 11.056319 -1.916896 5.000000
5.455493 -0.064750 -1.044712 44.000000
5.909432 -2.745575 -1.139585 18.000000
5.695391 -6.455609 -1.069238 9.000000
9.903691 10.845926 -1.902336 4.000000
5.465025 -0.085851 -1.046593 29.000000
5.863713 -2.751757 -1.129303 22.000000
5.640734 -6.438822 -1.055605 10.000000
9.939909 10.809570 -1.920279 5.000000
5.469564 -0.106931 -1.047533 31.000000
5.800876 -2.748257 -1.114517 22.000000
5.608169 -6.449186 -1.043329 10.000000
9.853449 10.637032 -1.911476 5.000000
5.464204 -0.127817 -1.046593 35.000000
5.782575 -2.765584 -1.108332 20.000000
5.573475 -6.454655 -1.030487 11.000000
9.777578 10.481501 -1.904922 4.000000
5.468242 -0.147966 -1.049443 34.000000
5.737423 -2.769874 -1.098181 25.000000
5.527748 -6.449334 -1.018876 19.000000
9.695778 10.317735 -1.896696 5.000000
8.882513 3.724747 -1.724369 1.000000
5.472908 -0.169125 -1.048474 28.000000
5.700856 -2.779262 -1.088657 28.000000
5.485571 -6.447804 -1.004961 9.000000
9.691052 10.237258 -1.905954 4.000000
8.949813 3.714456 -1.740017 1.000000
5.486758 -0.190643 -1.052253 24.000000
5.664609 -2.787333 -1.080276 24.000000
5.466912 -6.471508 -0.996680 10.000000
9.680676 10.155059 -1.914387 5.000000
9.140413 3.752485 -1.781380 1.000000
5.490930 -0.210940 -1.053194 25.000000
5.646200 -2.804027 -1.074189 27.000000
5.434250 -6.480880 -0.986071 9.000000
9.668867 10.068521 -1.914669 5.000000
5.490446 -0.232038 -1.051276 23.000000
5.614028 -2.814973 -1.065605 31.000000
5.393402 -6.477958 -0.970828 9.000000
9.603975 9.927855 -1.914253 5.000000
5.504048 -0.253788 -1.055056 30.000000
5.582175 -2.824653 -1.058148 29.000000
5.376489 -6.505991 -0.964607 9.000000
9.609525 9.864452 -1.923185 5.000000
8.955153 3.560068 -1.753050 1.000000
5.493272 -0.273471 -1.053175 27.000000
5.541703 -2.829733 -1.047967 29.000000
5.360793 -6.533308 -0.955419 9.000000
9.519355 9.700503 -1.912523 5.000000
8.907778 3.503480 -1.746428 1.000000
5.506892 -0.295351 -1.055996 26.000000
5.505642 -2.836808 -1.038661 32.000000
5.410874 -6.641484 -0.957872 8.000000
9.462943 9.572581 -1.908505 5.000000
8.764458 3.408312 -1.720839 1.000000
5.515707 -0.317068 -1.056913 20.000000
5.482225 -2.851434 -1.031866 34.000000
5.468368 -6.762520 -0.963211 13.000000
9.420135 9.466284 -1.905419 5.000000
5.514626 -0.335357 -1.056913 19.000000
5.441803 -2.855799 -1.021811 26.000000
5.480776 -6.824024 -0.960100 10.000000
9.394948 9.368749 -1.911941 5.000000
5.517889 -0.358760 -1.058817 26.000000
5.405458 -2.862043 -1.014756 28.000000
9.445376 9.350244 -1.929425 4.000000
5.536067 -0.381294 -1.062579 28.000000
5.373298 -2.871485 -1.006411 33.000000
6.119806 -7.735131 -1.059304 24.000000
9.425688 9.262597 -1.927877 5.000000
7.329466 2.715616 -1.451501 1.000000
5.540084 -0.401978 -1.060611 19.000000
5.354670 -2.886810 -1.000535 30.000000
6.107563 -7.778074 -1.049892 25.000000
7.286751 2.657923 -1.445962 1.000000
5.548110 -0.423982 -1.063457 22.000000
5.357516 -2.913738 -0.999776 7.000000
6.062592 -7.776536 -1.038121 16.000000
7.356745 2.664557 -1.462887 1.000000
5.551336 -0.445675 -1.064396 23.000000
5.317126 -2.917075 -0.989880 9.000000
5.986128 -7.736769 -1.017794 20.000000
7.437683 2.670401 -1.480348 1.000000
5.584272 -0.466961 -1.069988 26.000000
5.311321 -2.939268 -0.986448 8.000000
5.929433 -7.719015 -1.002427 36.000000
7.650928 2.713845 -1.525106 1.000000
5.587330 -0.488828 -1.070926 28.000000
5.258014 -2.934993 -0.974224 8.000000
6.038930 -7.918624 -1.013312 15.000000
7.757442 2.719658 -1.548797 1.000000
5.609874 -0.514488 -1.074632 22.000000
5.247444 -2.955576 -0.968969 5.000000
5.941556 -7.850448 -0.989643 20.000000
7.822772 2.708878 -1.564241 1.000000
5.607764 -0.535028 -1.075615 19.000000
5.279795 -2.999341 -0.974792 1.000000
6.126937 -8.154385 -1.014467 12.000000
7.854851 2.687785 -1.574679 2.000000
5.640262 -0.558002 -1.081190 14.000000
5.157970 -2.955193 -0.950037 8.000000
5.883480 -7.890419 -0.968531 139.000000
5.662492 -0.584163 -1.084881 15.000000
5.139127 -2.969469 -0.944315 83.000000
5.927762 -8.007987 -0.966372 10.000000
9.829895 3.281408 -1.976873 1.000000
5.675175 -0.604498 -1.087689 16.000000
5.197047 -3.028397 -0.952686 9.000000
5.835432 -7.941072 -0.947153 2.000000
9.790458 3.226515 -1.970165 1.000000
5.697032 -0.628958 -1.093370 19.000000
5.207098 -3.061097 -0.953434 8.000000
5.959471 -8.172475 -0.959671 1.000000
9.763881 3.178130 -1.968033 1.000000
5.738683 -0.655870 -1.100794 13.000000
5.179703 -3.070594 -0.944011 9.000000
9.807094 3.150601 -1.983611 1.000000
5.799844 -0.684404 -1.111943 9.000000
5.147496 -3.077053 -0.938045 15.000000
6.138954 -8.543258 -0.972223 8.000000
9.733682 3.087706 -1.970157 1.000000
5.904634 -0.719768 -1.131480 7.000000
5.140974 -3.098787 -0.934628 17.000000
9.744150 3.049897 -1.977286 1.000000
5.126054 -3.115465 -0.928624 27.000000
5.782508 -8.169951 -0.903870 9.000000
9.740205 3.009509 -1.979772 3.000000
5.114877 -3.134401 -0.926530 37.000000
5.734439 -8.156256 -0.889832 17.000000
9.722857 2.963300 -1.977601 1.000000
10.546702 -1.362291 -2.022835 8.000000
5.098104 -3.143739 -0.921868 38.000000
5.727992 -8.216994 -0.879847 23.000000
9.713862 2.921692 -1.979093 1.000000
10.556351 -1.404768 -2.023779 8.000000
5.091426 -3.165436 -0.917397 36.000000
5.745144 -8.303233 -0.876275 16.000000
9.714274 2.881188 -1.984252 1.000000
10.560262 -1.446576 -2.027507 1.000000
5.085632 -3.185265 -0.913964 61.000000
5.806890 -8.455399 -0.879367 15.000000
9.667757 2.827050 -1.977996 2.000000
10.579560 -1.488743 -2.030313 6.000000
5.077387 -3.208551 -0.911572 33.000000
5.921056 -8.686456 -0.888306 25.000000
9.682104 2.792765 -1.982477 4.000000
10.526031 -1.518700 -2.019123 5.000000
5.067255 -3.225711 -0.907379 32.000000
5.951385 -8.793464 -0.886028 27.000000
9.644903 2.741964 -1.976326 1.000000
10.568866 -1.570100 -2.024719 6.000000
5.059090 -3.249125 -0.902879 36.000000
5.940478 -8.850369 -0.874472 39.000000
9.658613 2.707639 -1.982545 5.000000
10.588235 -1.608882 -2.027505 37.000000
5.048816 -3.266226 -0.898681 33.000000
5.924207 -8.886333 -0.864924 26.000000
9.639238 2.662330 -1.983710 1.000000
10.445720 -1.628286 -2.003309 46.000000
5.037204 -3.284965 -0.895533 32.000000
5.830147 -8.818420 -0.843130 15.000000
9.573008 2.604517 -1.971607 1.000000
10.429450 -1.670527 -1.999603 36.000000
5.033022 -3.311110 -0.890697 33.000000
5.809283 -8.857257 -0.831779 18.000000
9.558142 2.562885 -1.970188 1.000000
10.448186 -1.712829 -2.000558 41.000000
5.026525 -3.330771 -0.888271 34.000000
5.833269 -8.961886 -0.826544 17.000000
9.561840 2.524562 -1.976117 1.000000
10.436954 -1.748420 -2.001477 22.000000
5.023026 -3.355011 -0.885512 29.000000
5.848326 -9.053988 -0.823689 23.000000
9.546636 2.483154 -1.974662 5.000000
10.463778 -1.798006 -2.006128 7.000000
5.014260 -3.378342 -0.880961 29.000000
5.809153 -9.062595 -0.809395 148.000000
9.478779 2.426684 -1.965790 3.000000
10.573254 -1.856740 -2.028408 3.000000
4.998132 -3.394177 -0.877077 25.000000
5.735190 -9.016329 -0.790343 39.000000
9.482609 2.388906 -1.968219 4.000000
10.533203 -1.887632 -2.020042 4.000000
4.999136 -3.420418 -0.873946 29.000000
5.673272 -8.991591 -0.775153 23.000000
9.419275 2.336270 -1.956808 1.000000
10.550736 -1.932616 -2.020935 5.000000
4.999290 -3.447492 -0.871849 30.000000
5.565600 -8.889550 -0.751796 21.000000
9.436369 2.302084 -1.965566 3.000000
10.581873 -1.978432 -2.030220 8.000000
4.986995 -3.466052 -0.868669 29.000000
5.437701 -8.753049 -0.724181 140.000000
9.420647 2.259958 -1.963989 1.000000
10.555587 -2.015495 -2.022763 6.000000
4.982986 -3.490421 -0.864776 28.000000
5.438851 -8.823464 -0.719343 185.000000
9.389379 2.216095 -1.962777 2.000000
10.552247 -2.056884 -2.025564 5.000000
4.978617 -3.514631 -0.862993 27.000000
5.460594 -8.928358 -0.711654 20.000000
9.349426 2.168800 -1.956159 6.000000
10.521233 -2.090894 -2.017191 5.000000
4.982452 -3.544772 -0.860461 24.000000
5.880999 -9.695400 -0.759140 25.000000
9.322918 2.124961 -1.955845 6.000000
10.532044 -2.135113 -2.022763 2.000000
4.969791 -3.563271 -0.857259 24.000000
5.649436 -9.387388 -0.721951 7.000000
9.305413 2.085123 -1.957494 6.000000
10.538203 -2.178521 -2.025537 5.000000
4.972349 -3.576944 -0.857579 28.000000
9.245387 2.034422 -1.948375 6.000000
10.544574 -2.220168 -2.028312 4.000000
4.970967 -3.604995 -0.856443 21.000000
5.828717 -9.840137 -0.727564 9.000000
9.256585 1.999654 -1.955995 4.000000
10.482779 -2.249227 -2.020009 6.000000
4.974951 -3.634451 -0.853830 23.000000
5.775302 -9.831966 -0.713401 17.000000
9.215287 1.955408 -1.949170 7.000000
10.508356 -2.296957 -2.022735 3.000000
4.989877 -3.673480 -0.855390 21.000000
5.696154 -9.775196 -0.693960 17.000000
9.173465 1.909754 -1.945581 7.000000
10.538240 -2.343992 -2.030128 6.000000
4.988028 -3.701735 -0.854189 20.000000
4.481091 -7.745858 -0.541053 66.000000
9.150954 1.868437 -1.944372 1.000000
10.500406 -2.377926 -2.024583 5.000000
4.990653 -3.732126 -0.853651 12.000000
4.704885 -8.205228 -0.560277 101.000000
9.122149 1.827753 -1.946983 4.000000
10.490510 -2.418068 -2.028341 6.000000
4.989046 -3.759516 -0.853506 17.000000
4.519903 -7.943551 -0.533379 22.000000
9.017736 1.806832 -1.943135 5.000000
10.353024 -2.386378 -2.020966 4.000000
4.989666 -3.747709 -0.864811 22.000000
9.001809 1.839621 -1.937861 4.000000
10.274106 -2.328563 -2.011503 6.000000
4.997898 -3.726675 -0.871743 24.000000
4.541975 -7.917912 -0.555103 255.000000
9.003927 1.876099 -1.941530 3.000000
10.248046 -2.281322 -2.012269 3.000000
4.998847 -3.698952 -0.876178 28.000000
4.457879 -7.711945 -0.555741 10.000000
8.977180 1.909796 -1.935797 8.000000
10.206998 -2.232951 -2.010152 8.000000
4.995543 -3.668249 -0.880960 24.000000
8.950665 1.938473 -1.933268 5.000000
10.185666 -2.187337 -2.009939 8.000000
4.992715 -3.636748 -0.885693 27.000000
5.109661 -8.698768 -0.659465 10.000000
8.986842 1.979174 -1.942563 5.000000
10.139404 -2.138556 -2.006755 4.000000
4.987956 -3.608025 -0.889301 24.000000
5.126812 -8.658614 -0.671885 9.000000
8.984612 2.014886 -1.940381 8.000000
10.118014 -2.093498 -2.004658 6.000000
4.996494 -3.586380 -0.893954 27.000000
5.225606 -8.755610 -0.693337 7.000000
8.981580 2.050458 -1.941412 1.000000
10.066874 -2.044469 -1.998609 6.000000
4.996229 -3.541456 -0.901048 27.000000
5.240142 -8.710727 -0.707270 11.000000
8.992702 2.089359 -1.945536 4.000000
10.049213 -2.000736 -2.000988 5.000000
5.004355 -3.519730 -0.906727 23.000000
5.257070 -8.670206 -0.719693 9.000000
8.995168 2.124710 -1.944372 7.000000
10.046845 -1.960189 -2.000858 9.000000
5.008460 -3.495250 -0.910591 28.000000
5.351853 -8.757429 -0.741083 123.000000
8.987602 2.159392 -1.941146 3.000000
10.048457 -1.922299 -2.003470 1.000000
5.007518 -3.468663 -0.915822 25.000000
5.311167 -8.623057 -0.747269 8.000000
8.993505 2.197370 -1.944229 3.000000
10.102610 -1.892477 -2.020256 7.000000
5.007447 -3.441523 -0.917834 29.000000
5.422267 -8.735005 -0.771236 16.000000
9.009406 2.237948 -1.946126 2.000000
9.940245 -1.824376 -1.988268 11.000000
5.015013 -3.419727 -0.924504 31.000000
5.478589 -8.757368 -0.789401 8.000000
9.035018 2.279501 -1.950055 1.000000
9.903036 -1.778269 -1.983094 40.000000
5.022749 -3.398101 -0.929044 32.000000
5.120452 -8.121705 -0.745507 3.000000
9.031270 2.315476 -1.949452 3.000000
9.894273 -1.737506 -1.985453 41.000000
5.016772 -3.369860 -0.932344 30.000000
5.212167 -8.209893 -0.768763 10.000000
9.018233 2.349074 -1.945176 1.000000
9.866395 -1.695357 -1.980414 36.000000
5.021355 -3.343765 -0.936084 31.000000
9.019267 2.386362 -1.943963 4.000000
9.838291 -1.651661 -1.977105 35.000000
5.028908 -3.322254 -0.939526 29.000000
5.752008 -8.915114 -0.866680 17.000000
9.043551 2.428288 -1.951102 1.000000
9.930080 -1.631452 -1.999870 15.000000
5.030811 -3.299600 -0.944286 28.000000
5.730544 -8.820892 -0.872205 20.000000
9.044264 2.465749 -1.949870 1.000000
9.921677 -1.589195 -1.998700 4.000000
5.039183 -3.276236 -0.948757 32.000000
5.736395 -8.756121 -0.882690 29.000000
9.082238 2.513607 -1.958407 1.000000
9.891873 -1.549026 -1.998863 5.000000
5.049182 -3.258967 -0.955050 33.000000
5.779963 -8.755794 -0.899440 10.000000
9.083707 2.549894 -1.953856 1.000000
9.882862 -1.508760 -1.997671 1.000000
5.077304 -3.250818 -0.961346 9.000000
9.078557 2.586095 -1.954869 1.000000
9.893345 -1.469745 -2.000396 5.000000
5.130999 -3.256231 -0.976645 7.000000
5.921572 -8.832193 -0.939667 34.000000
9.078950 2.623938 -1.951949 1.000000
9.850046 -1.424678 -1.992328 5.000000
5.117257 -3.221262 -0.976106 6.000000
5.926629 -8.773371 -0.948642 19.000000
9.121619 2.672534 -1.959757 1.000000
9.883190 -1.390751 -2.005184 4.000000
5.157609 -3.220329 -0.986991 3.000000
5.841689 -8.582890 -0.943033 28.000000
9.068428 2.698246 -1.949018 3.000000
9.868448 -1.351809 -2.002984 4.000000
5.055225 -3.130709 -0.971588 1.000000
5.687838 -8.294450 -0.927677 17.000000
9.100850 2.745975 -1.954780 5.000000
9.839207 -1.309335 -1.997816 1.000000
5.133354 -3.153123 -0.988694 1.000000
5.645364 -8.171210 -0.928330 78.000000
9.129662 2.789475 -1.957838 5.000000
9.823679 -1.268900 -1.999056 4.000000
5.152415 -3.138880 -0.996632 5.000000
5.704387 -8.195323 -0.947392 10.000000
9.109685 2.823404 -1.952500 2.000000
5.162029 -3.111478 -1.002130 8.000000
5.790883 -8.254896 -0.969158 15.000000
9.104774 2.856754 -1.951838 1.000000
5.189729 -3.102299 -1.009631 7.000000
5.824719 -8.241787 -0.982445 19.000000
9.127065 2.902290 -1.955508 2.000000
5.755147 -0.655716 -1.173210 7.000000
5.191973 -3.077868 -1.012198 6.000000
5.919130 -8.313651 -1.006056 7.000000
9.122004 2.937538 -1.951491 4.000000
5.698967 -0.627158 -1.162300 11.000000
5.202456 -3.058368 -1.017465 8.000000
5.938694 -8.279803 -1.017034 9.000000
4.235862 3.884173 -0.949368 1.000000
9.111627 2.972859 -1.946473 1.000000
5.666621 -0.601586 -1.158330 25.000000
5.190510 -3.028230 -1.018553 9.000000
4.238957 3.918452 -0.948405 1.000000
9.133885 3.017207 -1.950081 1.000000
5.644417 -0.576325 -1.154340 32.000000
5.176250 -2.992124 -1.018758 27.000000
5.934824 -8.150621 -1.031245 6.000000
4.262790 3.966779 -0.950414 1.000000
9.090668 3.041695 -1.938108 1.000000
5.622015 -0.554215 -1.149356 14.000000
5.173735 -2.965425 -1.020401 7.000000
5.788939 -7.892228 -1.013187 7.000000
4.223050 3.960163 -0.938714 1.000000
7.937374 2.689741 -1.692896 1.000000
5.603992 -0.530720 -1.148316 19.000000
5.209342 -2.960521 -1.031737 10.000000
5.907213 -7.994807 -1.043027 10.000000
7.928299 2.719102 -1.688507 1.000000
5.576516 -0.506521 -1.143297 31.000000
5.232920 -2.947396 -1.038475 12.000000
7.821113 2.715949 -1.664881 1.000000
5.587897 -0.486912 -1.146277 32.000000
5.251656 -2.932646 -1.044379 7.000000
