VERSION .7
FIELDS x y z intensity
SIZE 4 4 4 4
TYPE F F F F
COUNT 1 1 1 1
WIDTH 1253
HEIGHT 1
VIEWPOINT 0 0 0 1 0 0 0
POINTS 1253
DATA ascii
10.011552 -3.665689 -1.660022 1.000000
2.901381 -2.832328 -0.497129 8.000000
4.726400 2.481416 -0.708474 6.000000
14.136861 0.946404 -2.211129 6.000000
9.975695 -3.694080 -1.650606 1.000000
2.902464 -2.853240 -0.494692 8.000000
4.739420 2.466135 -0.712862 6.000000
14.109955 0.897613 -2.208970 6.000000
6.293152 -2.386774 -1.037135 1.000000
2.903878 -2.873627 -0.492937 7.000000
4.774522 2.462204 -0.719643 6.000000
14.113297 0.843428 -2.208970 6.000000
6.243337 -2.394093 -1.026781 1.000000
2.861986 -2.853009 -0.484020 8.000000
4.836447 2.470675 -0.731401 6.000000
14.174321 0.794949 -2.225666 6.000000
6.165896 -2.390356 -1.011935 1.000000
2.848363 -2.860319 -0.479199 8.000000
4.831750 2.445988 -0.733180 5.000000
14.093408 0.736138 -2.212501 6.000000
6.111148 -2.396163 -1.000935 3.000000
2.841200 -2.875122 -0.475555 8.000000
4.893482 2.454747 -0.744096 5.000000
14.081594 0.683778 -2.207717 6.000000
6.094301 -2.412904 -0.997140 4.000000
2.838956 -2.891970 -0.472480 7.000000
4.959413 2.465111 -0.758650 5.000000
14.132691 0.631875 -2.220391 6.000000
6.034570 -2.417322 -0.985464 5.000000
2.818225 -2.891979 -0.467220 8.000000
4.968058 2.446742 -0.761550 4.000000
14.114784 0.579246 -2.219755 29.000000
6.011974 -2.435100 -0.979820 4.000000
2.806988 -2.903677 -0.462286 7.000000
5.042665 2.462742 -0.773726 5.000000
13.894786 0.516784 -2.184829 255.000000
5.944846 -2.430890 -0.966748 5.000000
2.801571 -2.916353 -0.459325 7.000000
5.105962 2.467219 -0.785880 3.000000
13.833168 0.463728 -2.169908 255.000000
5.913514 -2.443414 -0.959677 5.000000
2.767191 -2.901778 -0.451177 7.000000
5.132466 2.456863 -0.791605 6.000000
13.859535 0.411341 -2.173780 37.000000
5.821568 -2.434021 -0.943024 3.000000
2.772918 -2.931254 -0.449747 7.000000
5.176604 2.454711 -0.802117 6.000000
13.864746 0.360640 -2.181817 62.000000
5.790433 -2.445975 -0.934941 5.000000
2.776601 -2.955746 -0.447716 1.000000
5.198502 2.441798 -0.808206 38.000000
13.861197 0.302452 -2.181040 37.000000
5.736388 -2.447960 -0.924319 5.000000
5.269020 2.453626 -0.821004 3.000000
13.852248 0.256303 -2.179486 23.000000
5.755792 -2.478836 -0.926530 3.000000
5.349512 2.467291 -0.835278 6.000000
13.902517 0.203836 -2.187256 5.000000
5.674251 -2.469590 -0.910509 6.000000
5.332247 2.432293 -0.835158 4.000000
14.071095 0.154726 -2.213674 4.000000
5.615491 -2.468536 -0.901433 5.000000
5.426431 2.451268 -0.851678 4.000000
14.140733 0.101191 -2.224552 6.000000
5.593557 -2.483397 -0.893911 6.000000
5.483535 2.455201 -0.864709 6.000000
14.125415 0.049307 -2.227152 5.000000
5.570580 -2.498845 -0.890678 4.000000
5.514703 2.444932 -0.871429 1.000000
14.066234 0.000000 -2.217807 6.000000
5.471804 -2.478667 -0.872049 5.000000
5.560022 2.439522 -0.879268 1.000000
14.135673 -0.051810 -2.226242 6.000000
5.481097 -2.507128 -0.871766 5.000000
5.672596 2.464161 -0.901147 2.000000
14.130042 -0.106047 -2.227931 6.000000
5.455193 -2.517188 -0.865758 5.000000
5.739377 2.470579 -0.913791 2.000000
14.090049 -0.157394 -2.221701 6.000000
5.387580 -2.511125 -0.853375 6.000000
5.730601 2.439581 -0.914158 1.000000
14.109095 -0.211791 -2.224816 6.000000
5.347528 -2.516356 -0.844275 6.000000
5.912717 2.490336 -0.945109 1.000000
14.173200 -0.264716 -2.229991 6.000000
5.321046 -2.527757 -0.836306 4.000000
5.962743 2.485714 -0.952795 1.000000
14.132573 -0.318245 -2.223775 6.000000
5.298748 -2.541009 -0.831121 2.000000
3.065510 3.221354 -0.501152 1.000000
5.855898 2.418411 -0.940085 1.000000
14.160288 -0.365854 -2.233382 6.000000
5.217918 -2.526936 -0.817894 4.000000
2.918787 3.044747 -0.479811 1.000000
6.098608 2.490038 -0.980962 2.000000
14.173442 -0.425610 -2.235718 6.000000
5.106819 -2.496281 -0.797862 1.000000
2.846762 2.947908 -0.470540 1.000000
6.148915 2.483075 -0.991062 1.000000
14.117877 -0.475739 -2.224686 6.000000
2.919017 3.001691 -0.485191 6.000000
6.253046 2.501040 -1.010108 3.000000
14.106258 -0.524649 -2.223131 6.000000
4.969557 -2.474482 -0.772315 1.000000
2.940128 3.001312 -0.490584 6.000000
6.331513 2.502989 -1.024798 3.000000
14.079365 -0.580254 -2.219241 6.000000
2.929819 2.968941 -0.491473 8.000000
6.376543 2.495089 -1.034337 4.000000
14.161134 -0.633147 -2.232465 6.000000
2.922815 2.940211 -0.492889 7.000000
6.398970 2.476859 -1.040170 2.000000
14.119639 -0.683155 -2.223775 6.000000
2.931670 2.930647 -0.497231 7.000000
6.522558 2.497247 -1.065001 1.000000
14.135865 -0.738355 -2.231824 6.000000
2.952591 2.930003 -0.503373 7.000000
6.476105 2.450992 -1.059582 1.000000
14.074276 -0.786874 -2.220019 6.000000
2.903808 -3.621953 -0.406146 1.000000
2.921509 2.875974 -0.500458 8.000000
6.582583 2.461127 -1.079144 2.000000
14.169460 -0.851749 -2.235577 6.000000
2.843713 -3.575037 -0.393231 1.000000
2.934639 2.868798 -0.506079 8.000000
6.729392 2.490613 -1.104416 1.000000
14.063045 -0.892165 -2.219241 6.000000
2.951001 2.865718 -0.510174 8.000000
6.812613 2.491714 -1.120384 1.000000
14.133823 -0.951157 -2.228437 6.000000
2.877558 -3.669886 -0.392426 1.000000
2.926236 2.818932 -0.509694 7.000000
6.793757 2.453943 -1.122109 1.000000
14.129466 -1.002898 -2.233382 6.000000
2.880286 -3.699890 -0.389613 1.000000
2.954151 2.825022 -0.516373 7.000000
6.923120 2.472022 -1.145913 1.000000
14.146378 -1.058706 -2.229069 7.000000
2.951636 -3.821728 -0.395307 2.000000
2.963601 2.814319 -0.520653 8.000000
14.087655 -1.108723 -2.222998 6.000000
2.961763 2.793954 -0.522311 8.000000
14.039194 -1.156699 -2.216005 6.000000
3.001451 2.808708 -0.532423 7.000000
13.042609 4.557237 -2.168447 5.000000
14.093314 -1.215657 -2.227798 150.000000
8.816158 -11.572862 -1.165425 8.000000
2.956828 2.746693 -0.527016 8.000000
12.876849 4.443913 -2.145345 5.000000
13.991529 -1.258557 -2.204885 87.000000
8.779568 -11.608668 -1.148043 7.000000
2.973825 2.742245 -0.531841 8.000000
12.873287 4.389947 -2.149355 5.000000
13.848132 -1.299280 -2.188033 57.000000
8.778619 -11.692022 -1.137844 7.000000
2.975655 2.724776 -0.534763 8.000000
12.871016 4.331575 -2.153344 5.000000
13.853490 -1.351023 -2.187158 101.000000
8.745466 -11.737218 -1.121126 8.000000
2.987925 2.717849 -0.539650 8.000000
12.912740 4.295497 -2.167543 5.000000
13.824007 -1.401754 -2.180852 10.000000
8.719846 -11.788498 -1.110240 7.000000
2.961600 2.672258 -0.537206 8.000000
12.815100 4.210912 -2.153377 5.000000
13.852785 -1.455986 -2.188710 6.000000
4.497460 -2.624946 -0.667089 1.000000
8.683165 -11.829348 -1.095629 7.000000
2.984853 2.675336 -0.543373 8.000000
12.853580 4.168942 -2.164393 5.000000
14.034453 -1.529586 -2.213275 6.000000
4.535229 -2.669322 -0.670404 2.000000
8.660221 -11.884840 -1.079897 6.000000
3.001614 2.670584 -0.548924 6.000000
12.774023 4.091455 -2.153260 5.000000
14.009501 -1.578845 -2.207717 6.000000
4.440044 -2.636305 -0.654162 1.000000
8.642723 -11.948232 -1.067385 4.000000
3.004522 2.651640 -0.551068 7.000000
12.717257 4.021940 -2.148356 5.000000
14.076549 -1.641162 -2.221794 6.000000
4.332849 -2.594184 -0.636183 1.000000
8.617076 -12.005190 -1.051497 4.000000
3.001159 2.631946 -0.553901 8.000000
12.712326 3.966752 -2.154473 5.000000
14.110651 -1.692585 -2.225509 6.000000
4.362011 -2.633410 -0.637362 1.000000
8.622060 -12.101080 -1.041616 3.000000
3.014154 2.623861 -0.558076 10.000000
12.645873 3.895211 -2.145517 5.000000
14.060311 -1.741337 -2.216074 6.000000
4.311148 -2.622250 -0.628514 3.000000
8.629460 -12.201366 -1.029303 5.000000
3.028662 2.621660 -0.562256 8.000000
12.418839 3.773132 -2.111499 7.000000
14.053592 -1.797814 -2.213601 6.000000
4.295073 -2.629962 -0.625520 2.000000
8.556540 -12.192810 -1.012868 5.000000
3.052898 2.623127 -0.568549 8.000000
12.365700 3.707536 -2.104766 46.000000
14.209249 -1.868160 -2.236571 6.000000
8.577361 -12.313670 -1.001998 6.000000
3.061581 2.612066 -0.572764 9.000000
12.364944 3.655622 -2.106853 141.000000
14.099113 -1.906275 -2.222863 6.000000
8.535601 -12.349986 -0.986610 7.000000
3.044312 2.578112 -0.571313 8.000000
12.320356 3.593390 -2.103898 137.000000
14.121431 -1.964535 -2.225006 7.000000
4.317535 -2.709435 -0.621351 1.000000
8.507227 -12.401263 -0.969877 6.000000
3.098739 2.604763 -0.584059 7.000000
12.308323 3.540982 -2.108795 114.000000
14.187109 -2.026704 -2.239072 77.000000
8.475593 -12.448075 -0.958023 7.000000
3.107794 2.592994 -0.588298 5.000000
12.302135 3.488111 -2.110009 65.000000
14.072842 -2.065549 -2.214644 40.000000
8.530626 -12.623398 -0.947861 4.000000
3.101560 2.568570 -0.589638 1.000000
12.337169 3.449242 -2.123024 43.000000
13.961848 -2.106546 -2.198490 210.000000
8.429267 -12.572493 -0.925801 6.000000
12.463734 3.433084 -2.147156 9.000000
13.979202 -2.159098 -2.199868 160.000000
8.438394 -12.681587 -0.915650 3.000000
12.479906 3.388376 -2.154747 5.000000
13.975695 -2.211032 -2.203106 190.000000
8.428129 -12.767377 -0.903530 5.000000
12.377031 3.309470 -2.143968 5.000000
13.962605 -2.263949 -2.199868 14.000000
8.348548 -12.743351 -0.881086 4.000000
12.350206 3.253843 -2.141825 5.000000
13.720634 -2.276357 -2.160558 5.000000
8.377981 -12.886183 -0.872785 6.000000
12.327750 3.197357 -2.144928 5.000000
13.482858 -2.290138 -2.124485 1.000000
8.368625 -12.970644 -0.860306 6.000000
12.367321 3.159288 -2.154366 5.000000
13.503946 -2.344674 -2.126698 5.000000
8.297367 -12.964259 -0.838998 5.000000
3.225293 2.534411 -0.629880 8.000000
12.297350 3.091162 -2.144646 5.000000
13.494478 -2.396444 -2.129090 4.000000
8.244422 -12.981112 -0.824762 5.000000
3.234213 2.522302 -0.632744 40.000000
12.255230 3.032863 -2.139881 5.000000
13.442579 -2.438084 -2.117414 2.000000
8.247584 -13.086809 -0.807984 7.000000
3.199066 2.477875 -0.628596 39.000000
12.192817 2.972289 -2.133919 1.000000
13.301585 -2.465303 -2.099098 6.000000
8.173174 -13.069658 -0.788973 7.000000
3.216211 2.470562 -0.635086 40.000000
12.193612 2.920676 -2.140996 1.000000
8.128280 -13.104465 -0.773081 7.000000
3.267920 2.491291 -0.647899 22.000000
12.155311 2.862196 -2.141299 1.000000
8.122100 -13.197123 -0.763313 9.000000
3.264762 2.470016 -0.649135 7.000000
12.107381 2.804114 -2.135497 1.000000
8.068655 -13.213393 -0.743661 9.000000
3.296846 2.475342 -0.658871 7.000000
12.097385 2.752900 -2.140772 1.000000
8.040998 -13.272038 -0.729090 10.000000
3.291688 2.465187 -0.659446 7.000000
12.000524 2.684634 -2.128507 1.000000
8.041631 -13.383520 -0.714474 12.000000
3.359666 2.496928 -0.674974 8.000000
12.034077 2.643662 -2.137072 1.000000
11.435155 -2.384763 -1.806254 1.000000
7.992623 -13.407749 -0.700624 17.000000
3.380141 2.492965 -0.681761 7.000000
11.998889 2.589868 -2.137952 3.000000
11.280915 -2.397832 -1.783332 1.000000
7.969087 -13.474990 -0.683516 19.000000
3.396641 2.485965 -0.687771 6.000000
11.930553 2.527213 -2.130611 1.000000
11.131995 -2.408856 -1.761174 1.000000
7.950107 -13.550630 -0.672205 10.000000
3.393072 2.464306 -0.690476 7.000000
11.851486 2.465113 -2.123573 1.000000
11.025856 -2.430245 -1.747863 5.000000
7.918380 -13.610603 -0.654464 10.000000
3.433507 2.474502 -0.701407 6.000000
11.840474 2.415428 -2.126445 1.000000
10.834085 -2.427662 -1.718796 1.000000
7.898573 -13.686246 -0.642958 17.000000
3.445765 2.464197 -0.708140 7.000000
11.721538 2.346450 -2.116435 1.000000
10.665558 -2.430987 -1.697372 1.000000
7.885722 -13.774820 -0.634723 16.000000
3.456978 2.481347 -0.715151 6.000000
11.583128 2.318743 -2.110586 1.000000
10.662229 -2.432186 -1.716461 1.000000
7.880615 -13.771474 -0.645601 13.000000
3.391797 2.454350 -0.701358 6.000000
11.589020 2.364132 -2.113225 1.000000
10.834180 -2.427683 -1.750573 1.000000
7.890619 -13.677979 -0.670113 10.000000
3.387159 2.469959 -0.699257 6.000000
11.584313 2.409541 -2.116169 1.000000
11.039002 -2.435162 -1.788419 1.000000
7.912726 -13.606348 -0.689971 10.000000
3.370428 2.476732 -0.695422 7.000000
11.522014 2.442775 -2.106486 1.000000
11.250172 -2.434428 -1.829271 1.000000
7.944197 -13.540555 -0.710139 9.000000
3.341464 2.475262 -0.688419 7.000000
11.551471 2.493296 -2.113528 1.000000
11.272673 -2.394024 -1.839671 1.000000
7.965856 -13.480266 -0.730195 8.000000
3.308938 2.470002 -0.681357 7.000000
11.512969 2.531291 -2.108247 1.000000
11.632395 -2.430134 -1.903432 1.000000
8.004733 -13.438729 -0.748607 7.000000
3.308127 2.488330 -0.680096 7.000000
11.517575 2.578705 -2.110888 1.000000
8.038196 -13.388387 -0.769217 7.000000
3.282620 2.498876 -0.672624 7.000000
11.537559 2.627623 -2.112039 1.000000
8.107087 -13.386393 -0.792791 5.000000
3.277820 2.514251 -0.669824 7.000000
11.575697 2.683103 -2.118750 6.000000
13.346647 -2.633026 -2.196040 6.000000
8.179792 -13.411175 -0.815020 5.000000
3.265046 2.523515 -0.666143 7.000000
11.566504 2.725681 -2.114602 1.000000
13.268300 -2.564680 -2.188773 6.000000
8.152815 -13.262583 -0.826786 5.000000
3.213387 2.502455 -0.653824 38.000000
11.546378 2.767778 -2.112850 1.000000
13.305954 -2.521403 -2.198297 7.000000
8.227368 -13.279735 -0.851516 5.000000
11.536382 2.812267 -2.108706 1.000000
13.242373 -2.456719 -2.188631 6.000000
8.222105 -13.158118 -0.867466 3.000000
11.573783 2.866366 -2.117448 1.000000
13.191520 -2.397305 -2.188368 10.000000
8.244222 -13.101742 -0.884425 6.000000
3.190337 2.542258 -0.644650 9.000000
11.577731 2.914571 -2.115904 1.000000
13.200253 -2.346569 -2.190708 31.000000
8.307644 -13.095804 -0.905084 4.000000
11.524042 2.946011 -2.108051 1.000000
13.139198 -2.286069 -2.188731 26.000000
8.269280 -12.935286 -0.917491 5.000000
11.589960 3.010320 -2.115742 1.000000
13.171824 -2.239672 -2.195112 19.000000
8.327283 -12.926367 -0.937769 7.000000
11.602836 3.061269 -2.115903 1.000000
13.110675 -2.179863 -2.190722 10.000000
8.330007 -12.822186 -0.951276 4.000000
11.511385 3.082313 -2.096983 1.000000
13.118194 -2.129383 -2.195362 9.000000
8.368512 -12.783557 -0.971990 6.000000
11.608758 3.156206 -2.116913 1.000000
13.062193 -2.071185 -2.187076 8.000000
8.377862 -12.710521 -0.984440 6.000000
11.597824 3.198929 -2.112714 7.000000
13.010422 -2.011795 -2.184180 6.000000
8.395457 -12.631395 -1.002069 3.000000
11.638333 3.258241 -2.118008 1.000000
12.953926 -1.954472 -2.175828 6.000000
8.442162 -12.610750 -1.021270 5.000000
11.631406 3.302322 -2.116761 1.000000
12.941440 -1.901795 -2.174834 6.000000
8.467489 -12.544122 -1.037075 6.000000
2.969115 2.530491 -0.586513 1.000000
11.643014 3.353980 -2.116843 1.000000
12.962218 -1.856339 -2.181866 7.000000
4.316702 -2.698423 -0.672918 1.000000
8.462820 -12.443316 -1.049650 6.000000
3.012733 2.586789 -0.593455 3.000000
11.626623 3.395458 -2.111754 22.000000
12.914389 -1.798912 -2.179653 6.000000
8.516644 -12.428935 -1.072080 5.000000
3.048588 2.637046 -0.598103 7.000000
11.600389 3.436192 -2.102844 48.000000
12.837443 -1.740254 -2.167900 6.000000
8.505395 -12.320068 -1.083628 5.000000
3.028028 2.638727 -0.593097 9.000000
11.484615 3.447735 -2.079822 62.000000
12.858323 -1.692830 -2.172640 6.000000
8.538448 -12.271501 -1.097841 6.000000
2.992701 2.627302 -0.584509 21.000000
11.471292 3.491807 -2.079822 59.000000
12.820043 -1.640011 -2.167460 6.000000
4.332668 -2.620857 -0.686437 1.000000
8.564851 -12.227332 -1.112010 5.000000
2.969710 2.632001 -0.577483 38.000000
11.477670 3.541959 -2.076950 42.000000
12.806296 -1.588300 -2.166405 6.000000
4.340204 -2.597558 -0.690180 1.000000
8.590700 -12.164568 -1.130204 5.000000
2.993640 2.672865 -0.580462 8.000000
11.484114 3.590100 -2.076158 51.000000
12.654254 -1.522370 -2.146589 14.000000
4.395927 -2.609073 -0.702969 1.000000
8.630185 -12.134878 -1.148398 4.000000
2.991483 2.690709 -0.579084 7.000000
11.475286 3.635767 -2.074907 42.000000
12.591071 -1.465745 -2.137175 157.000000
4.422110 -2.602743 -0.709276 1.000000
8.617802 -12.019482 -1.158778 5.000000
2.941701 2.665501 -0.567093 8.000000
11.471955 3.681034 -2.072400 36.000000
12.566593 -1.416232 -2.134395 158.000000
4.478240 -2.613727 -0.720427 1.000000
8.608133 -11.926693 -1.167933 6.000000
2.939662 2.683339 -0.564339 8.000000
11.486888 3.734533 -2.071162 1.000000
12.571197 -1.367889 -2.138809 102.000000
4.482849 -2.594437 -0.725163 2.000000
8.649842 -11.888024 -1.190632 8.000000
2.959324 2.721238 -0.566446 8.000000
11.633319 3.829341 -2.093481 1.000000
12.644394 -1.328979 -2.152702 33.000000
4.680839 -2.686169 -0.759435 1.000000
8.679639 -11.846203 -1.204801 6.000000
2.931457 2.715510 -0.560169 8.000000
11.768145 3.923867 -2.120439 1.000000
12.756177 -1.291227 -2.177779 7.000000
2.940494 2.743015 -0.559429 8.000000
11.717373 3.954719 -2.107224 1.000000
12.710952 -1.244080 -2.171635 6.000000
4.643196 -2.619511 -0.759684 1.000000
2.923486 2.747257 -0.555250 8.000000
11.772412 4.023713 -2.117651 1.000000
12.789289 -1.197684 -2.186450 7.000000
4.609105 -2.578054 -0.756317 1.000000
2.910291 2.755013 -0.549669 7.000000
11.786933 4.076984 -2.113978 1.000000
12.817936 -1.155246 -2.190644 6.000000
4.605076 -2.553686 -0.757867 1.000000
2.907690 2.772829 -0.547522 8.000000
11.734317 4.109300 -2.105124 1.000000
12.777892 -1.099945 -2.185332 6.000000
4.631846 -2.545327 -0.763483 4.000000
2.913120 2.796511 -0.546699 8.000000
12.760865 -1.053619 -2.188677 6.000000
4.669967 -2.546148 -0.774058 4.000000
2.811854 -3.642054 -0.416313 1.000000
2.923647 2.829256 -0.546463 7.000000
7.063636 2.565370 -1.260286 4.000000
12.750660 -1.005738 -2.181685 6.000000
4.710385 -2.543709 -0.780967 6.000000
2.859140 -3.674050 -0.426958 1.000000
2.899964 2.826006 -0.539561 7.000000
7.096260 2.606698 -1.265090 4.000000
12.758964 -0.957112 -2.184759 6.000000
4.732038 -2.533045 -0.788753 7.000000
2.914682 2.861252 -0.540619 7.000000
12.682970 -0.904677 -2.175732 6.000000
4.767018 -2.529335 -0.796883 7.000000
2.804533 -3.551154 -0.425353 1.000000
2.886885 2.854817 -0.533796 8.000000
6.634124 2.493603 -1.180919 1.000000
12.735441 -0.854818 -2.186393 6.000000
4.789020 -2.518558 -0.801907 7.000000
2.888273 2.875196 -0.532195 7.000000
6.500597 2.471942 -1.155090 1.000000
12.713614 -0.811012 -2.182172 6.000000
4.836058 -2.522859 -0.814217 7.000000
2.891100 2.901209 -0.530496 7.000000
6.390763 2.457024 -1.133482 1.000000
12.685979 -0.760352 -2.183762 6.000000
4.854427 -2.507703 -0.819508 7.000000
2.885850 2.914195 -0.526844 7.000000
6.386865 2.482433 -1.130711 3.000000
12.678965 -0.711084 -2.182068 6.000000
4.880371 -2.499562 -0.825346 7.000000
2.877989 2.929686 -0.523180 7.000000
6.336511 2.490909 -1.119820 1.000000
12.656732 -0.658881 -2.180047 6.000000
4.938352 -2.504285 -0.837398 7.000000
2.878003 2.951259 -0.520760 8.000000
6.295785 2.501579 -1.110593 1.000000
12.678857 -0.611227 -2.183437 6.000000
4.982309 -2.503662 -0.847272 7.000000
2.892679 2.986056 -0.521518 8.000000
6.223005 2.499109 -1.095757 2.000000
12.705046 -0.570267 -2.189895 6.000000
4.982205 -2.480779 -0.848684 7.000000
2.875735 2.989375 -0.515930 6.000000
6.159897 2.498771 -1.082601 3.000000
12.677602 -0.520267 -2.184804 6.000000
5.043050 -2.490241 -0.861656 7.000000
2.858277 2.993106 -0.510362 7.000000
6.045324 2.480601 -1.060694 2.000000
12.585948 -0.468105 -2.168683 1.000000
5.074366 -2.481515 -0.868399 7.000000
2.871554 3.029161 -0.510275 8.000000
6.009346 2.491611 -1.052482 2.000000
12.646676 -0.423953 -2.178865 6.000000
5.114009 -2.477717 -0.877685 7.000000
2.860327 3.040617 -0.505175 8.000000
5.968544 2.501593 -1.042374 3.000000
12.569027 -0.373040 -2.167484 1.000000
5.114312 -2.452563 -0.881109 6.000000
2.877644 3.079423 -0.506303 7.000000
5.868916 2.485165 -1.023135 1.000000
12.599864 -0.327738 -2.172580 1.000000
5.189065 -2.467280 -0.894627 7.000000
2.876826 3.101257 -0.503663 7.000000
5.786875 2.476672 -1.009356 1.000000
12.546843 -0.278155 -2.163237 1.000000
5.216098 -2.454509 -0.902735 6.000000
2.875401 3.123691 -0.500249 7.000000
5.764967 2.492336 -1.001501 4.000000
12.537925 -0.231984 -2.161539 1.000000
5.301315 -2.469791 -0.917927 6.000000
2.855266 3.122535 -0.494802 8.000000
5.656716 2.470183 -0.980947 1.000000
12.504235 -0.183335 -2.155593 1.000000
5.322198 -2.458074 -0.925369 7.000000
2.887546 3.181170 -0.497853 7.000000
5.625657 2.481210 -0.972731 1.000000
12.519629 -0.135481 -2.158141 1.000000
5.331728 -2.436555 -0.927415 7.000000
2.860142 3.173167 -0.490502 6.000000
5.548578 2.472707 -0.959952 3.000000
12.544677 -0.089769 -2.162388 1.000000
5.406936 -2.448145 -0.944315 6.000000
2.868767 3.206288 -0.488668 7.000000
5.490692 2.471071 -0.946113 3.000000
12.564244 -0.046051 -2.167978 1.000000
5.432591 -2.438085 -0.950575 6.000000
2.858344 3.216037 -0.485664 7.000000
5.437790 2.468980 -0.936267 3.000000
12.593513 0.000000 -2.175277 1.000000
5.481640 -2.435999 -0.960810 7.000000
2.860644 3.241340 -0.482626 6.000000
5.348182 2.453107 -0.917193 2.000000
12.510414 0.048037 -2.156443 1.000000
5.504048 -2.420693 -0.966331 6.000000
5.335679 2.468821 -0.915397 4.000000
12.534822 0.089699 -2.160689 1.000000
5.553151 -2.418037 -0.976643 6.000000
2.714301 -2.954884 -0.472050 3.000000
5.299448 2.477933 -0.906697 4.000000
12.460480 0.137016 -2.147949 38.000000
5.647466 -2.434520 -0.996060 5.000000
2.728148 -2.948195 -0.476841 4.000000
5.192023 2.452041 -0.886843 4.000000
12.340843 0.185248 -2.131874 120.000000
5.660831 -2.414549 -1.000082 6.000000
2.739106 -2.937331 -0.481047 5.000000
2.853030 3.329863 -0.469390 5.000000
5.197220 2.477833 -0.883104 1.000000
12.311227 0.232089 -2.122470 117.000000
5.710917 -2.408863 -1.010545 6.000000
2.729115 -2.905196 -0.481654 7.000000
2.832569 3.328258 -0.463980 2.000000
5.130621 2.469201 -0.870269 1.000000
12.330045 0.275502 -2.125867 63.000000
5.745702 -2.401123 -1.018633 5.000000
2.752535 -2.909706 -0.488248 7.000000
2.837294 3.357485 -0.462016 1.000000
5.023998 2.440606 -0.851699 3.000000
12.314063 0.324606 -2.123319 65.000000
5.782412 -2.388062 -1.027844 5.000000
2.759403 -2.895634 -0.491832 7.000000
5.042480 2.471377 -0.853281 4.000000
12.337110 0.368312 -2.129720 65.000000
5.876725 -2.404232 -1.045462 6.000000
2.758327 -2.875352 -0.494174 7.000000
4.931149 2.441411 -0.832164 5.000000
12.335676 0.413527 -2.129720 58.000000
5.857215 -2.371227 -1.046103 5.000000
2.785725 -2.882688 -0.501449 7.000000
4.901298 2.446902 -0.825558 5.000000
12.393082 0.463098 -2.139922 1.000000
5.911558 -2.366849 -1.057603 6.000000
2.802260 -2.879615 -0.507600 7.000000
4.883375 2.462492 -0.818341 6.000000
12.554806 0.517422 -2.161399 1.000000
5.961293 -2.361446 -1.066095 6.000000
2.803065 -2.857403 -0.509213 7.000000
4.817275 2.451348 -0.806835 6.000000
12.571758 0.564284 -2.169183 1.000000
5.964448 -2.337442 -1.070866 6.000000
2.799199 -2.832619 -0.510859 7.000000
4.804358 2.466985 -0.802327 6.000000
12.510442 0.609674 -2.158991 1.000000
6.041826 -2.341044 -1.086625 6.000000
2.846231 -2.862172 -0.521380 6.000000
4.738994 2.454363 -0.789981 6.000000
12.493736 0.654769 -2.154259 1.000000
6.100479 -2.338090 -1.099142 5.000000
2.845723 -2.840761 -0.524372 8.000000
4.703532 2.459993 -0.780030 6.000000
12.516479 0.704163 -2.154126 1.000000
6.168808 -2.337153 -1.113380 1.000000
2.863822 -2.835968 -0.529182 8.000000
4.629947 2.441094 -0.767299 5.000000
12.498685 0.749126 -2.153771 1.000000
6.259882 -2.345457 -1.131859 2.000000
2.879948 -2.833083 -0.534010 8.000000
4.638914 2.467593 -0.766531 6.000000
12.564562 0.801504 -2.165637 1.000000
6.318726 -2.341130 -1.144569 1.000000
2.892896 -2.826018 -0.539606 8.000000
4.617345 2.477875 -0.759793 5.000000
12.562522 0.849819 -2.159045 1.000000
6.350625 -2.325255 -1.149936 4.000000
2.892223 -2.804718 -0.541138 7.000000
4.543419 2.459693 -0.745425 6.000000
12.618310 0.900065 -2.169185 6.000000
6.478841 -2.345308 -1.176538 1.000000
2.923491 -2.814321 -0.549382 7.000000
4.543516 2.481322 -0.743239 6.000000
12.570909 0.945211 -2.159380 1.000000
2.919112 -2.789564 -0.550222 8.000000
4.472857 2.467113 -0.729725 5.000000
12.577560 0.992084 -2.158866 6.000000
2.958626 -2.804688 -0.559893 8.000000
4.473749 2.486989 -0.727566 7.000000
12.642422 1.046061 -2.170672 6.000000
2.971087 -2.797854 -0.564847 7.000000
4.390776 2.463989 -0.712089 6.000000
12.648702 1.093272 -2.170143 6.000000
2.999465 -2.802925 -0.572574 7.000000
4.374393 2.473905 -0.707181 6.000000
12.654603 1.142752 -2.169610 6.000000
3.001119 -2.785885 -0.574766 7.000000
13.654748 18.279270 -1.956047 5.000000
4.348732 2.480473 -0.699151 8.000000
12.659937 1.192258 -2.171293 6.000000
3.018221 -2.781236 -0.579738 7.000000
13.452387 18.153339 -1.909226 8.000000
4.313200 2.483206 -0.693265 8.000000
12.675481 1.240608 -2.172437 6.000000
3.036219 -2.775366 -0.585445 7.000000
13.538006 18.396093 -1.905937 6.000000
4.279862 2.482946 -0.683945 7.000000
12.671754 1.289384 -2.165768 6.000000
11.731815 -3.904930 -2.149079 1.000000
3.052355 -2.771592 -0.590452 7.000000
13.750699 18.836189 -1.917361 6.000000
4.231801 2.477821 -0.674360 7.000000
12.686926 1.337927 -2.166894 6.000000
11.661106 -3.833977 -2.137952 1.000000
3.070349 -2.765525 -0.596197 6.000000
14.067125 19.397310 -1.944711 7.000000
4.206899 2.482011 -0.668225 8.000000
12.657303 1.379494 -2.164930 6.000000
11.640562 -3.782248 -2.138355 1.000000
3.060677 -2.738484 -0.596211 6.000000
14.213478 19.743767 -1.940271 8.000000
4.134503 2.459771 -0.653022 6.000000
12.706670 1.436511 -2.167454 6.000000
11.665030 -3.738495 -2.140076 1.000000
3.088798 -2.743328 -0.603408 6.000000
14.330523 20.061012 -1.940293 8.000000
4.117351 2.470043 -0.648325 7.000000
12.657510 1.475719 -2.159934 6.000000
11.612490 -3.672548 -2.134407 7.000000
3.102147 -2.734910 -0.607740 6.000000
14.241586 20.084366 -1.907468 9.000000
4.100177 2.480222 -0.643642 8.000000
12.721664 1.530480 -2.164923 6.000000
11.634562 -3.632675 -2.140388 1.000000
3.126161 -2.736747 -0.614274 5.000000
14.141158 20.091002 -1.873205 9.000000
4.074612 2.485202 -0.636815 7.000000
12.623108 1.567817 -2.146877 6.000000
11.619116 -3.578947 -2.141565 1.000000
3.143149 -2.731335 -0.620097 4.000000
14.017153 20.070715 -1.840728 10.000000
4.036299 2.482177 -0.628878 6.000000
12.616623 1.616227 -2.149097 6.000000
11.579619 -3.520365 -2.136249 1.000000
3.145239 -2.712982 -0.622249 5.000000
13.908508 20.063982 -1.805654 9.000000
4.002269 2.481512 -0.621643 5.000000
12.655351 1.668356 -2.152138 6.000000
11.529818 -3.461305 -2.129152 1.000000
3.173443 -2.717088 -0.630329 5.000000
13.777438 20.023829 -1.767847 15.000000
3.955771 2.472800 -0.611683 4.000000
12.659739 1.718414 -2.147111 6.000000
11.527195 -3.414511 -2.132835 1.000000
3.224395 -2.740296 -0.642227 5.000000
13.682670 20.043009 -1.735297 10.000000
3.913486 2.466362 -0.603254 4.000000
12.673261 1.767579 -2.148193 7.000000
11.488696 -3.350825 -2.127405 1.000000
3.199985 -2.699414 -0.639128 4.000000
13.577596 20.038956 -1.696866 10.000000
3.879663 2.464959 -0.596165 5.000000
12.652108 1.814181 -2.143479 7.000000
11.490725 -3.305767 -2.129829 1.000000
3.190397 -2.671373 -0.639713 4.000000
13.469579 20.029741 -1.666695 9.000000
3.879391 2.484792 -0.593432 5.000000
12.679895 1.865621 -2.147031 6.000000
11.488411 -3.257390 -2.131367 1.000000
3.212310 -2.675447 -0.644941 4.000000
13.359159 20.016077 -1.632129 7.000000
3.848118 2.478992 -0.587202 5.000000
12.663256 1.912877 -2.143143 7.000000
11.513416 -3.218936 -2.140262 1.000000
3.271076 -2.704147 -0.659297 4.000000
13.259842 20.018250 -1.603263 7.000000
3.826870 2.485199 -0.582108 5.000000
12.680898 1.963107 -2.145030 6.000000
11.424232 -3.151048 -2.125896 1.000000
3.265244 -2.679240 -0.659913 3.000000
13.157459 20.022701 -1.566148 7.000000
3.789109 2.480468 -0.573727 5.000000
12.678875 2.012674 -2.141373 6.000000
3.259274 -2.654413 -0.660494 4.000000
13.047636 20.007401 -1.532074 7.000000
3.755646 2.478274 -0.565245 4.000000
12.700992 2.063937 -2.144063 6.000000
3.265242 -2.638484 -0.662648 5.000000
12.943337 19.999699 -1.502967 7.000000
3.734473 2.483997 -0.560244 5.000000
12.717669 2.116800 -2.145922 6.000000
3.297551 -2.644672 -0.671015 3.000000
12.866479 20.033907 -1.468780 7.000000
3.713384 2.489650 -0.554484 5.000000
12.691846 2.160339 -2.133651 8.000000
3.260406 -2.595303 -0.665245 1.000000
12.735595 19.983183 -1.436885 7.000000
3.692219 2.495123 -0.549527 5.000000
12.737281 2.218430 -2.140387 6.000000
11.340466 -2.899081 -2.116638 1.000000
3.327546 -2.628881 -0.680769 3.000000
12.674827 20.041847 -1.404684 7.000000
3.728723 2.539750 -0.550747 5.000000
12.797425 2.277264 -2.149551 6.000000
11.404502 -2.866729 -2.126425 5.000000
3.266863 -2.561548 -0.669402 1.000000
12.527916 19.971209 -1.367604 7.000000
3.671040 2.519264 -0.540368 5.000000
12.779618 2.324754 -2.143385 6.000000
11.433807 -2.827464 -2.134096 1.000000
3.330299 -2.591634 -0.684229 4.000000
12.459124 20.016418 -1.334685 7.000000
3.662168 2.532970 -0.536482 6.000000
12.830322 2.382592 -2.146321 6.000000
11.399866 -2.776880 -2.130169 1.000000
3.366641 -2.600159 -0.693543 5.000000
12.331287 19.950476 -1.303060 7.000000
3.666429 2.553933 -0.533598 4.000000
12.832358 2.429339 -2.143386 6.000000
10.806491 -2.590420 -2.021511 1.000000
3.399163 -2.605443 -0.702108 5.000000
12.245095 19.982180 -1.269230 7.000000
12.847959 2.481104 -2.145150 6.000000
10.782155 -2.540847 -2.019113 1.000000
3.388568 -2.577661 -0.701779 5.000000
12.139864 19.966568 -1.232818 6.000000
12.930164 2.553206 -2.155919 6.000000
10.753494 -2.490549 -2.011941 1.000000
3.401986 -2.567306 -0.705568 6.000000
12.024327 19.932957 -1.203700 6.000000
12.916620 2.599756 -2.150512 6.000000
10.756384 -2.449714 -2.018746 1.000000
3.406832 -2.551419 -0.709209 6.000000
11.896545 19.877678 -1.165417 6.000000
12.946781 2.655238 -2.150036 6.000000
10.770510 -2.409468 -2.019646 1.000000
3.475133 -2.582744 -0.724559 6.000000
15.996610 26.941360 -1.532417 8.000000
13.006542 2.714839 -2.152001 6.000000
10.909314 -2.398568 -2.041997 1.000000
3.504112 -2.584398 -0.730965 6.000000
15.954104 27.084696 -1.498899 8.000000
13.103086 2.785147 -2.167250 6.000000
11.028316 -2.380377 -2.066616 1.000000
3.493152 -2.556601 -0.730604 6.000000
15.898175 27.206467 -1.463974 8.000000
13.121980 2.841867 -2.167354 6.000000
11.363825 -2.407165 -2.131931 3.000000
3.546305 -2.574651 -0.743582 7.000000
15.804121 27.263538 -1.419975 3.000000
13.165241 2.901793 -2.171414 6.000000
11.415538 -2.374435 -2.142089 3.000000
3.543193 -2.552612 -0.744884 7.000000
13.160295 2.953735 -2.162793 6.000000
11.429390 -2.331568 -2.142993 1.000000
3.558763 -2.556289 -0.747406 7.000000
13.173815 3.007528 -2.164393 6.000000
11.394128 -2.278840 -2.138918 1.000000
3.567576 -2.542849 -0.751229 7.000000
18.736443 33.103065 -1.567651 1.000000
13.231507 3.071766 -2.165982 6.000000
11.441374 -2.244708 -2.144125 1.000000
3.596666 -2.543755 -0.757761 8.000000
18.528761 33.004364 -1.513586 4.000000
13.316463 3.145425 -2.176953 6.000000
11.391227 -2.189481 -2.137322 1.000000
3.613489 -2.535836 -0.763309 7.000000
18.502079 33.228027 -1.461040 1.000000
13.326264 3.199353 -2.165745 6.000000
11.433377 -2.152093 -2.143664 6.000000
3.631067 -2.527418 -0.766557 7.000000
13.387892 3.266092 -2.167831 6.000000
11.451227 -2.112025 -2.143444 2.000000
3.676344 -2.538982 -0.777359 7.000000
13.490875 3.291215 -2.169607 6.000000
11.545694 -2.129448 -2.146300 1.000000
3.685390 -2.553788 -0.773671 7.000000
18.438223 33.099751 -1.409185 3.000000
13.585817 3.259158 -2.177851 6.000000
11.593195 -2.182175 -2.143839 2.000000
3.628292 -2.533957 -0.758062 7.000000
18.682463 33.264545 -1.465647 4.000000
13.568083 3.202358 -2.178097 6.000000
11.604422 -2.230459 -2.145352 2.000000
3.615489 -2.544781 -0.753360 7.000000
18.695143 33.003220 -1.496923 3.000000
13.594717 3.153586 -2.180413 6.000000
11.670061 -2.287460 -2.150448 1.000000
3.586675 -2.544209 -0.744556 7.000000
25.724058 45.044254 -2.110602 10.000000
13.562096 3.093681 -2.178322 6.000000
11.719457 -2.343906 -2.159038 1.000000
3.569831 -2.551980 -0.739058 7.000000
25.837645 44.878651 -2.161377 10.000000
13.472650 3.018901 -2.162077 6.000000
11.731132 -2.393123 -2.154236 2.000000
3.565081 -2.568381 -0.735287 6.000000
25.917576 44.656258 -2.218204 1.000000
13.371935 2.944904 -2.149065 5.000000
11.747477 -2.441340 -2.152381 1.000000
3.527244 -2.572111 -0.723479 6.000000
15.887156 27.176720 -1.379941 8.000000
13.364199 2.889442 -2.143578 5.000000
11.560599 -2.448847 -2.115591 1.000000
3.530227 -2.594158 -0.722109 6.000000
15.972634 27.083714 -1.422312 8.000000
13.456103 2.857728 -2.161545 4.000000
11.099646 -2.393745 -2.030783 1.000000
3.497508 -2.589910 -0.712673 6.000000
16.065918 27.015108 -1.454776 8.000000
13.427067 2.800169 -2.160124 6.000000
10.933094 -2.401796 -1.993920 1.000000
3.464758 -2.585375 -0.704052 3.000000
16.131952 26.933187 -1.486035 8.000000
13.452607 2.751638 -2.160061 4.000000
10.780767 -2.409787 -1.963759 1.000000
3.463639 -2.604357 -0.701878 5.000000
16.224916 26.875139 -1.524390 8.000000
13.539340 2.717716 -2.177314 6.000000
10.700097 -2.434931 -1.946801 1.000000
3.435077 -2.602643 -0.692617 5.000000
12.124481 19.909943 -1.160497 5.000000
13.486305 2.653242 -2.169589 6.000000
10.686865 -2.475117 -1.940185 1.000000
3.421157 -2.613780 -0.688066 5.000000
12.349879 20.121626 -1.204258 5.000000
13.437004 2.592424 -2.165011 6.000000
10.716722 -2.523453 -1.943308 1.000000
3.396377 -2.614618 -0.681170 5.000000
12.341423 19.943516 -1.220923 7.000000
13.480827 2.547229 -2.170480 6.000000
10.683670 -2.559006 -1.935128 1.000000
3.406845 -2.642620 -0.680579 4.000000
12.428889 19.929060 -1.243240 7.000000
3.754200 2.560942 -0.527424 1.000000
13.437029 2.487980 -2.159501 6.000000
10.732949 -2.612442 -1.937825 1.000000
3.394638 -2.651227 -0.676041 6.000000
12.578126 20.027948 -1.284984 7.000000
3.652060 2.471701 -0.516479 1.000000
13.537316 2.452826 -2.183934 6.000000
10.575287 -2.617119 -1.907240 1.000000
3.365948 -2.648740 -0.668427 5.000000
12.657792 19.999453 -1.314987 7.000000
3.681331 2.471887 -0.523257 3.000000
13.477683 2.395887 -2.170571 6.000000
10.437297 -2.623604 -1.880204 1.000000
3.348930 -2.655281 -0.663156 5.000000
12.744360 19.966167 -1.345036 7.000000
3.714855 2.474691 -0.529889 5.000000
13.467766 2.335971 -2.169825 6.000000
10.380056 -2.651632 -1.867859 1.000000
3.365804 -2.690735 -0.664010 4.000000
12.857200 19.981091 -1.374171 8.000000
3.760946 2.485542 -0.537554 5.000000
13.490093 2.288945 -2.176953 6.000000
10.366445 -2.688668 -1.861393 1.000000
3.337213 -2.687987 -0.655716 5.000000
12.996551 20.043554 -1.410863 7.000000
3.786323 2.482422 -0.543083 4.000000
13.430210 2.225765 -2.168330 6.000000
10.151826 -2.674648 -1.820912 9.000000
3.300914 -2.678756 -0.646712 2.000000
13.083196 20.038988 -1.438578 7.000000
3.836610 2.495333 -0.553032 4.000000
13.428155 2.174887 -2.169131 6.000000
10.146547 -2.714963 -1.819933 9.000000
3.284791 -2.683787 -0.641507 4.000000
13.188643 20.039658 -1.467302 7.000000
3.841233 2.478353 -0.555624 5.000000
13.444671 2.129426 -2.175457 7.000000
10.109221 -2.744720 -1.807499 1.000000
3.305903 -2.721302 -0.643752 5.000000
13.296124 20.050215 -1.500969 7.000000
3.933128 2.518243 -0.570950 5.000000
13.476405 2.083849 -2.181783 6.000000
10.099702 -2.781921 -1.803842 1.000000
3.277306 -2.717974 -0.636320 5.000000
13.406588 20.064375 -1.535122 8.000000
3.883262 2.466295 -0.566470 4.000000
13.444876 2.026146 -2.177836 6.000000
10.103787 -2.824831 -1.802725 1.000000
3.279218 -2.739908 -0.634062 6.000000
13.492206 20.040718 -1.566544 9.000000
3.932231 2.471468 -0.576023 4.000000
13.452587 1.976910 -2.175463 6.000000
10.017617 -2.842255 -1.785543 6.000000
3.220381 -2.710852 -0.620849 6.000000
13.587052 20.022795 -1.594472 9.000000
3.995656 2.490949 -0.587311 6.000000
13.459702 1.925187 -2.177836 6.000000
10.069302 -2.896838 -1.792871 4.000000
3.238388 -2.752188 -0.620752 7.000000
13.743034 20.101284 -1.634415 11.000000
4.016980 2.483844 -0.593289 4.000000
13.440712 1.872226 -2.183357 6.000000
10.053973 -2.934274 -1.788372 1.000000
3.216369 -2.755788 -0.615627 6.000000
13.843102 20.096720 -1.667913 9.000000
4.013017 2.461107 -0.594706 5.000000
13.447425 1.820553 -2.185726 6.000000
10.044047 -2.971369 -1.782888 1.000000
3.188883 -2.750628 -0.608356 7.000000
13.966199 20.124691 -1.700044 9.000000
4.072507 2.477097 -0.605554 7.000000
13.404688 1.764760 -2.180134 6.000000
10.009552 -3.003010 -1.775045 1.000000
3.153108 -2.739989 -0.598978 6.000000
14.061533 20.104343 -1.732789 9.000000
4.123665 2.487554 -0.615218 7.000000
13.401948 1.712074 -2.176184 6.000000
10.036803 -3.051327 -1.778081 1.000000
3.161732 -2.768862 -0.597392 7.000000
14.156603 20.090588 -1.757407 10.000000
4.141853 2.475904 -0.619011 7.000000
13.417555 1.664111 -2.180134 6.000000
10.074151 -3.103063 -1.777239 1.000000
3.125965 -2.757848 -0.588829 7.000000
14.295741 20.123501 -1.799721 9.000000
4.193185 2.485773 -0.628777 7.000000
13.458337 1.611957 -2.188072 6.000000
10.076874 -3.146316 -1.776048 1.000000
3.112593 -2.766405 -0.583769 7.000000
14.398821 20.126900 -1.834683 7.000000
4.184600 2.460001 -0.631302 6.000000
13.404395 1.560426 -2.180865 6.000000
9.990641 -3.159625 -1.759117 1.000000
3.091743 -2.768224 -0.578066 7.000000
14.535097 20.168245 -1.864881 7.000000
4.236231 2.469506 -0.639462 7.000000
13.483481 1.517181 -2.195199 6.000000
9.988704 -3.201254 -1.755281 1.000000
3.074594 -2.773239 -0.573073 7.000000
14.686072 20.228489 -1.905895 7.000000
4.256883 2.462668 -0.644835 7.000000
13.518011 1.470913 -2.202363 6.000000
9.935267 -3.224330 -1.744208 1.000000
3.087753 -2.803734 -0.573546 7.000000
14.767359 20.184427 -1.941957 9.000000
4.303990 2.468910 -0.655882 7.000000
13.503924 1.416937 -2.199166 6.000000
10.004188 -3.285340 -1.754532 1.000000
3.055965 -2.795373 -0.565123 7.000000
14.866288 20.171513 -1.967696 7.000000
4.343401 2.469401 -0.662212 6.000000
13.523376 1.368885 -2.203936 6.000000
9.987109 -3.324205 -1.748200 1.000000
3.023855 -2.787403 -0.556043 7.000000
14.989612 20.183527 -1.996290 10.000000
4.396161 2.476098 -0.671424 7.000000
13.440491 1.308379 -2.187175 6.000000
9.975715 -3.363014 -1.739013 1.000000
3.024937 -2.808978 -0.553730 9.000000
14.849311 19.849483 -2.003200 9.000000
4.412486 2.466055 -0.677154 7.000000
13.444816 1.259073 -2.189532 6.000000
10.075953 -3.437986 -1.754855 1.000000
3.012337 -2.815938 -0.549467 8.000000
4.452281 2.464893 -0.685354 7.000000
13.492645 1.211308 -2.203827 6.000000
9.997684 -3.454193 -1.741624 1.000000
2.983389 -2.811404 -0.541872 7.000000
4.494753 2.468968 -0.694274 7.000000
13.521580 1.163963 -2.207842 6.000000
9.971844 -3.486229 -1.733657 1.000000
2.945619 -2.794311 -0.533087 8.000000
4.533803 2.468831 -0.702573 6.000000
13.393530 1.101148 -2.183819 6.000000
10.011311 -3.541259 -1.735151 1.000000
2.956280 -2.827058 -0.532710 8.000000
4.577262 2.470788 -0.711599 6.000000
13.480920 1.056237 -2.199813 6.000000
10.082124 -3.609923 -1.744057 1.000000
2.936078 -2.827426 -0.526504 8.000000
4.617282 2.468507 -0.719998 7.000000
13.454407 1.004558 -2.199706 6.000000
9.994869 -3.620065 -1.729342 1.000000
2.929584 -2.841940 -0.523583 8.000000
4.643360 2.460608 -0.726392 5.000000
13.379785 0.947340 -2.184491 6.000000
6.372366 -2.364799 -1.097223 1.000000
2.912443 -2.846107 -0.518047 8.000000
4.668691 2.454237 -0.731892 6.000000
13.393014 0.898955 -2.186099 6.000000
6.276379 -2.355386 -1.078574 1.000000
2.898842 -2.853661 -0.513156 8.000000
4.690802 2.442918 -0.737646 6.000000
13.430461 0.849680 -2.194073 6.000000
6.199341 -2.352433 -1.060874 1.000000
2.865570 -2.838689 -0.504552 8.000000
4.734467 2.443640 -0.746892 6.000000
13.383463 0.797468 -2.190708 6.000000
6.139732 -2.356822 -1.051037 4.000000
2.861485 -2.857492 -0.502264 8.000000
4.795939 2.453150 -0.758042 6.000000
13.405489 0.751830 -2.196277 6.000000
6.108548 -2.370576 -1.043661 5.000000
2.873300 -2.888384 -0.502407 7.000000
4.857414 2.462175 -0.770205 5.000000
13.399063 0.702215 -2.189979 6.000000
6.081522 -2.386996 -1.037095 6.000000
2.828189 -2.863954 -0.492073 7.000000
4.896889 2.459667 -0.778932 6.000000
13.371706 0.649307 -2.187483 6.000000
6.031921 -2.393079 -1.026642 6.000000
2.818534 -2.874176 -0.487857 7.000000
4.922986 2.450220 -0.786546 5.000000
13.383092 0.600701 -2.193772 6.000000
5.986770 -2.400599 -1.018140 5.000000
2.794485 -2.870623 -0.481256 8.000000
5.007580 2.468379 -0.800530 5.000000
13.370126 0.548687 -2.193683 84.000000
5.974269 -2.419828 -1.013985 5.000000
2.787743 -2.884777 -0.477652 7.000000
5.024858 2.454045 -0.806830 6.000000
13.184854 0.488075 -2.162946 218.000000
5.914556 -2.423325 -1.003207 5.000000
2.780427 -2.899403 -0.474037 7.000000
5.055581 2.446141 -0.814321 6.000000
13.176766 0.437118 -2.161328 177.000000
5.856232 -2.424533 -0.989149 5.000000
2.770123 -2.909932 -0.469830 7.000000
5.081975 2.435965 -0.820141 5.000000
13.178348 0.386520 -2.161328 228.000000
5.851914 -2.449109 -0.986598 6.000000
2.766598 -2.927641 -0.466773 6.000000
5.153772 2.444987 -0.834205 5.000000
13.159571 0.337701 -2.160390 121.000000
5.783898 -2.445594 -0.975513 4.000000
2.766892 -2.948502 -0.464266 7.000000
5.175310 2.433110 -0.839370 19.000000
13.175467 0.292091 -2.162819 90.000000
5.716601 -2.441876 -0.960111 4.000000
2.750599 -2.950689 -0.459605 6.000000
5.228502 2.434758 -0.850657 4.000000
13.185559 0.243967 -2.169042 90.000000
5.698263 -2.459957 -0.957501 5.000000
2.755870 -2.980239 -0.458893 1.000000
5.277408 2.434036 -0.860267 5.000000
13.167420 0.193058 -2.161200 6.000000
5.639838 -2.459297 -0.945894 7.000000
5.339867 2.439147 -0.872126 4.000000
13.409791 0.147454 -2.200877 4.000000
5.617819 -2.474241 -0.939330 6.000000
5.392990 2.439562 -0.885672 4.000000
13.429223 0.096099 -2.208804 6.000000
5.513892 -2.453790 -0.920287 6.000000
5.441943 2.438860 -0.893372 3.000000
13.380149 0.046706 -2.200689 6.000000
5.482756 -2.464048 -0.913372 6.000000
5.513689 2.446785 -0.906902 4.000000
13.430337 0.000000 -2.204116 6.000000
5.452477 -2.472206 -0.906481 7.000000
5.526711 2.428358 -0.910806 1.000000
13.370656 -0.049006 -2.196733 6.000000
5.390151 -2.467804 -0.892326 6.000000
5.648598 2.456081 -0.934830 1.000000
13.394655 -0.100528 -2.203124 6.000000
5.381786 -2.486734 -0.890256 6.000000
2.821200 3.055165 -0.470127 1.000000
5.647881 2.431193 -0.937623 1.000000
13.374462 -0.149400 -2.199878 6.000000
5.349779 -2.498054 -0.883453 6.000000
2.808358 3.018981 -0.470513 1.000000
5.742692 2.447097 -0.955212 3.000000
13.378722 -0.200827 -2.200689 6.000000
5.315040 -2.503334 -0.875937 5.000000
2.849633 3.040926 -0.479979 1.000000
5.874107 2.477696 -0.978970 1.000000
13.387763 -0.250046 -2.202312 6.000000
5.252344 -2.498491 -0.863029 5.000000
2.915501 3.087371 -0.493580 6.000000
5.965194 2.489181 -0.996015 1.000000
13.416299 -0.302116 -2.207181 6.000000
5.220523 -2.509103 -0.855316 7.000000
2.891150 3.041317 -0.492202 6.000000
5.978361 2.468987 -1.000163 3.000000
13.370713 -0.350124 -2.199878 6.000000
5.149385 -2.498186 -0.842094 6.000000
2.919152 3.048320 -0.498797 7.000000
6.005180 2.454337 -1.006617 1.000000
13.305923 -0.399559 -2.184682 6.000000
5.141730 -2.515570 -0.837099 7.000000
2.919660 3.026566 -0.500707 7.000000
6.069199 2.453348 -1.018102 3.000000
13.383574 -0.453333 -2.195301 6.000000
5.088634 -2.512750 -0.825902 6.000000
2.905565 2.990990 -0.501664 7.000000
6.279307 2.511544 -1.056632 3.000000
13.420498 -0.503835 -2.206460 6.000000
5.065040 -2.527543 -0.821766 6.000000
2.916139 2.979944 -0.506030 7.000000
6.306328 2.495579 -1.063271 4.000000
13.452972 -0.556790 -2.212134 6.000000
5.039331 -2.535622 -0.815939 6.000000
2.905187 2.948094 -0.507473 7.000000
6.365591 2.490803 -1.077755 1.000000
13.385998 -0.603172 -2.206274 6.000000
4.986384 -2.531926 -0.804877 6.000000
2.887692 2.908938 -0.506182 7.000000
6.402137 2.478085 -1.083625 3.000000
13.399746 -0.650668 -2.201687 6.000000
4.959825 -2.541349 -0.799110 5.000000
2.911928 2.911928 -0.513665 8.000000
6.461019 2.473686 -1.098238 3.000000
13.391333 -0.704154 -2.205558 6.000000
4.950725 -2.559638 -0.797165 3.000000
2.922198 2.900855 -0.517977 7.000000
6.557675 2.481863 -1.116804 3.000000
13.452952 -0.759203 -2.213756 6.000000
4.888691 -2.551402 -0.784820 3.000000
2.935515 2.893801 -0.522198 8.000000
6.663284 2.493951 -1.137045 1.000000
13.420529 -0.806729 -2.208892 6.000000
4.795681 -2.527406 -0.767650 1.000000
2.931530 2.868762 -0.523980 7.000000
6.546811 2.423038 -1.119396 1.000000
13.378241 -0.851065 -2.202407 6.000000
2.909552 2.826453 -0.523234 7.000000
6.787132 2.482394 -1.164024 1.000000
13.439254 -0.906771 -2.210594 6.000000
2.929710 2.826225 -0.529416 7.000000
7.046268 2.547932 -1.210883 1.000000
13.405593 -0.958573 -2.208081 6.000000
2.873016 -3.697204 -0.407998 1.000000
2.928972 2.804860 -0.531021 8.000000
7.041019 2.516891 -1.212405 2.000000
13.460852 -1.014489 -2.217809 6.000000
2.872524 -3.723323 -0.404809 1.000000
2.938828 2.793721 -0.535268 7.000000
6.994191 2.469906 -1.206686 1.000000
13.423368 -1.056442 -2.209784 6.000000
2.921020 -3.812255 -0.408357 1.000000
2.923405 2.758734 -0.534897 8.000000
13.433964 -1.109194 -2.212214 8.000000
2.907995 -3.822822 -0.402489 4.000000
2.933018 2.747551 -0.539807 8.000000
12.357174 4.322579 -2.139105 5.000000
13.449857 -1.160154 -2.213096 7.000000
2.956756 2.750474 -0.545994 7.000000
12.322806 4.252708 -2.137062 5.000000
13.381801 -1.206066 -2.200236 8.000000
2.955406 2.729081 -0.548899 8.000000
12.285530 4.189515 -2.137226 5.000000
13.401086 -1.257337 -2.208975 39.000000
8.886962 -11.853548 -1.218016 6.000000
2.943196 2.697887 -0.547631 8.000000
12.271691 4.134650 -2.139133 5.000000
13.278686 -1.297307 -2.187212 210.000000
8.787024 -11.805890 -1.189274 6.000000
2.948976 2.683361 -0.551127 8.000000
12.278115 4.084385 -2.137503 5.000000
13.166221 -1.335054 -2.167107 189.000000
8.725884 -11.809589 -1.168517 7.000000
2.984158 2.695448 -0.559429 8.000000
12.276469 4.038672 -2.141826 5.000000
13.161373 -1.385639 -2.164798 170.000000
4.471405 -2.612878 -0.692847 2.000000
8.668523 -11.822372 -1.151182 7.000000
2.971459 2.664266 -0.559475 8.000000
12.230187 3.971469 -2.135687 5.000000
13.141865 -1.432305 -2.160069 27.000000
4.402432 -2.594266 -0.679998 1.000000
8.660294 -11.898024 -1.137510 9.000000
2.998716 2.669882 -0.567851 7.000000
12.145621 3.890181 -2.129614 5.000000
13.179647 -1.487652 -2.171955 6.000000
4.452855 -2.646015 -0.686520 1.000000
8.613448 -11.920899 -1.123905 5.000000
2.993273 2.645431 -0.568536 9.000000
11.970352 3.788024 -2.101056 7.000000
13.302672 -1.550937 -2.185952 6.000000
4.332980 -2.596318 -0.665913 1.000000
8.666365 -12.087214 -1.118308 6.000000
3.010016 2.640643 -0.573440 9.000000
11.884264 3.712916 -2.090245 35.000000
13.341092 -1.607362 -2.190855 6.000000
4.349291 -2.627803 -0.666286 2.000000
8.595881 -12.077714 -1.099035 5.000000
3.000560 2.612947 -0.574063 37.000000
11.883599 3.662685 -2.092103 47.000000
13.314856 -1.656093 -2.189979 6.000000
4.318857 -2.631071 -0.659506 5.000000
8.565947 -12.125024 -1.082378 6.000000
3.029527 2.624259 -0.581145 9.000000
11.854701 3.601733 -2.091125 78.000000
13.343338 -1.709321 -2.193269 6.000000
8.543708 -12.197148 -1.067457 5.000000
3.038662 2.612739 -0.585342 7.000000
11.848153 3.550109 -2.096431 57.000000
13.350974 -1.762430 -2.198033 6.000000
8.525817 -12.253347 -1.056933 6.000000
3.024350 2.583039 -0.584477 7.000000
11.821344 3.499398 -2.094051 49.000000
13.321743 -1.803538 -2.186967 6.000000
8.528970 -12.349607 -1.046867 6.000000
3.014465 2.555547 -0.584981 4.000000
11.833991 3.453776 -2.098354 70.000000
13.328356 -1.861319 -2.191725 6.000000
4.392709 -2.759816 -0.663643 1.000000
8.518201 -12.431209 -1.032631 6.000000
2.955230 2.486773 -0.575848 1.000000
11.954093 3.441333 -2.126336 29.000000
13.390214 -1.920018 -2.200616 6.000000
8.492292 -12.486650 -1.016234 6.000000
11.956071 3.394499 -2.131159 1.000000
13.412346 -1.970996 -2.207799 6.000000
8.471478 -12.550030 -1.005706 6.000000
11.943855 3.341526 -2.135593 1.000000
13.415554 -2.021727 -2.204671 14.000000
8.434428 -12.594443 -0.988182 2.000000
11.907804 3.284428 -2.131420 1.000000
13.407348 -2.077963 -2.202303 46.000000
8.413173 -12.658050 -0.972216 6.000000
11.847576 3.218915 -2.127239 1.000000
13.326885 -2.110771 -2.192641 121.000000
8.377644 -12.700540 -0.959897 6.000000
11.844299 3.171455 -2.128958 1.000000
13.318305 -2.166637 -2.190286 136.000000
8.337138 -12.740484 -0.941925 5.000000
11.793749 3.109437 -2.122096 5.000000
13.336143 -2.214959 -2.189573 75.000000
8.334009 -12.833248 -0.927862 3.000000
11.795523 3.059317 -2.126763 1.000000
