VERSION .7
FIELDS x y z intensity
SIZE 4 4 4 4
TYPE F F F F
COUNT 1 1 1 1
WIDTH 1233
HEIGHT 1
VIEWPOINT 0 0 0 1 0 0 0
POINTS 1233
DATA ascii
95.423073 52.785069 10.193021 30.000000
91.423538 7.821689 8.495935 21.000000
45.615475 -15.760118 3.594904 9.000000
20.742306 27.149446 2.598963 8.000000
95.609856 52.453365 10.154955 22.000000
91.185982 7.496852 8.471502 5.000000
45.708023 -15.979860 3.606789 9.000000
20.879274 27.122080 2.579619 8.000000
95.451859 51.912449 10.060514 26.000000
8.930060 -8.388819 0.558515 23.000000
20.976582 27.042845 2.555350 8.000000
95.413826 51.439518 9.979327 26.000000
8.906297 -8.428157 0.565391 62.000000
20.847572 26.683674 2.510444 9.000000
95.105415 50.845577 9.928447 18.000000
8.900364 -8.484592 0.575588 72.000000
20.854046 26.491251 2.469933 8.000000
94.763374 50.216984 9.816831 23.000000
30.577780 -11.189878 2.476846 7.000000
8.886926 -8.534173 0.585359 107.000000
27.233656 34.335693 3.179843 12.000000
94.683929 49.731255 9.714367 20.000000
30.844337 -11.415787 2.513357 5.000000
8.863966 -8.571799 0.594442 133.000000
27.354725 34.242149 3.149247 12.000000
94.836357 49.389721 9.693442 30.000000
8.850642 -8.627937 0.604516 1.000000
42.784882 -16.184128 3.535837 8.000000
16.107277 -15.806489 1.115577 27.000000
101.947243 5.396356 9.434658 30.000000
42.515747 -16.260698 3.518497 9.000000
7.764184 -7.680618 0.547516 15.000000
27.731255 33.953453 3.050146 12.000000
93.967728 47.651932 9.421627 32.000000
101.661255 5.043210 9.406592 1.000000
42.344189 -16.356247 3.524709 9.000000
7.731322 -7.699005 0.554632 12.000000
28.125929 34.180210 3.056468 12.000000
94.083847 47.278107 9.360261 32.000000
101.724640 4.690455 9.392960 1.000000
42.088417 -16.443445 3.540386 19.000000
7.711106 -7.732670 0.564670 21.000000
94.153145 46.901997 9.313805 26.000000
118.768463 5.040172 10.964959 15.000000
41.827354 -16.518412 3.539290 9.000000
7.655144 -7.738432 0.570462 5.000000
118.686638 4.600972 10.955774 16.000000
41.623013 -16.614321 3.527129 11.000000
118.901009 4.193670 10.974144 14.000000
41.337677 -16.676334 3.539418 11.000000
7.630454 -7.824679 0.586170 7.000000
93.253410 45.200996 9.048288 28.000000
41.194988 -16.786207 3.547822 12.000000
7.531299 -7.774413 0.586214 9.000000
93.517006 44.906227 9.003105 12.000000
40.902744 -16.842194 3.527947 12.000000
59.293495 28.205366 5.675243 11.000000
40.664738 -16.918770 3.528215 23.000000
7.071004 -7.412323 0.570941 26.000000
40.498619 -17.015734 3.534366 14.000000
7.053811 -7.448772 0.578937 25.000000
40.255924 -17.087626 3.533994 16.000000
7.037009 -7.477945 0.584877 28.000000
40.072800 -17.183504 3.538743 16.000000
6.992235 -7.485147 0.590607 27.000000
92.372597 42.330482 8.621722 36.000000
39.773632 -17.219830 3.532839 18.000000
7.019525 -7.575092 0.602710 29.000000
92.561615 42.007294 8.589200 30.000000
39.601013 -17.301256 3.537769 21.000000
6.960277 -7.561294 0.606972 28.000000
92.700867 41.661423 8.534303 32.000000
39.380630 -17.377138 3.546437 18.000000
6.889775 -7.537338 0.610269 23.000000
39.186596 -17.455193 3.549505 22.000000
7.002674 -7.717458 0.630072 36.000000
38.945564 -17.502831 3.547917 23.000000
6.769584 -7.510473 0.618422 94.000000
91.893631 40.147343 8.315073 33.000000
38.724155 -17.590509 3.549101 20.000000
6.798964 -7.604227 0.631037 21.000000
91.635780 39.635357 8.243451 34.000000
38.542183 -17.662264 3.552674 25.000000
6.761489 -7.610296 0.636910 43.000000
91.812859 39.332077 8.211877 35.000000
38.372917 -17.763296 3.565629 17.000000
6.739856 -7.642177 0.644648 238.000000
25.628504 27.329792 2.094702 8.000000
91.698830 38.886074 8.136374 34.000000
6.751537 -7.717652 0.655911 109.000000
25.657501 27.160521 2.062757 8.000000
91.576836 38.438946 8.078095 28.000000
6.664759 -7.666929 0.656939 35.000000
25.740658 27.049255 2.035311 9.000000
91.611809 38.078049 8.034547 30.000000
6.597275 -7.645714 0.658355 32.000000
25.866987 26.992699 2.011661 9.000000
91.513680 37.644497 7.979019 26.000000
6.510487 -7.601284 0.659487 43.000000
26.105425 27.042402 1.996166 6.000000
91.335098 37.180214 7.916868 23.000000
31.561598 -15.311876 3.025898 6.000000
91.079315 36.724487 7.815101 24.000000
30.438404 -14.885280 2.934599 6.000000
6.651627 -7.879502 0.693940 59.000000
91.144669 36.381477 7.775291 25.000000
6.615902 -7.895714 0.702258 38.000000
90.950752 35.918171 7.713120 23.000000
6.608931 -7.946375 0.711854 54.000000
26.325535 -13.228853 2.577631 31.000000
6.396622 -7.745941 0.698941 27.000000
90.660118 35.019188 7.597699 27.000000
26.222359 -13.297608 2.587796 20.000000
6.276186 -7.657088 0.695789 30.000000
30.382616 30.150187 2.100928 11.000000
90.501617 34.577309 7.539720 32.000000
25.405596 -13.000700 2.521918 15.000000
30.273371 29.822350 2.056063 11.000000
90.319832 34.165051 7.481184 30.000000
24.562267 -12.677531 2.457168 13.000000
6.236285 -7.720438 0.711400 33.000000
90.188858 33.738174 7.443136 27.000000
23.887646 -12.440421 2.403702 9.000000
6.176362 -7.703847 0.716442 40.000000
89.798897 33.235439 7.367712 27.000000
23.084642 -12.124848 2.340906 10.000000
6.362012 -7.995281 0.748542 26.000000
90.847069 33.209351 7.408749 10.000000
22.462898 -11.903533 2.291213 14.000000
91.404396 33.033810 7.376030 14.000000
21.764755 -11.645717 2.229096 10.000000
6.205846 -7.920301 0.751267 26.000000
92.129776 32.969093 7.391819 18.000000
79.067520 -6.014511 7.286273 4.000000
21.175097 -11.415920 2.180833 9.000000
92.590866 32.751774 7.384655 18.000000
79.024918 -6.288791 7.298280 4.000000
20.572201 -11.188396 2.135312 9.000000
6.419380 -8.308703 0.798689 22.000000
56.129181 52.561520 3.343963 21.000000
93.312424 32.586155 7.397016 24.000000
20.010920 -10.978366 2.089250 9.000000
94.163025 32.496479 7.437469 6.000000
19.457415 -10.763235 2.047112 10.000000
6.412045 -8.426162 0.818452 27.000000
94.592682 32.312553 7.428265 15.000000
19.034298 -10.620477 2.018188 10.000000
6.406286 -8.479855 0.828955 29.000000
56.369846 51.635353 3.163880 1.000000
94.968048 32.052570 7.413287 24.000000
18.514856 -10.415563 1.974434 10.000000
6.530208 -8.710078 0.858673 24.000000
56.819084 51.665146 3.124741 4.000000
95.533234 31.853767 7.395226 4.000000
18.190474 -10.321033 1.947545 17.000000
95.935974 31.597813 7.381941 31.000000
18.164600 -10.394546 1.959894 29.000000
6.354474 -8.603270 0.858668 29.000000
18.145155 -10.467667 1.965415 16.000000
6.204694 -8.465234 0.849990 29.000000
18.110376 -10.536260 1.973196 10.000000
6.189417 -8.506506 0.859353 32.000000
98.327049 31.210068 7.448997 25.000000
79.064285 -8.854508 7.324407 1.000000
18.085476 -10.606442 1.985580 27.000000
6.195766 -8.581167 0.872034 41.000000
98.614578 30.903936 7.425887 27.000000
79.099266 -9.152098 7.344722 1.000000
18.045582 -10.672128 1.996558 21.000000
6.253789 -8.728761 0.894132 10.000000
27.987385 24.354801 1.347447 9.000000
18.022846 -10.748036 2.005779 23.000000
6.263437 -8.807001 0.905600 7.000000
94.169739 28.772608 6.989128 1.000000
18.001982 -10.820959 2.011348 12.000000
14.343079 -20.325077 2.102043 13.000000
58.216995 49.933262 2.691748 7.000000
93.875778 28.307014 6.925167 8.000000
17.974064 -10.894058 2.023783 24.000000
6.286469 -8.978009 0.935760 8.000000
58.248840 49.591179 2.631327 15.000000
93.657272 27.867058 6.850050 19.000000
17.922281 -10.948396 2.033342 21.000000
6.505004 -9.359474 0.979159 20.000000
58.389275 49.342762 2.589410 1.000000
93.531349 27.456835 6.799241 14.000000
17.902311 -11.026501 2.046761 17.000000
93.737946 27.162441 6.790209 1.000000
80.110840 -11.030803 7.459074 1.000000
17.899521 -11.115481 2.054798 29.000000
6.133143 -8.960584 0.949998 8.000000
32.732849 27.252632 1.375739 11.000000
93.739563 26.790878 6.731875 1.000000
79.761261 -11.266503 7.430142 1.000000
17.851871 -11.172424 2.057503 11.000000
6.099979 -8.982590 0.955683 21.000000
32.623692 26.979078 1.330403 10.000000
17.805676 -11.234546 2.068041 10.000000
5.942859 -8.817288 0.945235 10.000000
32.769249 26.897814 1.310090 13.000000
17.803226 -11.320077 2.083487 12.000000
5.882452 -8.797062 0.948196 33.000000
32.748981 26.671368 1.275662 10.000000
17.752317 -11.379292 2.093545 14.000000
26.022358 21.042427 0.981544 7.000000
94.227928 25.459936 6.602829 1.000000
17.753977 -11.467989 2.102174 15.000000
32.913616 26.406525 1.222902 10.000000
94.293907 25.107292 6.566743 22.000000
17.727268 -11.543039 2.118922 11.000000
33.068275 26.350843 1.188465 10.000000
86.234070 -14.090464 8.075019 1.000000
17.701479 -11.618855 2.120915 10.000000
6.463984 -9.972706 1.098294 1.000000
33.233086 26.264751 1.168393 22.000000
86.259033 -14.419334 8.097645 9.000000
9.971029 -6.594676 1.203760 4.000000
13.930717 -21.666035 2.403114 8.000000
33.281479 26.124165 1.130093 20.000000
87.325371 22.226500 5.937684 13.000000
9.929709 -6.619790 1.208005 6.000000
13.891812 -21.772219 2.423140 8.000000
33.492115 26.091681 1.096915 10.000000
87.311478 21.898729 5.915727 15.000000
9.916949 -6.656379 1.211096 5.000000
13.824094 -21.842224 2.448034 8.000000
87.300125 21.556093 5.893803 16.000000
17.583839 -11.905155 2.164459 10.000000
13.788022 -21.962957 2.474153 9.000000
59.582878 45.719551 1.835467 13.000000
84.914688 20.637177 5.666346 4.000000
17.564499 -11.977198 2.170705 10.000000
13.729237 -22.039791 2.486541 9.000000
59.790569 45.531715 1.797339 7.000000
85.065422 20.343904 5.625403 19.000000
17.526373 -12.041039 2.174924 11.000000
13.699539 -22.172787 2.518819 10.000000
85.543510 20.127066 5.636702 14.000000
17.501629 -12.118703 2.188614 10.000000
13.654947 -22.274120 2.543312 10.000000
59.817223 44.863087 1.657636 1.000000
86.549461 20.045172 5.651636 8.000000
17.470654 -12.196764 2.198097 16.000000
13.618824 -22.399031 2.570333 19.000000
37.140842 27.643616 1.002167 8.000000
86.561974 19.714067 5.601025 23.000000
47.832840 -9.401771 4.496478 5.000000
17.442003 -12.262993 2.203358 25.000000
13.565326 -22.487497 2.593548 10.000000
37.218475 27.489992 0.961140 7.000000
86.733902 19.419113 5.560785 1.000000
85.409096 -17.112932 8.019307 4.000000
17.427183 -12.343701 2.210683 14.000000
13.530648 -22.617022 2.616684 13.000000
87.279137 19.205532 5.559875 16.000000
36.846363 -7.523270 3.455559 1.000000
17.384615 -12.409484 2.226110 11.000000
13.488771 -22.726715 2.642545 11.000000
61.127346 44.460537 1.438134 1.000000
87.381042 18.892450 5.514928 24.000000
36.566975 -7.599284 3.425250 6.000000
17.348948 -12.475669 2.230876 23.000000
13.440008 -22.834829 2.663383 14.000000
86.678146 18.408197 5.388653 1.000000
36.515102 -7.728226 3.416452 5.000000
17.339350 -12.565436 2.235549 10.000000
13.404427 -22.957319 2.690945 14.000000
86.752670 18.091976 5.342556 1.000000
17.307116 -12.634452 2.240846 10.000000
13.342155 -23.044228 2.704772 19.000000
86.798515 18.101536 5.143499 6.000000
17.302834 -12.631327 2.194943 17.000000
13.382732 -23.105007 2.679226 21.000000
87.425934 18.551064 5.137533 13.000000
36.458099 -7.722810 3.267001 9.000000
17.318636 -12.545817 2.168473 10.000000
13.416981 -22.951214 2.630128 16.000000
87.103638 18.816561 5.122612 1.000000
36.409798 -7.573249 3.240543 21.000000
17.339621 -12.468961 2.146809 12.000000
13.460510 -22.842293 2.594981 15.000000
60.995113 44.690739 1.214261 19.000000
36.517059 -7.456033 3.227973 9.000000
17.403524 -12.418398 2.122691 16.000000
13.487048 -22.696726 2.556133 11.000000
33.346699 7.453870 1.946274 7.000000
47.690548 -9.564140 4.187033 5.000000
17.417944 -12.332591 2.100115 10.000000
13.514802 -22.572645 2.524020 13.000000
33.313953 7.574859 1.951953 8.000000
47.683434 -9.381047 4.157728 161.000000
17.429213 -12.249454 2.085044 11.000000
13.579798 -22.484859 2.487633 10.000000
33.227940 7.683492 1.942578 8.000000
47.972385 -9.264078 4.154310 167.000000
17.479559 -12.189374 2.066935 10.000000
13.621768 -22.386265 2.458637 9.000000
85.670219 20.125320 5.012545 6.000000
48.262707 -9.136782 4.150619 126.000000
17.494833 -12.109479 2.044989 10.000000
13.692243 -22.300005 2.422932 9.000000
85.645287 20.450981 5.000021 19.000000
17.503635 -12.020922 2.022155 10.000000
13.708009 -22.151894 2.393682 9.000000
84.336716 20.465532 4.943167 1.000000
48.819897 -8.880880 4.158078 1.000000
17.550472 -11.963146 2.011508 9.000000
13.771954 -22.091175 2.369136 8.000000
59.679241 46.108723 1.434901 7.000000
84.110886 20.737461 4.934353 1.000000
49.068672 -8.740461 4.167750 3.000000
9.925484 -6.712481 1.126320 1.000000
13.820879 -21.981199 2.335602 9.000000
59.296959 46.128189 1.442496 1.000000
9.884686 -6.632221 1.108446 8.000000
13.865466 -21.890680 2.308063 9.000000
59.323811 46.499096 1.473606 7.000000
9.937266 -6.617314 1.105440 6.000000
5.824745 -9.121923 0.954503 9.000000
59.163937 46.724865 1.526532 20.000000
87.490494 22.577713 5.178292 1.000000
9.991014 -6.600377 1.102397 1.000000
5.835436 -9.068723 0.941579 1.000000
33.126293 26.378174 0.887016 10.000000
87.513390 22.926060 5.184586 7.000000
17.651291 -11.572694 1.932009 10.000000
6.471766 -9.969455 1.025247 9.000000
32.958961 26.442905 0.899881 18.000000
17.728390 -11.530556 1.917201 17.000000
32.800724 26.495216 0.920043 4.000000
17.737900 -11.444445 1.902537 20.000000
33.021873 26.864872 0.943737 8.000000
95.532158 26.134640 5.676067 1.000000
17.753963 -11.367236 1.881448 10.000000
5.758910 -8.664576 0.868149 20.000000
32.597931 26.719122 0.963854 10.000000
95.294327 26.445368 5.702292 1.000000
17.779524 -11.291936 1.868642 10.000000
5.892132 -8.798240 0.874293 42.000000
32.738350 27.035433 0.993173 10.000000
95.469566 26.853266 5.735720 1.000000
17.842960 -11.240661 1.856129 11.000000
6.016686 -8.913392 0.880363 38.000000
32.873035 27.349920 1.022696 11.000000
95.068092 27.116741 5.717532 1.000000
17.841002 -11.161288 1.841165 13.000000
6.060651 -8.914629 0.872996 28.000000
93.907387 27.158247 5.670793 3.000000
17.891253 -11.093047 1.823231 17.000000
6.041807 -8.813933 0.854137 120.000000
58.167610 49.155441 1.914411 10.000000
93.661606 27.459568 5.696177 10.000000
17.900978 -11.012755 1.809206 12.000000
6.119740 -8.857831 0.852996 32.000000
58.313175 49.593311 1.951058 4.000000
93.546051 27.780657 5.695012 1.000000
17.942293 -10.947725 1.794533 10.000000
6.537213 -9.388324 0.894328 12.000000
57.928802 49.633453 1.997563 11.000000
94.054451 28.307177 5.749442 10.000000
17.974575 -10.877215 1.782682 12.000000
57.868248 49.985790 2.042444 1.000000
17.996147 -10.804628 1.770001 12.000000
14.381409 -20.341690 1.908129 17.000000
27.996414 24.345491 1.010410 19.000000
18.019825 -10.729187 1.750020 10.000000
6.324403 -8.876313 0.823322 37.000000
98.713043 30.878038 6.108630 7.000000
18.051275 -10.666990 1.745944 10.000000
6.181136 -8.617821 0.793697 22.000000
57.031830 50.315712 2.150966 8.000000
18.093748 -10.607050 1.731717 27.000000
6.181014 -8.545013 0.780016 20.000000
56.722614 50.413830 2.199282 1.000000
18.106798 -10.517264 1.717873 13.000000
6.217155 -8.532103 0.769699 27.000000
56.808109 50.863720 2.263089 11.000000
96.507477 31.357180 6.064211 13.000000
18.141682 -10.448790 1.706503 13.000000
6.213281 -8.461452 0.758007 23.000000
56.913895 51.335506 2.301562 4.000000
95.919060 31.499485 6.051109 32.000000
18.162470 -10.384912 1.690679 10.000000
6.271271 -8.481326 0.754245 39.000000
56.472630 51.314117 2.344628 1.000000
95.666702 31.842623 6.078527 4.000000
18.222124 -10.322181 1.681324 11.000000
6.283317 -8.429716 0.742573 57.000000
56.400925 51.627625 2.402923 7.000000
94.915573 31.979509 6.038208 27.000000
18.641191 -10.473786 1.705340 10.000000
6.437374 -8.570662 0.747662 24.000000
56.344364 51.938484 2.448387 12.000000
94.403656 32.192795 6.048051 21.000000
19.106695 -10.643388 1.736662 10.000000
6.472067 -8.551401 0.740524 32.000000
56.266193 52.249184 2.493541 1.000000
19.636183 -10.853174 1.761806 11.000000
6.538637 -8.576976 0.733363 22.000000
56.178864 52.552860 2.551954 19.000000
93.351715 32.581596 6.064725 25.000000
20.170353 -11.052098 1.798009 11.000000
6.485338 -8.448803 0.716769 28.000000
55.915466 52.692070 2.602443 1.000000
92.601082 32.700848 6.023706 19.000000
20.756699 -11.269967 1.833963 9.000000
6.473776 -8.364013 0.702503 24.000000
92.481743 33.004036 6.040232 10.000000
79.251099 -6.028475 6.115657 3.000000
21.356583 -11.504144 1.870808 9.000000
6.484990 -8.324340 0.693480 37.000000
91.368813 32.966869 6.009058 22.000000
21.962084 -11.726660 1.911329 9.000000
6.358636 -8.100730 0.669568 25.000000
90.704094 33.139141 6.007881 7.000000
22.633829 -11.983995 1.952649 10.000000
6.329530 -7.997342 0.654180 34.000000
30.563484 29.649124 1.553957 11.000000
89.887276 33.214649 5.995382 13.000000
77.514694 -5.026236 5.949681 1.000000
23.318331 -12.237206 1.998573 13.000000
6.180397 -7.753144 0.629015 28.000000
30.375408 29.683548 1.572183 10.000000
90.044632 33.630486 6.047355 27.000000
77.428497 -4.762859 5.914584 1.000000
24.098856 -12.534380 2.037680 15.000000
6.144011 -7.655280 0.612405 32.000000
30.505648 29.998755 1.613705 28.000000
90.290131 34.063782 6.105216 34.000000
77.648720 -4.504392 5.930169 1.000000
24.794529 -12.786452 2.082923 10.000000
6.216227 -7.687368 0.609862 28.000000
30.359396 30.074604 1.634196 11.000000
90.570290 34.549210 6.132681 29.000000
6.254085 -7.676468 0.603873 32.000000
84.409081 -4.246440 6.428953 1.000000
26.308266 -13.323859 2.175947 28.000000
6.321853 -7.699088 0.598833 21.000000
84.671005 -3.992983 6.447915 35.000000
26.386826 -13.248118 2.163064 21.000000
6.404857 -7.747647 0.597215 10.000000
90.807625 35.806694 6.295191 21.000000
84.944084 -3.693885 6.467636 26.000000
6.528981 -7.833546 0.595136 28.000000
91.299454 36.387852 6.372941 12.000000
6.447436 -7.681032 0.578231 51.000000
91.067192 36.645706 6.365176 20.000000
6.466686 -7.652290 0.570661 9.000000
26.063635 26.970835 1.585104 8.000000
32.006912 -15.493426 2.536471 5.000000
25.870464 26.968046 1.605494 9.000000
91.329987 37.550301 6.472293 27.000000
91.316368 -2.646401 6.901065 1.000000
6.674583 -7.784619 0.567918 27.000000
25.783165 27.084455 1.632674 8.000000
91.544426 38.031303 6.532077 28.000000
91.450066 -2.314846 6.910481 23.000000
6.683182 -7.731622 0.558848 25.000000
25.651037 27.125210 1.662636 8.000000
91.519417 38.396061 6.574611 29.000000
91.427673 -1.994959 6.908221 16.000000
6.790484 -7.797806 0.556377 152.000000
25.666876 27.342007 1.696381 9.000000
91.659676 38.850597 6.647230 29.000000
38.176556 -17.802019 2.930763 9.000000
6.824502 -7.781853 0.549688 75.000000
91.622147 39.231453 6.654891 30.000000
38.469818 -17.767405 2.918533 23.000000
6.764032 -7.656110 0.533614 37.000000
91.711456 39.649090 6.706424 27.000000
38.591496 -17.660419 2.908185 20.000000
6.798995 -7.639073 0.525211 30.000000
91.908943 40.096737 6.800875 16.000000
38.833626 -17.599371 2.914075 22.000000
6.764490 -7.549745 0.515288 17.000000
38.998920 -17.502272 2.906654 13.000000
6.767566 -7.500333 0.508221 25.000000
39.228752 -17.457563 2.889569 25.000000
6.805441 -7.486954 0.498380 88.000000
92.458885 41.513882 6.962741 31.000000
39.421219 -17.370396 2.883932 19.000000
6.883660 -7.517463 0.494954 26.000000
53.234539 59.623310 3.993152 9.000000
92.452034 41.899197 7.008796 23.000000
39.659306 -17.302000 2.881520 23.000000
6.922324 -7.509536 0.488794 29.000000
49.522820 55.877029 3.782328 22.000000
92.440750 42.303169 7.055305 28.000000
39.879105 -17.224186 2.877652 16.000000
6.921542 -7.456292 0.479779 33.000000
49.384644 56.114529 3.852115 19.000000
40.133022 -17.167881 2.868679 11.000000
6.989988 -7.474893 0.475461 61.000000
49.285717 56.417721 3.899832 1.000000
40.283894 -17.058023 2.859638 9.000000
6.911393 -7.336758 0.461231 53.000000
49.040829 56.554420 3.949233 1.000000
40.521919 -16.983936 2.856694 13.000000
59.324772 28.194855 4.673715 10.000000
40.798473 -16.932659 2.856523 18.000000
7.692319 -8.049553 0.493911 29.000000
93.312416 44.787941 7.419290 24.000000
118.866203 3.382521 8.941213 10.000000
40.953491 -16.821306 2.847522 14.000000
7.603569 -7.893002 0.476592 18.000000
93.392303 45.207947 7.437521 29.000000
119.196320 3.787544 8.925078 10.000000
41.205311 -16.748499 2.845153 24.000000
7.542934 -7.778270 0.465488 24.000000
41.443260 -16.668486 2.841690 18.000000
7.585581 -7.765096 0.458768 26.000000
41.678284 -16.594231 2.838093 13.000000
7.609359 -7.735235 0.450982 17.000000
94.168442 46.848091 7.705343 37.000000
30.206760 -11.898758 2.042576 7.000000
7.655462 -7.725258 0.444428 7.000000
93.863243 47.126217 7.749743 27.000000
30.306627 -11.809967 2.034989 7.000000
7.736887 -7.750401 0.439844 8.000000
28.102875 34.359470 2.606070 12.000000
93.958214 47.585274 7.808216 22.000000
30.490057 -11.752908 2.032949 7.000000
7.783169 -7.739821 0.433185 8.000000
27.868034 34.303841 2.625789 12.000000
16.085629 -15.879206 0.876222 9.000000
27.684818 34.359226 2.660145 12.000000
30.630735 -11.556066 2.013820 11.000000
16.114901 -15.786386 0.854793 5.000000
27.500715 34.351070 2.683645 12.000000
94.938858 49.379929 8.046341 11.000000
31.038887 -11.592616 2.026506 7.000000
8.851829 -8.614041 0.461539 145.000000
27.451126 34.572681 2.730997 11.000000
94.899178 49.802055 8.114830 31.000000
30.444357 -11.231516 1.973361 9.000000
8.893812 -8.585655 0.451125 25.000000
27.289062 34.628441 2.758381 10.000000
94.700287 50.141216 8.151102 21.000000
30.610613 -11.171613 1.970181 7.000000
8.926010 -8.559736 0.444832 19.000000
8.912634 -8.487387 0.434083 17.000000
21.018503 27.048119 2.197136 8.000000
30.496426 -10.889286 1.935202 7.000000
8.954795 -8.465168 0.426009 21.000000
20.863440 27.052637 2.215226 8.000000
95.819664 52.069149 8.448628 17.000000
8.953233 -8.401766 0.413740 19.000000
20.740396 27.088097 2.242088 8.000000
95.643936 52.406929 8.544964 38.000000
20.718502 27.265961 2.274520 8.000000
95.828140 52.965462 8.617163 12.000000
20.644257 27.375967 2.307425 8.000000
68.341553 38.100937 6.199224 16.000000
92.647423 8.317461 7.092180 6.000000
7.814697 -7.175920 0.338980 55.000000
68.181580 38.308674 6.237410 18.000000
92.561264 8.602942 7.087618 7.000000
45.787117 -15.417964 2.811108 9.000000
23.659184 31.868736 2.733698 10.000000
68.100494 38.607895 6.284759 17.000000
92.499939 8.971911 7.101937 1.000000
38.424435 -12.774659 2.341864 8.000000
23.626232 32.045841 2.770083 10.000000
67.901337 38.824535 6.293210 14.000000
45.513557 -14.964097 2.762498 9.000000
21.200396 28.966665 2.528982 6.000000
67.261299 38.739471 6.299682 28.000000
45.578514 -14.800563 2.746346 20.000000
24.190607 33.307739 2.936330 10.000000
67.154083 39.037552 6.345207 24.000000
45.800102 -14.669541 2.739285 9.000000
9.031054 -7.992813 0.345294 19.000000
24.075905 33.394352 2.965428 10.000000
67.162445 39.372463 6.400626 11.000000
9.051525 -7.954759 0.338699 21.000000
66.798630 39.473129 6.419949 5.000000
9.069454 -7.911788 0.331975 20.000000
20.147243 28.381384 2.568162 12.000000
66.346695 39.534874 6.431116 8.000000
9.068336 -7.852469 0.322498 21.000000
20.063988 28.474155 2.600769 9.000000
66.230385 39.763775 6.459741 4.000000
75.186256 -22.915018 4.421985 20.000000
9.089643 -7.812808 0.313862 125.000000
19.583927 28.010347 2.581826 8.000000
65.805832 39.853428 6.473775 1.000000
75.358086 -22.680210 4.399851 17.000000
9.095527 -7.760081 0.306816 20.000000
22.304787 32.152218 2.983520 9.000000
65.573685 40.042057 6.532861 5.000000
75.600105 -22.451195 4.381534 8.000000
9.108811 -7.713907 0.297970 19.000000
22.253132 32.318054 3.026126 9.000000
65.027527 40.020847 6.532598 7.000000
75.251434 -22.047836 4.342885 24.000000
9.131936 -7.678914 0.293680 24.000000
21.272572 31.137705 2.941389 8.000000
64.864792 40.249229 6.571291 6.000000
75.198891 -21.733484 4.307819 17.000000
9.125636 -7.616695 0.284275 18.000000
21.215740 31.288445 2.975169 9.000000
63.620140 39.800610 6.499520 26.000000
9.134358 -7.567346 0.277466 25.000000
21.205185 31.520981 3.023230 9.000000
63.678314 40.115898 6.544775 26.000000
75.641571 -21.276133 4.310590 21.000000
9.154458 -7.527588 0.268958 28.000000
21.417580 32.090034 3.097366 11.000000
63.640953 40.450127 6.584093 5.000000
75.639427 -20.976669 4.264835 20.000000
9.147310 -7.465683 0.257634 26.000000
21.309137 32.170189 3.138577 7.000000
63.393505 40.588623 6.625338 10.000000
75.913254 -20.753275 4.275957 7.000000
9.163030 -7.422723 0.253190 22.000000
23.195509 35.298359 3.472554 9.000000
45.011364 -12.128144 2.524669 4.000000
9.186413 -7.386065 0.244854 33.000000
23.097706 35.418301 3.513552 10.000000
61.955841 40.296116 6.583057 1.000000
9.200518 -7.344677 0.238378 30.000000
21.648390 33.463314 3.339739 10.000000
61.672523 40.418888 6.632769 4.000000
76.421219 -20.005972 4.236813 23.000000
9.207849 -7.295435 0.233771 26.000000
61.263462 40.472565 6.643442 9.000000
76.672195 -19.771681 4.260540 18.000000
9.234653 -7.261736 0.225570 24.000000
20.115088 31.586527 3.210395 9.000000
61.016483 40.631420 6.671464 17.000000
43.393505 -11.020547 2.393368 73.000000
9.225829 -7.200232 0.218578 27.000000
21.174915 33.495403 3.425124 10.000000
60.962334 40.903240 6.719873 10.000000
43.409794 -10.855473 2.384224 197.000000
9.244370 -7.160337 0.210228 31.000000
21.004549 33.510101 3.460083 10.000000
60.610138 40.989883 6.749080 9.000000
43.748806 -10.778128 2.384990 200.000000
9.262711 -7.120379 0.203931 24.000000
20.919752 33.648247 3.494281 8.000000
29.306160 19.968830 3.289778 5.000000
86.782921 15.739838 7.111795 14.000000
44.079567 -10.688403 2.392932 171.000000
9.261034 -7.065241 0.195188 34.000000
20.033680 32.488003 3.406430 10.000000
29.287851 20.113934 3.327251 10.000000
86.804626 16.056948 7.133633 19.000000
44.424011 -10.599680 2.417499 192.000000
9.270979 -7.019220 0.190794 27.000000
20.082329 32.822800 3.468012 9.000000
29.207838 20.209385 3.344916 8.000000
86.871307 16.398800 7.159534 16.000000
44.774487 -10.510005 2.418360 149.000000
9.287510 -6.980866 0.184547 26.000000
20.155628 33.189320 3.526987 9.000000
29.225071 20.380110 3.386793 7.000000
86.984032 16.718998 7.220038 17.000000
45.107243 -10.422120 2.442455 22.000000
9.289041 -6.928883 0.180025 27.000000
21.032507 34.907299 3.737591 10.000000
60.765198 42.706493 7.099202 10.000000
88.218742 17.307829 7.343782 21.000000
9.306436 -6.888914 0.171786 26.000000
21.201536 35.481377 3.827089 10.000000
60.624893 42.924816 7.139524 10.000000
88.770470 17.721979 7.410467 7.000000
17.265245 -12.682584 0.306618 29.000000
60.593742 43.237057 7.193808 12.000000
46.386398 -10.181738 2.472259 7.000000
17.327858 -12.631060 0.299419 31.000000
19.273317 32.784992 3.594938 9.000000
60.336311 43.372009 7.246633 6.000000
88.109306 18.246561 7.429227 30.000000
46.701199 -10.071564 2.495414 9.000000
17.467331 -12.634949 0.289737 31.000000
19.958937 34.237885 3.774120 10.000000
60.383411 43.742428 7.310911 9.000000
87.353096 18.424107 7.386796 5.000000
47.132156 -9.992458 2.508130 7.000000
17.533953 -12.585507 0.278772 33.000000
19.722704 34.105717 3.793575 10.000000
60.563122 44.211983 7.418310 7.000000
86.802147 18.624615 7.392464 20.000000
47.339123 -9.855172 2.525667 5.000000
17.539318 -12.492208 0.270610 28.000000
20.068394 34.998882 3.927358 10.000000
62.508564 45.967514 7.730915 11.000000
86.442307 18.879082 7.414313 18.000000
85.279564 -17.427837 4.531219 19.000000
17.540226 -12.396206 0.254924 33.000000
20.080923 35.320107 3.990913 10.000000
62.066418 45.993824 7.765118 1.000000
87.187103 19.376816 7.515633 22.000000
84.323776 -16.910782 4.492162 1.000000
17.569202 -12.320377 0.250941 38.000000
19.713486 34.957264 3.984553 10.000000
86.988731 19.651623 7.551429 5.000000
84.377396 -16.615370 4.491901 1.000000
17.599863 -12.250454 0.243281 34.000000
19.515203 34.904037 4.012599 10.000000
60.067181 45.181740 7.687784 8.000000
86.135376 19.790934 7.530206 11.000000
85.461586 -16.503719 4.561602 3.000000
17.591234 -12.148978 0.235081 28.000000
19.359837 34.911697 4.047916 8.000000
34.605156 26.219175 4.463648 9.000000
85.722336 20.011311 7.546585 12.000000
17.643990 -12.090140 0.223991 18.000000
19.198545 34.922024 4.083094 8.000000
34.513618 26.349493 4.502566 9.000000
19.237555 34.992981 4.126606 8.000000
34.571194 26.393450 4.579144 9.000000
85.667068 -15.939322 4.719188 1.000000
19.334452 34.880276 4.093112 10.000000
59.706604 45.254112 7.861054 7.000000
85.968674 20.068815 7.754558 5.000000
17.647766 -12.092729 0.261383 27.000000
19.418650 34.745583 4.057157 10.000000
59.965660 45.105377 7.846862 13.000000
85.744217 19.685303 7.743224 1.000000
85.445824 -16.547089 4.789732 8.000000
17.603132 -12.157195 0.280052 37.000000
19.649504 34.858025 4.057500 10.000000
86.894478 19.630329 7.856533 16.000000
85.376930 -16.843155 4.804371 3.000000
17.574661 -12.232911 0.299000 38.000000
62.169258 46.070030 8.037262 1.000000
87.128975 19.347940 7.839874 22.000000
83.991692 -16.859430 4.774533 1.000000
17.562319 -12.320122 0.310791 32.000000
20.151466 35.157978 4.044796 10.000000
62.466412 45.936516 7.999145 12.000000
86.521561 18.880569 7.794516 28.000000
85.179390 -17.453835 4.861216 16.000000
17.524736 -12.399022 0.329743 35.000000
19.831240 34.307220 3.920333 10.000000
60.277466 44.003448 7.685960 20.000000
87.250572 18.720831 7.838561 38.000000
47.259663 -9.864450 2.724528 120.000000
17.552299 -12.515313 0.342412 32.000000
19.959419 34.252453 3.901053 10.000000
60.410454 43.762020 7.629786 12.000000
46.870689 -9.962672 2.720970 155.000000
17.546661 -12.608555 0.362062 30.000000
60.495270 43.502289 7.608132 14.000000
88.121971 18.233143 7.904626 25.000000
46.548119 -10.055556 2.729181 183.000000
17.472197 -12.643115 0.372684 37.000000
19.385332 32.726643 3.682662 6.000000
60.600853 43.242130 7.562043 14.000000
87.885986 17.864634 7.893590 19.000000
46.219292 -10.178885 2.720562 192.000000
17.328262 -12.645255 0.381929 28.000000
21.167946 35.439205 3.967518 10.000000
60.635845 42.948463 7.521452 12.000000
87.005943 17.353922 7.777575 22.000000
9.351596 -6.876972 0.216804 25.000000
21.028517 34.928253 3.889786 10.000000
60.649544 42.625210 7.464511 8.000000
86.764572 16.975359 7.765934 13.000000
9.290056 -6.884322 0.224037 29.000000
20.158491 33.207096 3.672107 9.000000
29.201979 20.371584 3.579015 8.000000
88.438828 16.982615 7.894597 10.000000
45.057690 -10.435526 2.715376 104.000000
9.300683 -6.945149 0.233012 27.000000
20.179155 32.981052 3.634452 9.000000
29.204348 20.214510 3.551418 1.000000
44.736881 -10.534138 2.706401 159.000000
9.295005 -6.994120 0.241635 32.000000
20.068928 32.532452 3.559450 15.000000
88.546234 16.331163 7.893286 23.000000
44.366051 -10.618593 2.718263 169.000000
9.273120 -7.031031 0.251894 26.000000
20.906584 33.627068 3.659295 8.000000
29.334356 19.995541 3.518449 8.000000
44.015991 -10.705528 2.707136 152.000000
9.271014 -7.083099 0.258652 27.000000
21.055180 33.590874 3.628841 9.000000
29.380116 19.869408 3.496426 8.000000
43.682320 -10.786012 2.696794 171.000000
9.276570 -7.141342 0.265669 31.000000
21.205566 33.569828 3.606591 10.000000
29.441542 19.761526 3.489257 7.000000
43.365177 -10.876489 2.703152 184.000000
9.239549 -7.164346 0.275531 27.000000
20.003366 31.411093 3.349757 9.000000
61.333477 40.842510 7.212177 3.000000
43.498219 -11.079472 2.729684 10.000000
9.236707 -7.216506 0.284421 28.000000
20.305264 31.628695 3.354426 9.000000
61.576393 40.694733 7.158971 1.000000
76.221024 -19.712097 4.801463 1.000000
9.229714 -7.265678 0.291178 30.000000
21.627922 33.457279 3.527515 10.000000
61.746983 40.483097 7.148499 17.000000
76.197876 -19.975924 4.817951 8.000000
9.195028 -7.293117 0.299124 29.000000
22.980867 35.266033 3.697459 10.000000
75.909019 -20.183641 4.831633 23.000000
9.195445 -7.348514 0.306179 24.000000
23.104549 35.159939 3.651216 10.000000
63.040802 40.689342 7.185088 16.000000
44.935154 -12.141265 2.871371 8.000000
9.183897 -7.394605 0.312873 26.000000
21.311182 32.197685 3.330550 9.000000
63.452568 40.626438 7.175189 1.000000
75.555229 -20.683746 4.846084 24.000000
9.155271 -7.421732 0.320968 26.000000
21.353235 32.005722 3.284944 9.000000
63.696938 40.470108 7.160223 15.000000
75.389091 -20.935587 4.895151 19.000000
9.147141 -7.470865 0.331955 26.000000
21.157576 31.473928 3.211255 9.000000
63.620583 40.095039 7.095346 26.000000
77.578186 -21.850082 5.056582 5.000000
9.150436 -7.529635 0.339284 25.000000
21.276840 31.402145 3.185197 9.000000
63.610310 39.779011 7.052250 26.000000
75.110115 -21.438204 4.927933 1.000000
9.122592 -7.562970 0.347557 23.000000
65.023743 40.332146 7.152100 1.000000
9.108639 -7.610604 0.356430 20.000000
22.241037 32.324638 3.232767 10.000000
65.189163 40.104641 7.140602 11.000000
75.042549 -22.015083 5.002478 18.000000
9.121404 -7.672776 0.366252 27.000000
19.486759 28.100517 2.793405 10.000000
65.467918 39.961788 7.115306 7.000000
75.180527 -22.355148 5.030850 24.000000
9.096834 -7.709219 0.374730 31.000000
19.549013 27.981203 2.758327 10.000000
65.838608 39.857571 7.099026 1.000000
74.308922 -22.378592 4.977722 19.000000
9.091222 -7.761893 0.379845 134.000000
66.441490 39.906296 7.108044 5.000000
74.242989 -22.655859 5.019646 23.000000
9.093824 -7.827447 0.391746 25.000000
20.093569 28.316244 2.750911 8.000000
66.496384 39.608349 7.057473 7.000000
74.014763 -22.883087 5.037008 23.000000
9.064865 -7.860544 0.400122 21.000000
66.997063 39.606171 7.082936 15.000000
73.710541 -23.085356 5.035567 23.000000
9.064941 -7.913426 0.407589 16.000000
67.392426 39.491486 7.067415 9.000000
73.904343 -23.443838 5.081823 23.000000
9.060535 -7.971089 0.417199 25.000000
24.115938 33.229313 3.166456 10.000000
67.114685 38.998978 6.968621 27.000000
21.207819 28.998043 2.739106 9.000000
67.130310 38.710850 6.915976 27.000000
23.577932 31.992020 3.002150 10.000000
68.001587 38.866112 6.976532 12.000000
23.604206 31.794682 2.970494 9.000000
68.060089 38.569294 6.926701 14.000000
38.407513 -12.798819 2.717327 8.000000
7.856889 -7.119195 0.398042 13.000000
68.278534 38.410198 6.909057 17.000000
20.598825 27.335562 2.513535 8.000000
68.439400 38.171146 6.869784 7.000000
20.703209 27.265589 2.484026 8.000000
95.552834 52.791523 9.512421 20.000000
20.801022 27.186935 2.459767 8.000000
95.717590 52.447285 9.472153 29.000000
20.881617 27.095758 2.434093 8.000000
95.737778 52.046299 9.399534 12.000000
8.947975 -8.402709 0.499446 23.000000
21.006556 27.052225 2.407044 8.000000
91.911087 6.862435 7.901492 3.000000
30.545286 -10.918756 2.234164 7.000000
8.919020 -8.440196 0.508222 25.000000
94.736946 50.584820 9.207090 1.000000
91.805283 6.532370 7.890388 19.000000
30.640358 -11.079559 2.255501 7.000000
8.920308 -8.503605 0.518687 32.000000
94.736717 50.181686 9.134302 29.000000
91.534561 6.208101 7.849177 20.000000
30.565269 -11.179252 2.275805 8.000000
8.909884 -8.550244 0.526204 38.000000
27.182901 34.259422 2.981450 11.000000
94.912399 49.830124 9.058191 30.000000
30.825476 -11.396574 2.298127 7.000000
8.892586 -8.596473 0.535691 105.000000
27.381037 34.226063 2.949663 12.000000
94.868980 49.385662 8.981142 1.000000
30.717339 -11.484742 2.304692 7.000000
27.592402 34.244526 2.928698 12.000000
30.744261 -11.623421 2.321423 7.000000
16.117981 -15.816992 1.009665 16.000000
27.593548 33.990200 2.877204 12.000000
7.749973 -7.655863 0.494683 19.000000
27.832609 34.029030 2.865989 12.000000
93.902733 47.557175 8.727831 30.000000
7.718869 -7.686603 0.504190 11.000000
28.019110 34.014084 2.842055 12.000000
94.124985 47.278198 8.696849 30.000000
42.074535 -16.429560 3.245645 19.000000
7.728360 -7.747266 0.514141 10.000000
28.037125 33.782875 2.785142 12.000000
94.299614 46.913349 8.659262 16.000000
41.828484 -16.510420 3.231311 18.000000
7.673769 -7.751845 0.518210 6.000000
41.620258 -16.596380 3.251126 10.000000
41.434261 -16.698483 3.241356 21.000000
7.549968 -7.739441 0.528799 10.000000
93.087685 45.100605 8.358750 22.000000
41.173145 -16.768927 3.241316 20.000000
7.600525 -7.843133 0.539891 7.000000
93.160637 44.715092 8.314222 17.000000
40.938061 -16.840025 3.242951 15.000000
7.522996 -7.820281 0.544011 7.000000
48.201912 55.980576 4.414755 1.000000
93.284775 44.314819 8.254935 1.000000
40.704647 -16.918711 3.244822 21.000000
7.009858 -7.343091 0.517821 19.000000
48.300106 55.739510 4.381851 1.000000
40.474762 -16.997400 3.262256 14.000000
6.961104 -7.340603 0.524866 35.000000
48.674477 55.757298 4.319469 1.000000
40.310688 -17.102568 3.261746 19.000000
7.023012 -7.460462 0.535179 27.000000
40.038860 -17.152407 3.259866 22.000000
6.991955 -7.482229 0.542067 25.000000
49.506256 55.877995 4.252233 7.000000
92.408867 42.308083 7.963037 35.000000
39.832829 -17.237204 3.263449 19.000000
6.934969 -7.473372 0.546807 27.000000
53.372116 59.819412 4.510172 1.000000
92.440475 41.932858 7.917449 31.000000
39.622147 -17.318727 3.266547 22.000000
6.849702 -7.435961 0.551077 29.000000
53.659321 59.699398 4.473760 1.000000
92.682465 41.633713 7.889371 32.000000
39.405323 -17.388033 3.268776 15.000000
6.863316 -7.511023 0.561718 36.000000
93.068451 41.436745 7.874712 1.000000
39.200657 -17.453257 3.271647 21.000000
6.901855 -7.603682 0.574124 36.000000
92.877495 40.963856 7.810764 1.000000
38.985332 -17.528881 3.274024 16.000000
6.787456 -7.525017 0.571894 50.000000
91.788025 40.082127 7.653985 26.000000
38.778538 -17.607050 3.284487 19.000000
6.792860 -7.586734 0.581821 28.000000
91.543205 39.576351 7.586408 28.000000
38.584373 -17.681599 3.288152 12.000000
6.754719 -7.600005 0.589839 84.000000
91.653404 39.225906 7.548573 34.000000
38.334442 -17.721119 3.286674 19.000000
6.779379 -7.684288 0.601626 161.000000
25.613760 27.294970 1.915823 8.000000
91.737106 38.883415 7.509264 35.000000
6.762696 -7.724966 0.609966 211.000000
25.692642 27.188210 1.888430 9.000000
91.481415 38.380119 7.441944 28.000000
6.645060 -7.641572 0.608733 29.000000
25.758141 27.058168 1.872869 9.000000
91.485718 37.988194 7.396146 29.000000
34.529842 -16.432919 3.023040 7.000000
6.604203 -7.656444 0.616657 21.000000
25.858486 26.964979 1.833746 9.000000
91.399971 37.579071 7.326533 24.000000
33.291325 -15.993417 2.932695 3.000000
6.628693 -7.733829 0.624778 17.000000
25.971907 26.885303 1.808630 4.000000
91.664154 37.295521 7.301970 11.000000
31.785252 -15.406675 2.823354 5.000000
6.480370 -7.617102 0.620434 38.000000
91.090233 36.673450 7.211032 35.000000
6.491227 -7.692217 0.633242 25.000000
91.159805 36.332191 7.172018 23.000000
90.935127 35.856968 7.075350 27.000000
26.323982 -13.222319 2.390845 20.000000
6.479371 -7.843357 0.661458 33.000000
90.627808 34.970360 6.963136 8.000000
26.260889 -13.311385 2.405048 14.000000
6.312438 -7.695834 0.654133 32.000000
30.402012 30.137856 1.884034 11.000000
90.486015 34.553249 6.908949 26.000000
6.302871 -7.741867 0.661328 31.000000
30.441528 29.956612 1.864729 27.000000
90.315697 34.109447 6.852482 27.000000
77.560066 -4.485667 6.605721 1.000000
6.198763 -7.671247 0.663725 32.000000
90.087250 33.646404 6.792011 32.000000
77.187370 -4.748026 6.548228 1.000000
6.137390 -7.649765 0.665167 39.000000
30.433073 29.512306 1.776784 26.000000
89.911629 33.205811 6.752737 13.000000
77.482651 -5.051319 6.574805 1.000000
23.170584 -12.164828 2.174543 11.000000
6.189811 -7.773301 0.680901 71.000000
90.666351 33.125351 6.766833 20.000000
22.464701 -11.899468 2.121311 12.000000
6.256785 -7.916781 0.700303 33.000000
91.422684 33.022377 6.780105 28.000000
21.855436 -11.684427 2.081068 10.000000
92.367378 32.981400 6.806754 16.000000
21.232042 -11.451404 2.046893 9.000000
6.493626 -8.344434 0.750491 26.000000
92.501511 32.647530 6.738966 26.000000
77.131958 -6.138149 6.579034 1.000000
20.624928 -11.212409 1.991937 10.000000
6.493045 -8.401018 0.761090 33.000000
56.279308 52.628410 2.973532 8.000000
93.450752 32.616165 6.765072 26.000000
77.347252 -6.440654 6.599367 1.000000
20.056677 -11.003469 1.953187 10.000000
6.499786 -8.470686 0.772834 26.000000
56.274166 52.256588 2.896490 1.000000
94.628242 32.638550 6.806503 8.000000
77.619766 -6.749899 6.638382 1.000000
19.540211 -10.804583 1.910296 10.000000
6.468450 -8.494129 0.778425 27.000000
94.417831 32.179234 6.765349 21.000000
77.462837 -7.022408 6.599771 1.000000
19.016966 -10.606455 1.870587 21.000000
6.439951 -8.521323 0.786245 26.000000
56.603321 51.831051 2.800841 8.000000
94.830498 31.932415 6.751399 18.000000
18.557795 -10.435454 1.840224 10.000000
6.469601 -8.622967 0.802994 21.000000
56.575642 51.389698 2.735813 9.000000
95.611031 31.824091 6.763683 17.000000
18.198679 -10.329888 1.819750 18.000000
6.363085 -8.552299 0.803383 43.000000
56.742756 51.163181 2.681401 5.000000
95.995789 31.561810 6.729526 33.000000
78.232529 -7.946571 6.699931 1.000000
18.172419 -10.394811 1.827924 23.000000
6.293043 -8.516989 0.801819 18.000000
56.749363 50.828968 2.633795 10.000000
96.291939 31.305727 6.707472 20.000000
77.924751 -8.162721 6.675735 1.000000
18.152452 -10.467653 1.840636 25.000000
6.256878 -8.530182 0.812142 18.000000
56.977024 50.675556 2.556191 9.000000
78.150696 -8.476082 6.711528 1.000000
18.096462 -10.523937 1.842539 11.000000
6.228253 -8.556743 0.818067 22.000000
56.949833 50.278736 2.506866 3.000000
98.222282 31.139078 6.735543 14.000000
18.088860 -10.604184 1.856587 15.000000
6.197926 -8.577848 0.827302 30.000000
18.045025 -10.667547 1.863463 17.000000
6.273658 -8.750041 0.847358 70.000000
28.026279 24.380053 1.173864 13.000000
93.866623 28.984776 6.352883 1.000000
18.039186 -10.753514 1.878002 15.000000
58.055645 50.129974 2.356913 1.000000
93.557625 28.549879 6.308384 1.000000
18.005527 -10.818812 1.882113 23.000000
14.355124 -20.327084 1.997823 12.000000
58.030910 49.738506 2.321788 15.000000
93.620880 28.176685 6.271039 1.000000
17.960083 -10.881298 1.899993 14.000000
58.142014 49.465237 2.252288 19.000000
93.518761 27.808075 6.240889 5.000000
17.930206 -10.948940 1.904561 21.000000
6.540122 -9.406498 0.937884 21.000000
93.480545 27.388765 6.162672 14.000000
17.918785 -11.032334 1.918739 17.000000
6.099309 -8.838152 0.886636 57.000000
32.760540 27.469875 1.194209 11.000000
93.595856 27.085857 6.147244 22.000000
79.975494 -11.012166 6.906816 2.000000
17.869484 -11.092507 1.921502 12.000000
6.013037 -8.781818 0.886249 20.000000
32.784641 27.286064 1.169083 21.000000
94.205208 26.888397 6.146419 21.000000
17.846684 -11.164843 1.934344 17.000000
6.012803 -8.847570 0.898282 27.000000
32.754036 27.058002 1.134766 13.000000
17.859818 -11.264347 1.947663 29.000000
6.010531 -8.914335 0.912267 17.000000
32.486404 26.637188 1.092754 10.000000
17.819527 -11.326073 1.958718 10.000000
5.879367 -8.785811 0.902583 24.000000
33.111496 26.947386 1.088083 7.000000
94.323517 25.821690 6.032742 1.000000
17.773123 -11.388253 1.965625 10.000000
5.813626 -8.756841 0.906652 47.000000
94.202728 25.417847 5.984829 1.000000
17.739050 -11.458348 1.973924 13.000000
5.871557 -8.914838 0.928285 120.000000
32.985741 26.445471 1.011100 10.000000
94.592491 25.151438 5.952254 1.000000
17.723112 -11.535928 1.987788 10.000000
5.771918 -8.830503 0.924821 10.000000
87.477898 22.916763 5.467562 4.000000
17.696779 -11.611351 1.997049 10.000000
59.094078 46.686436 1.695893 17.000000
87.297325 22.544117 5.435531 8.000000
86.172585 -14.420344 7.474960 5.000000
9.981951 -6.599395 1.135359 4.000000
5.847922 -9.088126 0.964503 7.000000
59.147697 46.377716 1.640043 14.000000
9.924394 -6.613744 1.133662 7.000000
5.819568 -9.117325 0.972943 1.000000
59.286613 46.136753 1.586725 1.000000
9.913150 -6.656339 1.141334 1.000000
13.863509 -21.887590 2.348763 9.000000
59.464088 45.925922 1.534483 1.000000
84.479546 20.828354 5.123586 3.000000
48.973541 -8.741155 4.264867 2.000000
17.613028 -11.920434 2.036609 9.000000
13.790265 -21.949511 2.368215 9.000000
59.633053 45.708462 1.468915 8.000000
85.298332 20.698883 5.153236 5.000000
48.693501 -8.866669 4.234447 1.000000
17.543665 -11.967476 2.044869 10.000000
13.797194 -22.131664 2.396427 8.000000
59.816700 45.502155 1.429955 1.000000
85.041237 20.306742 5.087238 1.000000
17.529905 -12.047971 2.055649 10.000000
13.727972 -22.201471 2.421495 8.000000
48.245422 -9.150956 4.201202 135.000000
17.497610 -12.120439 2.060807 10.000000
13.700500 -22.339676 2.444916 9.000000
33.232803 7.684617 1.942863 9.000000
47.949776 -9.268393 4.169663 185.000000
17.467142 -12.189779 2.065970 10.000000
13.624133 -22.390152 2.463678 9.000000
33.290279 7.569477 1.938610 10.000000
47.684856 -9.381328 4.140764 149.000000
17.457796 -12.278651 2.085215 10.000000
13.569600 -22.485710 2.482577 9.000000
33.299297 7.443275 1.919611 5.000000
47.727592 -9.571570 4.156052 6.000000
17.435085 -12.344728 2.090889 10.000000
13.535933 -22.607939 2.514043 15.000000
61.088348 44.726288 1.136502 15.000000
36.530987 -7.465518 3.163764 9.000000
17.381041 -12.411511 2.094129 17.000000
13.518147 -22.767153 2.544876 15.000000
36.489529 -7.589833 3.169001 18.000000
17.345097 -12.477491 2.102563 10.000000
13.458122 -22.847359 2.562587 10.000000
87.580452 18.567877 4.879957 1.000000
36.530243 -7.738091 3.168414 8.000000
17.343264 -12.572891 2.111688 10.000000
13.431116 -22.993813 2.592240 17.000000
17.315344 -12.645092 2.113650 10.000000
13.362564 -23.060907 2.608618 14.000000
17.318689 -12.638268 2.075743 10.000000
13.355697 -23.039785 2.573649 13.000000
36.590111 -7.750773 3.035577 5.000000
17.328465 -12.552937 2.045267 10.000000
13.412950 -22.953512 2.527083 25.000000
36.496513 -7.597932 3.005946 9.000000
17.372330 -12.487884 2.018653 10.000000
13.437669 -22.803532 2.488011 13.000000
61.119385 44.732632 0.846062 16.000000
36.438267 -7.446569 2.972749 4.000000
17.430998 -12.442593 2.005581 9.000000
13.497049 -22.713556 2.455665 14.000000
33.305664 7.438595 1.728761 8.000000
17.426998 -12.348137 1.981349 10.000000
13.521063 -22.574163 2.422523 15.000000
33.255447 7.549348 1.721544 24.000000
47.688236 -9.390638 3.833756 155.000000
17.441166 -12.253309 1.958592 9.000000
13.586995 -22.496777 2.391794 9.000000
33.202927 7.665500 1.726231 14.000000
47.964123 -9.262483 3.827444 166.000000
17.480865 -12.190285 1.943257 10.000000
13.655112 -22.423435 2.361583 9.000000
33.354485 7.829366 1.735591 3.000000
48.258095 -9.162086 3.839961 123.000000
17.534586 -12.141524 1.929730 10.000000
13.710928 -22.339178 2.334679 9.000000
85.177422 20.323545 4.420705 3.000000
48.852024 -9.089469 3.858368 1.000000
17.559826 -12.064022 1.908886 10.000000
13.780888 -22.269667 2.305037 8.000000
85.652855 20.753258 4.479956 30.000000
48.769279 -8.889262 3.823122 1.000000
17.569738 -11.980770 1.894182 10.000000
13.828177 -22.172743 2.272413 7.000000
85.121185 20.955032 4.440795 22.000000
9.913019 -6.706573 1.055532 6.000000
13.891841 -22.094061 2.246606 7.000000
59.408382 46.198223 1.090268 21.000000
84.781456 21.201271 4.442388 11.000000
9.895475 -6.644471 1.044899 6.000000
59.171455 46.363003 1.115277 16.000000
85.993111 -14.714520 6.636400 1.000000
9.937099 -6.619706 1.036226 6.000000
5.825584 -9.119730 0.912519 1.000000
59.228092 46.758747 1.172261 22.000000
85.820229 22.098764 4.520299 17.000000
86.472885 -14.486114 6.654092 1.000000
9.990837 -6.602765 1.032982 1.000000
5.816236 -9.031955 0.896422 7.000000
85.855515 22.459723 4.526667 1.000000
17.687853 -11.592251 1.805592 10.000000
5.712610 -8.803373 0.864644 10.000000
32.917320 26.381180 0.692142 3.000000
95.448456 25.343363 5.054592 1.000000
17.714460 -11.525895 1.793251 14.000000
5.767072 -8.816368 0.858735 220.000000
32.614586 26.326054 0.716974 3.000000
95.509216 25.734602 5.062770 1.000000
17.736961 -11.448226 1.772715 24.000000
5.802582 -8.800078 0.848104 33.000000
32.595253 26.508339 0.733350 9.000000
95.225281 26.014965 5.069777 12.000000
17.769205 -11.381367 1.760830 16.000000
5.772912 -8.688930 0.831999 73.000000
32.408531 26.554424 0.760594 29.000000
17.816038 -11.319491 1.746510 24.000000
5.857899 -8.747122 0.828528 12.000000
32.376320 26.726961 0.776791 19.000000
17.830921 -11.241774 1.732999 17.000000
6.036577 -8.946224 0.839902 15.000000
32.512169 27.040087 0.811956 10.000000
17.838968 -11.155685 1.718706 21.000000
6.052914 -8.899909 0.828182 30.000000
58.387741 48.923710 1.502538 19.000000
80.059006 -11.037904 5.948962 1.000000
17.880499 -11.090700 1.707689 10.000000
6.032341 -8.800124 0.811583 21.000000
58.368824 49.255669 1.546472 13.000000
79.812454 -10.720153 5.899563 1.000000
17.899143 -11.015933 1.687326 14.000000
58.236786 49.510834 1.587812 1.000000
93.789192 27.835049 5.092942 12.000000
80.094521 -10.459327 5.903366 1.000000
17.935896 -10.948117 1.675924 10.000000
58.137589 49.794746 1.643537 10.000000
79.383385 -10.070685 5.806072 1.000000
