VERSION .7
FIELDS x y z intensity
SIZE 4 4 4 4
TYPE F F F F
COUNT 1 1 1 1
WIDTH 1223
HEIGHT 1
VIEWPOINT 0 0 0 1 0 0 0
POINTS 1223
DATA ascii
25.880896 30.745440 -0.968145 1.000000
32.360542 -12.904001 -1.801418 6.000000
7.522649 -7.665801 -0.455787 37.000000
25.944603 30.625317 -0.994963 1.000000
6.569058 0.199555 -0.322579 1.000000
31.739597 -12.791422 -1.751485 6.000000
7.138280 -7.322535 -0.425028 34.000000
28.192871 33.009613 -1.121581 1.000000
6.609687 0.174235 -0.325693 1.000000
31.165850 -12.693173 -1.710603 6.000000
7.136867 -7.380125 -0.417730 8.000000
28.287724 32.887512 -1.158662 3.000000
6.060503 2.854441 -0.281945 1.000000
6.670193 0.151368 -0.328645 1.000000
30.394936 -12.509274 -1.653540 6.000000
7.270495 -7.571015 -0.417920 10.000000
28.544729 32.941319 -1.209916 1.000000
6.124117 2.859627 -0.288007 6.000000
6.535891 0.124354 -0.322004 1.000000
27.283354 -11.345791 -1.471007 9.000000
7.180893 -7.532779 -0.405258 35.000000
29.693352 34.014153 -1.292742 6.000000
6.785971 0.104233 -0.334303 1.000000
27.288099 -11.465256 -1.463161 9.000000
7.050449 -7.450430 -0.390470 21.000000
28.791195 -12.221137 -1.529730 6.000000
7.067753 -7.523761 -0.385736 255.000000
28.283354 -12.128105 -1.488948 5.000000
7.154150 -7.669202 -0.382745 23.000000
27.670921 -11.985745 -1.448460 7.000000
7.183933 -7.757942 -0.376618 7.000000
54.665764 60.840488 -2.656153 9.000000
27.288902 -11.939248 -1.415112 6.000000
7.081358 -7.703617 -0.359919 9.000000
18.346487 20.297338 -0.902848 6.000000
26.779663 -11.833577 -1.375580 6.000000
7.169178 -7.854004 -0.356483 7.000000
18.346394 20.134169 -0.927415 11.000000
26.293663 -11.723193 -1.342534 6.000000
7.170750 -7.913785 -0.348671 11.000000
25.886391 -11.655535 -1.318946 6.000000
6.836313 -7.589830 -0.328149 105.000000
25.408033 -11.552341 -1.272313 6.000000
6.805306 -7.611321 -0.319079 33.000000
25.016592 -11.485194 -1.240368 6.000000
6.832635 -7.701195 -0.310953 36.000000
25.609108 27.309111 -1.418597 8.000000
24.675426 -11.438251 -1.220767 6.000000
7.118340 -8.082700 -0.315894 28.000000
25.609665 27.128845 -1.439720 9.000000
39.998867 16.789337 -2.091261 5.000000
24.181873 -11.317326 -1.175048 6.000000
7.144330 -8.166653 -0.308771 18.000000
25.677065 27.001295 -1.470502 9.000000
40.054508 16.640284 -2.113731 165.000000
23.901045 -11.292870 -1.158783 6.000000
25.816431 26.949358 -1.505436 9.000000
40.234634 16.542458 -2.135244 20.000000
7.157581 -0.227437 -0.355252 1.000000
6.896740 -7.998414 -0.282089 69.000000
18.878603 19.556194 -1.124995 5.000000
6.972103 -0.247126 -0.344869 1.000000
6.742686 -7.880735 -0.266155 247.000000
18.987776 19.539200 -1.156215 6.000000
6.649163 -7.829337 -0.256419 35.000000
19.177361 19.590115 -1.187347 7.000000
6.607677 -7.838535 -0.246973 38.000000
19.262424 19.540096 -1.212373 5.000000
6.484211 -7.746784 -0.231019 68.000000
19.530258 19.667084 -1.248921 7.000000
6.967791 -0.349315 -0.343651 1.000000
29.404282 -14.686075 -1.337345 10.000000
6.496962 -7.814522 -0.223522 187.000000
19.590836 19.583998 -1.272420 9.000000
6.831704 -0.367600 -0.339397 1.000000
26.914631 -13.566091 -1.221097 6.000000
6.417468 -7.776711 -0.214724 26.000000
19.821222 19.669588 -1.307113 8.000000
6.830379 -0.391445 -0.339397 5.000000
26.201982 -13.316033 -1.175347 30.000000
6.352379 -7.752805 -0.204700 29.000000
19.970592 19.679934 -1.341853 8.000000
6.903579 -0.423450 -0.341906 6.000000
26.153309 -13.423669 -1.160155 26.000000
6.333494 -7.787807 -0.196246 28.000000
20.123852 19.686102 -1.371917 8.000000
25.421400 -13.154694 -1.114606 38.000000
6.309538 -7.813913 -0.185827 30.000000
20.241928 19.656939 -1.389855 9.000000
24.549744 -12.817933 -1.063918 31.000000
6.274702 -7.829307 -0.176886 34.000000
20.460361 19.723864 -1.424742 10.000000
23.760639 -12.527565 -1.013112 32.000000
6.241593 -7.849570 -0.166296 35.000000
20.585541 19.699484 -1.458336 14.000000
32.640190 -2.351130 -1.623409 8.000000
23.011362 -12.235359 -0.969314 35.000000
6.225241 -7.888182 -0.159612 18.000000
20.769075 19.736692 -1.491517 10.000000
32.486942 -2.459812 -1.616225 19.000000
22.359173 -11.993908 -0.930384 19.000000
6.092930 -7.776190 -0.146567 20.000000
20.942015 19.755468 -1.523920 7.000000
32.477989 -2.578889 -1.610539 38.000000
21.695721 -11.740622 -0.895939 11.000000
5.975461 -7.684114 -0.135922 40.000000
21.118988 19.776630 -1.556834 7.000000
32.458649 -2.697105 -1.604360 39.000000
21.074018 -11.504247 -0.859413 24.000000
6.020651 -7.801063 -0.127278 40.000000
21.332735 19.830542 -1.597813 6.000000
10.894281 3.749075 -0.656246 1.000000
32.462910 -2.817301 -1.616473 30.000000
20.533112 -11.306849 -0.826750 32.000000
6.157640 -8.036404 -0.123697 206.000000
21.492294 19.832518 -1.629908 7.000000
10.770676 3.662442 -0.651971 1.000000
32.443718 -2.924065 -1.610292 93.000000
19.967209 -11.081676 -0.793468 32.000000
21.685471 19.871073 -1.665036 7.000000
10.859410 3.648267 -0.662547 1.000000
32.606808 -3.059285 -1.618932 11.000000
19.512583 -10.923098 -0.765265 10.000000
21.820068 19.847773 -1.690433 7.000000
10.877227 3.609940 -0.666836 1.000000
19.046209 -10.753897 -0.740871 9.000000
6.037341 -8.052685 -0.094859 49.000000
21.961952 19.830227 -1.721691 10.000000
10.824378 3.546318 -0.666746 1.000000
26.745962 -2.707324 -1.319483 4.000000
18.522482 -10.543625 -0.710754 8.000000
6.092837 -8.186089 -0.085492 71.000000
22.196671 19.894966 -1.765686 7.000000
10.851106 3.511087 -0.675585 1.000000
26.729946 -2.809431 -1.328620 5.000000
18.172789 -10.441378 -0.684290 16.000000
6.080760 -8.238708 -0.075062 37.000000
22.316755 19.855572 -1.795598 9.000000
10.773343 3.442356 -0.673915 1.000000
26.471920 -2.880446 -1.302335 8.000000
18.130484 -10.505647 -0.669498 23.000000
6.190890 -8.449492 -0.067644 35.000000
10.779715 3.405037 -0.677564 1.000000
26.475845 -2.979100 -1.307718 8.000000
18.082897 -10.558326 -0.658055 17.000000
6.280532 -8.631731 -0.061483 17.000000
10.759714 3.351278 -0.679404 1.000000
18.074516 -10.642456 -0.648172 17.000000
10.818011 3.330122 -0.690315 1.000000
21.499996 -2.578944 -1.059063 1.000000
18.061367 -10.724055 -0.641767 20.000000
6.434202 -8.977263 -0.042410 33.000000
10.811958 3.280802 -0.693042 1.000000
18.019821 -10.784641 -0.630618 16.000000
10.799774 3.233925 -0.695446 1.000000
20.480156 -2.609037 -1.002518 1.000000
18.002422 -10.872617 -0.616837 12.000000
6.294631 -8.923208 -0.019059 29.000000
10.820891 3.197079 -0.700000 1.000000
20.544558 -2.693799 -1.009772 1.000000
17.979443 -10.940271 -0.602583 21.000000
6.295266 -8.983896 -0.011488 24.000000
10.822484 3.154467 -0.707251 1.000000
20.292204 -2.736401 -0.994273 1.000000
17.935053 -11.003536 -0.598768 19.000000
6.253737 -8.994598 0.000000 17.000000
10.800164 3.105059 -0.708983 1.000000
17.903456 -11.074675 -0.584355 21.000000
6.060196 -8.788035 0.009316 27.000000
10.816033 3.066747 -0.713222 1.000000
17.890478 -11.153179 -0.570470 20.000000
6.005588 -8.770940 0.020408 19.000000
10.816582 3.026150 -0.720430 5.000000
20.290537 -2.963686 -0.995728 1.000000
17.841101 -11.213409 -0.566522 20.000000
5.823161 -8.568521 0.028931 23.000000
10.822548 2.985091 -0.724029 1.000000
20.555948 -3.079443 -1.012936 1.000000
17.812878 -11.286959 -0.552203 23.000000
5.774925 -8.564903 0.039664 36.000000
10.828356 2.944029 -0.727624 1.000000
20.036264 -3.076717 -0.984330 3.000000
17.788401 -11.363037 -0.545358 16.000000
5.717169 -8.543430 0.046649 20.000000
10.873579 2.909499 -0.733818 2.000000
19.946087 -3.137742 -0.976926 1.000000
17.767962 -11.441893 -0.531250 22.000000
5.713202 -8.612098 0.057721 35.000000
10.853851 2.865685 -0.737745 1.000000
20.338762 -3.275949 -0.996740 1.000000
17.728220 -11.504045 -0.516496 16.000000
5.672327 -8.609072 0.068378 50.000000
10.883346 2.830843 -0.742981 1.000000
20.321861 -3.349688 -0.992904 1.000000
17.707003 -11.582724 -0.509721 14.000000
5.679005 -8.688354 0.076089 18.000000
10.879870 2.783358 -0.745913 1.000000
20.432737 -3.444936 -0.995306 1.000000
17.660622 -11.645034 -0.491140 20.000000
5.991430 -9.236578 0.092236 34.000000
10.941868 2.760592 -0.755467 1.000000
20.316448 -3.501957 -0.993867 1.000000
10.003772 -6.649007 -0.274685 1.000000
5.929327 -9.211104 0.103247 30.000000
11.009974 2.732852 -0.767394 1.000000
9.955661 -6.667251 -0.269816 1.000000
5.933147 -9.291689 0.113527 32.000000
11.014810 2.691232 -0.771015 1.000000
9.865020 -6.659051 -0.259706 1.000000
5.887253 -9.291159 0.120949 29.000000
11.067856 2.661243 -0.780028 1.000000
13.724438 -2.518906 -0.675125 1.000000
9.857154 -6.706462 -0.255981 1.000000
11.227750 2.656197 -0.794652 1.000000
13.592623 -2.546246 -0.664257 1.000000
9.865633 -6.765261 -0.248488 3.000000
5.635286 -9.035880 0.137546 23.000000
11.222429 2.611541 -0.799654 1.000000
13.381964 -2.557588 -0.656799 1.000000
17.508364 -12.096260 -0.434617 9.000000
5.541560 -8.958554 0.147092 32.000000
49.072857 11.230170 -3.529047 11.000000
17.468138 -12.163293 -0.427289 20.000000
5.538967 -9.024625 0.155252 22.000000
49.108219 11.049005 -3.537483 11.000000
17.431864 -12.233147 -0.412622 12.000000
5.504758 -9.039515 0.164415 25.000000
11.712307 2.587979 -0.851383 1.000000
17.419737 -12.320172 -0.402226 10.000000
5.595572 -9.264915 0.177588 21.000000
17.384880 -12.386786 -0.394963 16.000000
12.027756 2.565356 -0.883710 1.000000
12.844216 -2.699678 -0.630433 1.000000
17.368010 -12.470991 -0.380683 21.000000
12.299035 -20.697474 0.441264 37.000000
12.178172 2.550808 -0.900617 1.000000
12.604597 -2.697590 -0.621407 6.000000
17.318239 -12.531710 -0.373132 16.000000
12.264591 -20.804535 0.463714 34.000000
12.259933 2.521063 -0.916955 1.000000
12.589533 -2.742661 -0.625664 5.000000
17.296482 -12.612812 -0.369920 11.000000
12.287586 -21.010841 0.488603 81.000000
12.625552 2.545758 -0.954863 1.000000
12.457397 -2.761739 -0.621829 1.000000
17.256479 -12.676145 -0.362532 16.000000
12.200333 -21.038216 0.500935 25.000000
12.628787 2.546410 -0.977719 1.000000
12.314242 -2.732257 -0.641190 1.000000
17.249704 -12.675803 -0.399809 13.000000
12.213129 -21.060282 0.475956 51.000000
12.511147 2.572721 -0.973854 1.000000
12.401905 -2.704052 -0.651898 1.000000
17.279543 -12.600459 -0.421831 22.000000
12.196065 -20.862703 0.438696 35.000000
12.159897 2.546980 -0.949414 1.000000
12.499167 -2.677308 -0.665438 1.000000
17.298758 -12.522212 -0.443603 10.000000
12.254940 -20.788164 0.408579 29.000000
11.974951 2.554094 -0.935699 1.000000
12.811496 -2.695135 -0.688409 1.000000
17.344084 -12.458399 -0.469693 12.000000
12.279151 -20.664011 0.377604 21.000000
12.840492 -2.652127 -0.696325 1.000000
17.362637 -12.380076 -0.491364 16.000000
12.413090 -20.724340 0.349975 9.000000
11.727266 2.591284 -0.915696 1.000000
17.407612 -12.316155 -0.506252 11.000000
5.513136 -9.128421 0.139601 25.000000
17.439919 -12.243342 -0.528210 16.000000
5.511244 -9.053722 0.127650 17.000000
17.469862 -12.173551 -0.546420 10.000000
5.542891 -9.034554 0.114701 18.000000
17.522268 -12.114903 -0.561549 10.000000
5.547096 -8.967505 0.103064 10.000000
11.115191 2.629569 -0.868849 1.000000
13.483983 -2.528331 -0.759804 1.000000
9.862876 -6.765902 -0.327820 1.000000
5.623393 -9.020315 0.090908 16.000000
11.125163 2.675023 -0.866372 1.000000
13.483209 -2.477065 -0.761644 1.000000
9.840797 -6.700361 -0.334625 2.000000
10.984371 2.683795 -0.858153 1.000000
9.860852 -6.661250 -0.346946 1.000000
10.950556 2.718103 -0.852323 8.000000
14.650486 -2.580640 -0.844723 1.000000
9.947323 -6.666697 -0.355402 1.000000
5.896787 -9.238301 0.057386 63.000000
10.920988 2.755324 -0.846885 4.000000
14.467845 -2.493830 -0.836230 1.000000
17.633209 -11.724350 -0.643263 10.000000
5.920914 -9.205091 0.045846 28.000000
10.891496 2.790383 -0.845385 14.000000
19.556259 -3.297162 -1.140048 1.000000
17.644255 -11.643082 -0.664338 31.000000
10.862038 2.825300 -0.841927 1.000000
19.553240 -3.222995 -1.142646 5.000000
17.690599 -11.580814 -0.679256 12.000000
5.658486 -8.660263 0.019861 29.000000
10.827506 2.858729 -0.840057 1.000000
19.313387 -3.110792 -1.131381 4.000000
17.711468 -11.501962 -0.696883 19.000000
5.710687 -8.673882 0.007250 31.000000
10.826870 2.901051 -0.836892 6.000000
19.403358 -3.052365 -1.139429 1.000000
17.730093 -11.426267 -0.710784 11.000000
10.787576 2.932941 -0.830756 7.000000
19.329952 -2.968257 -1.144746 6.000000
17.796694 -11.377085 -0.726541 19.000000
5.892113 -8.811510 -0.016650 36.000000
10.786367 2.975112 -0.831497 6.000000
19.324287 -2.901828 -1.154101 7.000000
17.808191 -11.292705 -0.743740 22.000000
6.041725 -8.963974 -0.028300 30.000000
10.780997 3.014166 -0.827960 5.000000
19.413610 -2.842521 -1.162242 5.000000
17.832100 -11.216436 -0.757742 18.000000
5.988694 -8.818716 -0.037210 7.000000
10.765357 3.052378 -0.823686 1.000000
19.369345 -2.763565 -1.162405 5.000000
17.849497 -11.140613 -0.771533 15.000000
5.927756 -8.660512 -0.047625 38.000000
10.786562 3.105225 -0.826255 8.000000
19.498734 -2.702204 -1.172957 3.000000
17.915119 -11.090537 -0.791020 16.000000
5.977783 -8.668526 -0.060648 41.000000
10.789744 3.149010 -0.823433 1.000000
19.636448 -2.651462 -1.184148 1.000000
17.933884 -11.011436 -0.804774 27.000000
6.361711 -9.156712 -0.075895 27.000000
10.735368 3.175885 -0.816237 1.000000
19.343559 -2.539759 -1.176169 1.000000
17.960836 -10.937541 -0.818882 11.000000
6.355022 -9.075912 -0.088955 32.000000
10.747540 3.222372 -0.818055 1.000000
17.978802 -10.858350 -0.836239 17.000000
6.479154 -9.177983 -0.101964 23.000000
10.778873 3.274872 -0.817395 1.000000
18.003233 -10.787519 -0.850294 19.000000
6.645645 -9.347877 -0.116108 9.000000
10.723597 3.303107 -0.810222 1.000000
18.033676 -10.716129 -0.860873 16.000000
6.692731 -9.344860 -0.126392 9.000000
10.741421 3.347637 -0.808455 1.000000
21.310993 -2.480844 -1.312238 1.000000
18.054829 -10.639353 -0.881999 21.000000
6.662468 -9.230947 -0.139091 19.000000
10.756562 3.399789 -0.808636 2.000000
21.592474 -2.433433 -1.332819 3.000000
18.080364 -10.565311 -0.892333 24.000000
6.327051 -8.702049 -0.142722 63.000000
10.768047 3.446879 -0.806477 1.000000
18.135712 -10.508677 -0.907818 20.000000
6.305624 -8.606084 -0.152701 38.000000
20.440220 18.339958 -1.862535 7.000000
10.737844 3.476510 -0.801114 1.000000
18.150215 -10.432622 -0.917698 16.000000
6.290995 -8.523551 -0.162721 40.000000
20.203814 18.261951 -1.823206 7.000000
10.744253 3.522144 -0.798584 1.000000
26.527813 -2.694597 -1.644873 7.000000
18.517588 -10.553680 -0.949220 10.000000
6.299743 -8.473338 -0.171398 28.000000
20.409977 18.578163 -1.833136 7.000000
10.706757 3.557514 -0.790915 1.000000
26.874378 -2.630320 -1.679946 6.000000
18.981577 -10.726143 -0.990047 12.000000
6.123803 -8.173952 -0.178276 40.000000
20.968063 19.227160 -1.864643 7.000000
10.727001 3.607950 -0.789412 1.000000
32.513176 -3.056225 -2.037407 7.000000
19.490913 -10.919906 -1.026241 24.000000
6.185306 -8.196266 -0.189989 25.000000
21.081417 19.473820 -1.865967 9.000000
10.752118 3.658225 -0.792195 1.000000
19.944967 -11.078441 -1.063965 12.000000
6.272695 -8.249013 -0.200790 29.000000
21.139404 19.671467 -1.842044 8.000000
10.729724 3.694541 -0.783577 1.000000
20.531822 -11.306138 -1.105353 31.000000
6.015587 -7.853847 -0.202045 105.000000
21.009615 19.694868 -1.821873 9.000000
10.720952 3.735529 -0.781940 1.000000
32.434341 -2.689386 -2.047599 9.000000
21.076733 -11.505729 -1.145012 26.000000
6.144964 -7.962137 -0.217702 37.000000
20.847733 19.687168 -1.788958 9.000000
10.778012 3.799767 -0.783104 1.000000
32.493374 -2.574404 -2.056427 21.000000
21.739336 -11.769131 -1.204717 13.000000
6.098947 -7.845737 -0.225512 32.000000
20.675131 19.661156 -1.755032 9.000000
10.726554 3.825884 -0.778382 1.000000
32.422970 -2.449278 -2.051390 101.000000
22.393417 -12.017311 -1.251854 19.000000
6.189184 -7.901876 -0.236540 26.000000
20.474285 19.613565 -1.719238 8.000000
10.762974 3.887645 -0.778138 1.000000
32.520962 -2.336837 -2.062747 37.000000
23.150967 -12.314771 -1.305435 10.000000
6.456385 -8.181071 -0.256524 76.000000
20.360233 19.647919 -1.690916 9.000000
10.764589 3.928632 -0.771156 1.000000
23.871189 -12.585851 -1.357601 26.000000
6.683814 -8.408728 -0.273772 53.000000
20.174398 19.611897 -1.661729 8.000000
10.762897 3.977046 -0.770161 1.000000
24.677526 -12.895616 -1.420251 7.000000
6.383215 -7.970406 -0.270962 30.000000
20.003553 19.588926 -1.629043 9.000000
10.805987 4.033746 -0.770153 4.000000
25.628498 -13.273204 -1.487323 9.000000
6.319786 -7.834994 -0.279414 25.000000
19.854311 19.579008 -1.598030 9.000000
10.828847 4.087561 -0.766757 1.000000
6.477674 -0.342882 -0.414931 7.000000
26.164927 -13.429632 -1.531028 27.000000
6.395585 -7.869766 -0.290345 255.000000
19.691315 19.561150 -1.566371 9.000000
10.832686 4.134435 -0.764032 1.000000
26.191004 -13.321959 -1.545114 32.000000
6.489297 -7.928371 -0.304079 34.000000
19.571041 19.584711 -1.538266 7.000000
10.850416 4.186827 -0.760244 1.000000
27.040976 -13.629774 -1.618800 7.000000
6.492704 -7.873480 -0.311798 15.000000
19.447325 19.604090 -1.510008 6.000000
11.021177 4.299194 -0.769160 1.000000
29.414526 -14.697606 -1.775076 7.000000
6.519935 -7.850512 -0.322485 33.000000
19.239542 19.530512 -1.475164 6.000000
6.526034 -7.799515 -0.330254 32.000000
19.056652 19.473606 -1.447009 7.000000
35.161999 14.013990 -2.434498 8.000000
22.500444 -11.037466 -1.383624 6.000000
6.599480 -7.828811 -0.341462 174.000000
18.857643 19.425629 -1.409377 6.000000
35.032589 14.125644 -2.409585 8.000000
22.800514 -11.081172 -1.412884 6.000000
6.581256 -7.752119 -0.349778 27.000000
18.779766 19.474207 -1.394172 6.000000
23.146540 -11.154608 -1.450020 6.000000
6.544386 -7.651668 -0.358642 37.000000
18.698948 19.540001 -1.365337 6.000000
6.399825 -0.151938 -0.413975 1.000000
23.501097 -11.209448 -1.487637 6.000000
6.570848 -7.628537 -0.367428 53.000000
18.610821 19.591158 -1.340496 6.000000
23.816628 -11.252984 -1.518827 6.000000
6.621474 -7.630573 -0.377521 7.000000
18.344320 19.439312 -1.302555 6.000000
24.291794 -11.379108 -1.556109 6.000000
18.287374 19.521816 -1.280186 6.000000
24.644226 -11.423789 -1.594763 6.000000
7.035268 -7.991185 -0.418313 27.000000
18.043159 19.409958 -1.240484 6.000000
25.048052 -11.499637 -1.632639 6.000000
6.911775 -7.793135 -0.418374 11.000000
18.002996 19.496002 -1.223594 4.000000
25.566586 -11.624431 -1.673487 6.000000
7.019882 -7.856828 -0.434223 10.000000
17.766895 19.382370 -1.184776 7.000000
26.099718 -11.751587 -1.720593 3.000000
7.073739 -7.861700 -0.445100 5.000000
17.649380 19.389616 -1.158519 6.000000
26.324581 -11.747995 -1.747988 6.000000
7.129689 -7.871230 -0.456260 40.000000
17.501904 19.383339 -1.126537 7.000000
26.872746 -11.874710 -1.807219 6.000000
7.154798 -7.840999 -0.467161 18.000000
17.424837 19.427118 -1.102902 7.000000
27.290709 -11.940039 -1.837591 6.000000
7.161623 -7.793664 -0.473232 1.000000
17.264509 19.370455 -1.078453 5.000000
6.336106 0.080732 -0.411992 1.000000
27.814287 -12.059378 -1.891389 7.000000
17.124376 19.355585 -1.056051 1.000000
28.265150 -12.120299 -1.934890 7.000000
7.176994 -7.696384 -0.492593 24.000000
16.912397 19.257755 -1.015961 1.000000
29.002968 -12.322979 -1.988111 7.000000
7.128364 -7.590936 -0.494720 22.000000
27.284399 -11.463701 -1.887880 9.000000
7.114594 -7.520842 -0.502714 7.000000
25.781147 29.783571 -1.485747 82.000000
27.349598 -11.384539 -1.894960 6.000000
7.039316 -7.392010 -0.504589 10.000000
25.705210 29.916735 -1.453211 1.000000
30.264420 -12.467915 -2.110947 10.000000
25.734570 30.163273 -1.419239 1.000000
31.047773 -12.657721 -2.185841 6.000000
7.152907 -7.399295 -0.528545 27.000000
25.776413 30.437555 -1.392839 1.000000
31.129660 -12.545609 -2.205692 7.000000
7.144819 -7.336923 -0.534918 111.000000
25.651634 30.505495 -1.350054 10.000000
16.129822 -6.438410 -1.144404 6.000000
7.349722 -7.492199 -0.555546 62.000000
25.607647 30.680771 -1.318735 16.000000
6.524582 0.297421 -0.422364 1.000000
16.147926 -6.377121 -1.156196 6.000000
7.263137 -7.352419 -0.557912 92.000000
25.425751 30.690804 -1.273372 14.000000
6.613152 0.325751 -0.428172 1.000000
16.138098 -6.304964 -1.162942 6.000000
7.384773 -7.420950 -0.574325 39.000000
25.303286 30.760916 -1.237815 15.000000
16.260820 -6.277789 -1.173016 6.000000
7.401033 -7.382971 -0.580802 9.000000
25.269930 30.950893 -1.213803 13.000000
6.481138 0.366891 -0.418650 1.000000
16.299419 -6.230663 -1.186542 7.000000
7.587226 -7.513430 -0.604466 8.000000
16.487242 -6.226721 -1.204566 8.000000
16.609999 -6.210224 -1.221352 9.000000
16.230152 -15.843874 -1.323690 7.000000
28.859261 36.138435 -1.267580 6.000000
16.787724 -6.203307 -1.238937 8.000000
16.215591 -15.714001 -1.337569 7.000000
52.980030 66.820198 -2.262791 31.000000
6.559737 0.469057 -0.421825 1.000000
17.001820 -6.211690 -1.262572 9.000000
16.354958 -15.733231 -1.364174 6.000000
17.136642 -6.189850 -1.277282 8.000000
16.329519 -15.599375 -1.377282 6.000000
17.334534 -6.182779 -1.299856 9.000000
16.429159 -15.579794 -1.400693 6.000000
20.966373 27.039429 -0.794389 8.000000
17.575562 -6.203127 -1.322918 7.000000
16.412584 -15.450221 -1.414190 7.000000
20.781065 26.975023 -0.760844 8.000000
17.757849 -6.194365 -1.341519 6.000000
16.448425 -15.381397 -1.428659 7.000000
20.730747 27.134317 -0.727208 8.000000
17.973751 -6.195877 -1.356105 7.000000
16.443089 -15.253142 -1.446449 7.000000
20.590965 27.147266 -0.695877 8.000000
18.210264 -6.195733 -1.382185 9.000000
9.083964 -8.364845 -0.807208 29.000000
20.585476 27.327770 -0.662908 8.000000
11.844399 -3.986081 -0.906769 1.000000
9.079553 -8.302402 -0.812863 30.000000
24.035910 32.164558 -0.735929 3.000000
11.754523 -3.907931 -0.903133 1.000000
9.138945 -8.295412 -0.826271 26.000000
24.025511 32.397606 -0.696990 9.000000
11.711615 -3.846053 -0.903073 1.000000
9.216927 -8.304785 -0.841439 1.000000
23.698599 32.167503 -0.655558 31.000000
6.642779 0.721637 -0.419216 1.000000
11.697536 -3.791733 -0.905173 4.000000
16.596039 -14.854215 -1.526216 7.000000
23.584419 32.283096 -0.614101 10.000000
11.634918 -3.724366 -0.905697 1.000000
16.680641 -14.809767 -1.548075 7.000000
6.369777 0.739262 -0.400072 1.000000
11.653244 -3.683200 -0.906067 1.000000
16.711546 -14.728025 -1.561550 7.000000
6.397021 0.763931 -0.401940 9.000000
11.633044 -3.629973 -0.907733 1.000000
16.669403 -14.592959 -1.568625 7.000000
6.463310 0.798175 -0.405162 7.000000
11.598316 -3.572540 -0.908255 5.000000
16.723854 -14.527579 -1.595691 7.000000
27.448521 38.695293 -0.529955 4.000000
6.500016 0.826906 -0.406502 8.000000
11.611029 -3.529914 -0.912491 4.000000
16.776352 -14.465636 -1.607290 7.000000
27.204205 38.635956 -0.478350 23.000000
11.594928 -3.478645 -0.914467 1.000000
16.747627 -14.344315 -1.615448 8.000000
27.076963 38.756226 -0.437345 7.000000
11.554707 -3.420467 -0.914531 8.000000
16.857197 -14.321252 -1.639866 8.000000
11.572235 -3.377382 -0.919117 2.000000
16.881790 -14.235942 -1.656550 7.000000
20.388723 2.807410 -1.266005 1.000000
11.579436 -3.333477 -0.922943 7.000000
16.910025 -14.154025 -1.669701 7.000000
20.215380 2.862677 -1.245184 1.000000
11.576878 -3.286840 -0.925999 5.000000
16.914646 -14.052786 -1.684362 7.000000
20.149616 2.935919 -1.238282 1.000000
11.574133 -3.240268 -0.929043 8.000000
16.945665 -13.973895 -1.701621 7.000000
20.237654 3.024538 -1.240781 1.000000
11.561905 -3.191193 -0.927117 10.000000
16.930500 -13.857454 -1.706511 7.000000
19.705179 3.011797 -1.198265 1.000000
11.553969 -3.143475 -0.929755 11.000000
17.015066 -13.822839 -1.725316 7.000000
19.624771 3.073157 -1.197532 1.000000
11.589715 -3.105455 -0.935879 21.000000
17.009880 -13.715443 -1.742706 7.000000
19.820972 3.178354 -1.199658 4.000000
11.581582 -3.057824 -0.936414 26.000000
17.054554 -13.658388 -1.754147 7.000000
47.302357 72.534004 0.015114 1.000000
19.848799 3.257480 -1.198534 5.000000
11.573416 -3.010335 -0.934856 26.000000
17.045601 -13.539266 -1.766742 7.000000
47.087753 72.786583 0.105912 20.000000
19.861544 3.334374 -1.196506 5.000000
11.568533 -2.968142 -0.937855 38.000000
17.206804 -13.574492 -1.794178 7.000000
19.785648 3.396241 -1.185644 7.000000
11.584550 -2.922738 -0.946588 24.000000
17.106361 -13.393825 -1.793843 7.000000
21.346771 33.507717 0.145618 9.000000
11.590508 -2.879097 -0.944109 26.000000
9.276225 -7.203160 -0.975895 20.000000
21.186346 33.526440 0.179971 10.000000
11.644732 -2.845140 -0.951840 10.000000
9.270313 -7.144259 -0.982796 23.000000
21.053137 33.574589 0.221335 10.000000
5.084816 3.481646 -0.173212 1.000000
11.674143 -2.807024 -0.957614 8.000000
9.285493 -7.107003 -0.990123 29.000000
20.972658 33.707096 0.263298 9.000000
4.895823 3.377402 -0.163020 1.000000
14.082509 2.630383 -0.828544 5.000000
11.689040 -2.765326 -0.960108 7.000000
9.376746 -7.117338 -1.007146 5.000000
20.935410 33.923798 0.320053 1.000000
4.916379 3.418245 -0.157845 1.000000
14.210499 2.708227 -0.829053 5.000000
11.727270 -2.733337 -0.962498 1.000000
17.312260 -13.050461 -1.862456 7.000000
19.432905 31.736481 0.337748 113.000000
13.926211 2.706981 -0.810557 1.000000
11.776687 -2.695058 -0.969902 1.000000
17.327291 -12.953039 -1.877484 7.000000
19.290310 31.764441 0.376212 173.000000
11.766870 -2.647463 -0.970407 1.000000
17.433599 -12.933177 -1.899124 7.000000
19.217764 31.895399 0.422465 11.000000
11.776949 -2.602262 -0.970407 1.000000
17.427938 -12.830214 -1.904790 7.000000
21.979172 36.768192 0.530853 207.000000
12.908717 2.656823 -0.739144 6.000000
11.775609 -2.561040 -0.971708 1.000000
9.673455 -7.072124 -1.063124 14.000000
21.837641 36.822685 0.575375 206.000000
11.833321 -2.528204 -0.979951 1.000000
9.630179 -6.986468 -1.063919 24.000000
21.760456 37.000969 0.629364 11.000000
11.964612 -2.510437 -0.987907 1.000000
5.868229 -4.198142 -0.655374 8.000000
12.411247 2.697014 -0.696750 1.000000
12.114947 -2.495657 -1.003904 1.000000
5.919933 -4.202414 -0.661979 6.000000
12.094286 2.674596 -0.677333 1.000000
12.124269 -2.449086 -1.006063 1.000000
37.098686 27.451584 -0.918374 8.000000
11.856168 2.665380 -0.660260 1.000000
12.338481 -2.445323 -1.023088 1.000000
6.158011 -4.321503 -0.693921 1.000000
59.974400 44.719826 -1.410334 14.000000
11.758576 2.690913 -0.649061 1.000000
12.445374 -2.419136 -1.028982 1.000000
6.030510 -4.199123 -0.681695 1.000000
23.648932 41.884583 0.990750 33.000000
59.939182 45.019970 -1.321578 9.000000
12.630575 -2.407126 -1.041299 1.000000
23.494726 41.935680 1.040470 220.000000
59.870171 45.312317 -1.271275 12.000000
12.869199 -2.403756 -1.064838 2.000000
59.744465 45.546051 -1.193281 11.000000
13.059904 -2.387518 -1.077519 1.000000
23.342129 42.041069 1.141617 232.000000
59.701538 45.513325 -1.126896 24.000000
23.486673 41.938473 1.107586 168.000000
59.840199 45.273209 -1.113274 19.000000
5.940407 -4.085783 -0.659955 1.000000
23.665304 41.879433 1.058019 8.000000
59.897144 44.972050 -1.163562 9.000000
12.711206 -2.422493 -1.018399 2.000000
5.893030 -4.085094 -0.651303 1.000000
60.005337 44.726601 -1.188755 13.000000
11.849071 2.707271 -0.615716 1.000000
12.511929 -2.432073 -0.996426 1.000000
46.964413 81.739632 1.892395 1.000000
37.121693 27.458582 -0.773717 9.000000
11.966102 2.687901 -0.621281 1.000000
12.366526 -2.450881 -0.978914 1.000000
5.981939 -4.211980 -0.651652 1.000000
47.279377 81.692596 1.812334 1.000000
12.126926 2.677374 -0.631291 1.000000
12.210770 -2.468777 -0.962953 1.000000
5.926212 -4.205316 -0.642143 7.000000
47.420494 81.248085 1.724193 1.000000
61.070068 44.500416 -1.318966 10.000000
12.405061 2.691136 -0.645252 1.000000
12.133772 -2.499535 -0.951072 1.000000
9.736830 -6.952908 -1.044652 27.000000
21.755863 36.978386 0.741395 13.000000
12.080779 -2.534811 -0.945473 1.000000
9.703784 -6.983154 -1.035436 28.000000
21.844387 36.834061 0.695167 221.000000
61.535030 44.152298 -1.440988 1.000000
12.850037 2.686853 -0.669627 26.000000
11.988846 -2.561433 -0.934702 1.000000
9.662721 -7.007503 -1.023295 8.000000
21.992437 36.775810 0.650701 255.000000
61.537285 43.829330 -1.490213 5.000000
12.967297 2.661804 -0.677541 1.000000
11.901904 -2.588507 -0.922243 1.000000
17.416769 -12.728484 -1.834216 7.000000
22.149349 36.746391 0.614094 36.000000
61.880798 43.733025 -1.521101 1.000000
11.819630 -2.616020 -0.912355 1.000000
17.351221 -12.778406 -1.813294 7.000000
19.292549 31.755632 0.492894 168.000000
4.839565 3.372362 -0.125619 1.000000
11.775605 -2.653747 -0.907617 1.000000
17.341545 -12.869578 -1.798223 7.000000
19.435099 31.727629 0.467582 98.000000
13.940712 2.707275 -0.731825 1.000000
11.756694 -2.694802 -0.898447 1.000000
17.387295 -13.002625 -1.788820 7.000000
20.919607 33.884956 0.458741 7.000000
11.727467 -2.733383 -0.894860 4.000000
17.300961 -13.037210 -1.765810 8.000000
20.982533 33.722969 0.415939 9.000000
20.401466 3.799607 -1.073053 1.000000
11.693413 -2.770671 -0.888813 8.000000
9.355366 -7.103683 -0.949245 25.000000
21.042414 33.544479 0.380127 9.000000
20.536568 3.754347 -1.083152 1.000000
11.688477 -2.814787 -0.882886 5.000000
9.298383 -7.114295 -0.933763 28.000000
21.221027 33.568344 0.339643 10.000000
20.550005 3.679018 -1.086796 1.000000
11.649318 -2.850570 -0.876503 4.000000
9.276707 -7.151767 -0.925983 35.000000
21.333349 33.473759 0.297905 9.000000
20.459881 3.585541 -1.084962 1.000000
11.638434 -2.895316 -0.874410 6.000000
9.243067 -7.179998 -0.917024 5.000000
20.556549 3.524874 -1.089396 1.000000
11.642546 -2.941693 -0.871309 1.000000
17.115629 -13.396264 -1.683855 6.000000
20.308149 3.405706 -1.079167 1.000000
11.598457 -2.975820 -0.860417 5.000000
17.130423 -13.509384 -1.667189 7.000000
47.109673 72.210976 0.376205 1.000000
20.502621 3.361107 -1.092476 1.000000
11.606921 -3.023376 -0.859757 3.000000
17.101217 -13.588308 -1.653846 8.000000
47.531868 72.305344 0.317148 1.000000
20.391359 3.266166 -1.089516 4.000000
11.610517 -3.069799 -0.856637 3.000000
17.001596 -13.611106 -1.633734 8.000000
20.383272 3.188290 -1.092063 3.000000
11.580208 -3.107240 -0.851029 3.000000
17.034203 -13.739961 -1.622491 7.000000
20.705585 3.161003 -1.112370 3.000000
11.578651 -3.152361 -0.847548 6.000000
16.972994 -13.793578 -1.606114 7.000000
20.564131 3.062323 -1.100521 4.000000
11.571838 -3.198282 -0.839519 6.000000
16.961985 -13.888168 -1.590645 8.000000
20.643818 2.996890 -1.115143 2.000000
11.580238 -3.241977 -0.843013 6.000000
17.011847 -14.033461 -1.584657 8.000000
20.659924 2.918272 -1.119052 1.000000
11.548223 -3.283062 -0.837424 4.000000
16.948471 -14.080888 -1.563996 7.000000
20.824009 2.863643 -1.123685 1.000000
11.552212 -3.325639 -0.830075 4.000000
16.875046 -14.124748 -1.538828 7.000000
11.567774 -3.380462 -0.827935 1.000000
16.835417 -14.196837 -1.524500 8.000000
27.117155 38.784912 -0.214753 9.000000
11.560366 -3.424336 -0.824069 1.000000
16.852707 -14.317438 -1.511418 8.000000
27.226366 38.653099 -0.247556 25.000000
11.619954 -3.488364 -0.820714 1.000000
16.827446 -14.402500 -1.498342 7.000000
6.663579 0.789866 -0.362238 3.000000
11.607365 -3.531013 -0.816479 3.000000
16.752861 -14.445380 -1.477014 8.000000
6.626561 0.760860 -0.363575 6.000000
11.617557 -3.582907 -0.818157 1.000000
16.704536 -14.510798 -1.458038 8.000000
6.688976 0.743197 -0.364491 1.000000
11.695365 -3.653900 -0.815982 1.000000
16.749622 -14.658023 -1.451047 7.000000
23.525543 32.403912 -0.370421 1.000000
11.719946 -3.708783 -0.818640 1.000000
16.678015 -14.703648 -1.430019 8.000000
23.708858 32.405910 -0.413486 10.000000
11.836421 -3.788868 -0.818934 1.000000
16.653818 -14.785951 -1.408944 7.000000
23.738552 32.209957 -0.446963 10.000000
6.507777 0.650710 -0.357641 1.000000
11.879679 -3.850775 -0.818520 1.000000
16.652498 -14.894282 -1.393868 7.000000
23.874044 32.146427 -0.489230 6.000000
9.209451 -8.298050 -0.764714 20.000000
18.772257 -6.244698 -1.279353 10.000000
9.146207 -8.302004 -0.751164 24.000000
20.551678 27.263096 -0.482697 8.000000
18.574699 -6.254686 -1.260573 11.000000
9.068314 -8.292125 -0.736495 30.000000
20.613146 27.146978 -0.517615 8.000000
18.377316 -6.263308 -1.241922 35.000000
9.078712 -8.362938 -0.729015 20.000000
20.678480 27.046329 -0.546718 8.000000
18.187010 -6.265841 -1.223717 10.000000
9.049836 -8.394921 -0.720397 1.000000
20.818159 27.032930 -0.583653 10.000000
18.070086 -6.299744 -1.210688 6.000000
16.394049 -15.319827 -1.289835 6.000000
20.990332 27.050819 -0.615585 8.000000
17.915705 -6.319662 -1.191902 3.000000
16.454918 -15.490070 -1.279297 6.000000
6.553606 0.462871 -0.363866 1.000000
16.366236 -15.520123 -1.257071 6.000000
6.460553 0.432507 -0.359742 1.000000
16.313639 -15.584204 -1.237662 7.000000
52.981632 66.750404 -1.785132 28.000000
6.611711 0.415974 -0.368063 1.000000
7.789933 -7.493802 -0.583517 10.000000
7.626455 -7.390549 -0.565861 50.000000
7.656833 -7.474601 -0.560780 85.000000
7.594129 -7.467942 -0.548869 72.000000
6.487339 0.315014 -0.360852 1.000000
7.550611 -7.477171 -0.538309 39.000000
25.379234 30.842272 -1.024987 10.000000
7.519950 -7.501598 -0.528787 60.000000
25.425547 30.646982 -1.063609 10.000000
6.429568 0.261610 -0.360893 1.000000
7.464545 -7.501113 -0.517563 74.000000
25.641777 30.699873 -1.103322 10.000000
6.375525 0.238237 -0.357813 1.000000
7.226728 -7.315563 -0.493935 23.000000
25.831802 30.708872 -1.141926 9.000000
6.406291 0.215877 -0.359493 1.000000
7.376324 -7.519316 -0.496738 39.000000
25.642895 30.258467 -1.170234 1.000000
6.392006 0.191944 -0.359769 1.000000
7.236616 -7.426000 -0.479917 36.000000
28.450283 33.334557 -1.331312 1.000000
31.069857 -12.660400 -1.916872 7.000000
7.182734 -7.430149 -0.469280 28.000000
28.450949 33.088959 -1.363777 4.000000
30.493023 -12.555866 -1.872563 7.000000
7.010476 -7.305350 -0.450918 27.000000
28.522005 32.926704 -1.407054 1.000000
6.488563 0.123454 -0.365105 1.000000
7.057568 -7.405998 -0.446663 25.000000
29.654316 33.993385 -1.496459 8.000000
6.439057 0.098905 -0.362297 1.000000
27.249470 -11.454622 -1.647437 9.000000
7.020395 -7.421265 -0.435311 39.000000
41.088833 46.721077 -2.129232 1.000000
6.579146 0.076938 -0.370160 1.000000
29.051048 -12.349395 -1.742759 7.000000
7.065221 -7.523695 -0.430774 191.000000
41.238979 46.579414 -2.183352 3.000000
6.484536 0.052062 -0.364824 1.000000
28.386513 -12.178206 -1.694493 7.000000
7.175455 -7.694733 -0.429933 8.000000
6.474704 0.027121 -0.364263 1.000000
27.719486 -12.012527 -1.641427 6.000000
27.213846 -11.912068 -1.603660 6.000000
7.318201 -7.958484 -0.422904 183.000000
26.764347 -11.832395 -1.564350 6.000000
7.259504 -7.958536 -0.411941 2.000000
6.504593 -0.039735 -0.365948 1.000000
26.287952 -11.726148 -1.523656 5.000000
7.161477 -7.906325 -0.398619 8.000000
6.464446 -0.065441 -0.363701 1.000000
25.899527 -11.666886 -1.488696 6.000000
7.035185 -7.818852 -0.383839 10.000000
6.479168 -0.087079 -0.364543 1.000000
25.507322 -11.602859 -1.453875 6.000000
6.970087 -7.803837 -0.372703 37.000000
18.156191 19.511053 -1.107730 3.000000
6.513617 -0.111421 -0.368783 1.000000
25.097538 -11.527660 -1.423250 6.000000
6.863399 -7.738590 -0.361210 31.000000
18.288410 19.509266 -1.134804 5.000000
6.403364 -0.133013 -0.362566 1.000000
24.625435 -11.420300 -1.384592 6.000000
6.897975 -7.835237 -0.353594 31.000000
18.365965 19.448643 -1.158572 7.000000
6.422796 -0.156970 -0.363697 1.000000
24.231312 -11.345619 -1.350715 6.000000
6.862834 -7.853169 -0.344154 39.000000
18.536160 19.492115 -1.193231 7.000000
23.864721 -11.280802 -1.327957 6.000000
6.832299 -7.873527 -0.334892 33.000000
18.679312 19.499033 -1.221449 7.000000
6.431380 -0.206609 -0.364262 1.000000
6.761220 -7.849552 -0.321956 72.000000
18.788057 19.469200 -1.247546 7.000000
40.421795 16.438250 -2.447295 9.000000
6.530420 -0.233753 -0.368773 1.000000
23.119503 -11.141579 -1.259674 6.000000
6.839760 -7.999845 -0.317897 224.000000
19.018665 19.564154 -1.281951 6.000000
40.938660 16.473837 -2.505821 9.000000
6.549473 -0.258474 -0.369900 1.000000
22.889681 -11.124507 -1.240250 5.000000
6.821675 -8.035310 -0.309151 176.000000
19.141951 19.553942 -1.309585 6.000000
41.201591 16.404436 -2.541514 6.000000
6.523544 -0.281402 -0.368492 1.000000
22.472696 -11.023854 -1.206701 5.000000
6.872900 -8.156051 -0.301647 39.000000
19.286320 19.557507 -1.338575 6.000000
6.607295 -0.308125 -0.373281 1.000000
6.658526 -7.957861 -0.284394 21.000000
19.487263 19.616938 -1.371710 7.000000
6.611172 -0.332594 -0.372407 1.000000
29.398088 -14.689392 -1.544066 29.000000
6.664597 -8.024696 -0.276798 255.000000
19.572250 19.565418 -1.401930 9.000000
10.980726 4.237110 -0.688951 1.000000
6.624732 -0.357623 -0.375566 1.000000
6.511268 -7.898799 -0.264479 35.000000
19.742443 19.605093 -1.433800 7.000000
10.874600 4.150432 -0.687449 1.000000
6.628361 -0.382189 -0.375848 7.000000
26.215040 -13.339945 -1.351115 28.000000
6.439506 -7.867538 -0.252024 232.000000
19.926798 19.629923 -1.465930 8.000000
10.862212 4.097990 -0.689733 1.000000
6.626981 -0.406484 -0.374689 7.000000
26.153267 -13.429415 -1.335033 27.000000
6.354030 -7.821421 -0.241000 25.000000
20.115492 19.671053 -1.499119 10.000000
10.863498 4.050893 -0.694914 1.000000
6.789838 -0.441459 -0.383986 5.000000
25.452541 -13.187709 -1.286682 10.000000
6.308015 -7.820401 -0.229761 34.000000
20.243824 19.651915 -1.527997 8.000000
10.811790 3.988680 -0.694749 1.000000
24.669611 -12.896960 -1.239747 35.000000
6.473125 -8.085564 -0.227810 80.000000
20.358057 19.625242 -1.556189 9.000000
10.797860 3.938639 -0.698962 1.000000
23.796537 -12.551800 -1.184061 27.000000
6.404571 -8.057420 -0.215602 33.000000
20.587893 19.715506 -1.593704 19.000000
10.807299 3.897260 -0.702669 1.000000
32.479351 -2.339545 -1.831985 46.000000
23.014488 -12.247327 -1.133698 39.000000
6.269838 -7.947545 -0.203208 29.000000
20.749657 19.725130 -1.620669 7.000000
10.821163 3.857499 -0.708684 1.000000
32.441013 -2.456335 -1.824622 211.000000
22.342684 -11.990085 -1.089358 17.000000
6.163747 -7.872231 -0.190229 27.000000
20.918377 19.740072 -1.663440 7.000000
10.844172 3.820963 -0.717327 4.000000
32.421207 -2.574380 -1.835415 110.000000
21.745724 -11.772589 -1.045054 13.000000
6.084172 -7.826729 -0.179962 35.000000
21.087679 19.747313 -1.696158 7.000000
10.788487 3.752727 -0.716644 4.000000
32.416370 -2.699290 -1.830019 71.000000
21.066856 -11.505110 -1.010252 66.000000
5.994463 -7.769934 -0.169583 39.000000
21.261183 19.764027 -1.729696 7.000000
10.762888 3.703858 -0.718112 3.000000
32.406261 -2.818083 -1.830019 28.000000
20.517433 -11.302881 -0.973598 28.000000
6.016032 -7.854428 -0.162331 180.000000
21.504522 19.843801 -1.774317 9.000000
10.780518 3.665789 -0.728364 1.000000
20.000462 -11.113832 -0.934992 26.000000
21.543537 19.747934 -1.792602 7.000000
10.755800 3.613458 -0.729772 1.000000
19.454479 -10.903955 -0.899634 25.000000
21.755102 19.795620 -1.824769 9.000000
10.711903 3.555072 -0.729860 7.000000
19.027845 -10.756671 -0.866438 10.000000
6.101776 -8.147514 -0.136805 22.000000
21.914957 19.794735 -1.863126 10.000000
10.743583 3.521924 -0.735098 5.000000
26.660231 -2.712749 -1.502926 4.000000
18.513096 -10.551121 -0.833497 10.000000
6.285146 -8.453706 -0.134222 36.000000
22.056992 19.783657 -1.895279 9.000000
10.718201 3.470150 -0.736435 9.000000
18.197447 -10.459771 -0.809999 14.000000
6.292788 -8.529095 -0.123950 27.000000
10.720974 3.427686 -0.741676 10.000000
18.116007 -10.501482 -0.800762 19.000000
6.299991 -8.598395 -0.115350 36.000000
10.776036 3.401807 -0.748580 1.000000
18.073557 -10.565566 -0.785955 23.000000
6.655009 -9.156473 -0.110638 18.000000
10.769464 3.354315 -0.755133 1.000000
21.475767 -2.503825 -1.208815 1.000000
18.065195 -10.649709 -0.776288 15.000000
6.754714 -9.362197 -0.100748 34.000000
10.757591 3.307412 -0.757391 1.000000
21.358301 -2.561947 -1.202674 1.000000
18.017239 -10.702106 -0.764761 18.000000
6.679999 -9.323647 -0.090084 24.000000
10.793257 3.275127 -0.763007 1.000000
17.974361 -10.774485 -0.757446 18.000000
6.461724 -9.092528 -0.077876 25.000000
10.800154 3.234039 -0.766605 8.000000
17.971306 -10.858103 -0.744232 23.000000
6.379415 -9.046748 -0.065690 24.000000
10.787498 3.187213 -0.772762 3.000000
19.888176 -2.611266 -1.117953 1.000000
17.922726 -10.910045 -0.732715 18.000000
6.325175 -9.029931 -0.055802 23.000000
10.765326 3.137807 -0.774278 1.000000
19.918243 -2.689512 -1.116671 1.000000
17.912859 -10.994224 -0.719263 13.000000
6.434744 -9.258383 -0.045261 32.000000
10.805257 3.106523 -0.780269 6.000000
19.947039 -2.774978 -1.115375 1.000000
17.915737 -11.095245 -0.706433 27.000000
6.081336 -8.821985 -0.033662 24.000000
10.792051 3.059947 -0.786369 5.000000
19.843626 -2.827700 -1.113620 1.000000
17.870470 -11.149370 -0.702422 14.000000
5.941922 -8.681209 -0.023869 31.000000
10.812536 3.022983 -0.790988 1.000000
20.075371 -2.935837 -1.123670 1.000000
17.836399 -11.223487 -0.688043 26.000000
5.866431 -8.641921 -0.014584 27.000000
10.794812 2.973387 -0.794742 8.000000
19.891872 -2.983509 -1.110482 1.000000
17.799564 -11.291590 -0.680848 17.000000
5.898963 -8.758756 -0.003686 28.000000
10.824622 2.938956 -0.800074 3.000000
19.663876 -3.023047 -1.094882 1.000000
17.796108 -11.372335 -0.667395 24.000000
5.851681 -8.754351 0.007351 178.000000
10.849503 2.903057 -0.805061 1.000000
19.420689 -3.058564 -1.085400 1.000000
17.742300 -11.438516 -0.652342 13.000000
5.767048 -8.696561 0.014570 29.000000
10.830592 2.855500 -0.810736 1.000000
20.094637 -3.240226 -1.120160 1.000000
17.733799 -11.516464 -0.646042 21.000000
5.700912 -8.662325 0.025339 23.000000
10.855190 2.819474 -0.815734 1.000000
19.718304 -3.253737 -1.096340 1.000000
17.702137 -11.583953 -0.635271 20.000000
5.636583 -8.626740 0.035971 50.000000
10.865314 2.779634 -0.817691 8.000000
20.050062 -3.387615 -1.119060 1.000000
17.651581 -11.643495 -0.620208 22.000000
5.877990 -9.072095 0.049054 18.000000
10.995758 2.770106 -0.834697 4.000000
17.658911 -11.741440 -0.614565 8.000000
5.911669 -9.187194 0.057203 28.000000
10.972151 2.719398 -0.836074 1.000000
14.233115 -2.512244 -0.795404 1.000000
9.939421 -6.661402 -0.338399 1.000000
5.947864 -9.318321 0.069460 36.000000
11.010682 2.686151 -0.844221 5.000000
14.017724 -2.527239 -0.778892 1.000000
9.877763 -6.672673 -0.332966 1.000000
5.818953 -9.186913 0.077819 173.000000
11.180159 2.684119 -0.860491 1.000000
13.546694 -2.493616 -0.755634 1.000000
9.842204 -6.698804 -0.324235 1.000000
5.678801 -9.038760 0.087567 56.000000
11.150810 2.633885 -0.861506 1.000000
13.748581 -2.582913 -0.764969 1.000000
9.879595 -6.777371 -0.317913 1.000000
5.626003 -9.024502 0.098375 17.000000
11.305638 2.626745 -0.878830 1.000000
17.514126 -12.109274 -0.557569 9.000000
5.541826 -8.958984 0.104804 20.000000
11.334030 2.589594 -0.888457 1.000000
17.473963 -12.176409 -0.546548 12.000000
5.537663 -9.026032 0.114593 26.000000
11.474769 2.575431 -0.904901 1.000000
17.439690 -12.243182 -0.539367 14.000000
5.511267 -9.053760 0.123950 23.000000
11.644470 2.568726 -0.921722 1.000000
12.868488 -2.608769 -0.720303 1.000000
17.415405 -12.321670 -0.525106 19.000000
5.485728 -9.086622 0.135241 12.000000
11.775127 2.552327 -0.937664 1.000000
12.721021 -2.632082 -0.712635 1.000000
17.382483 -12.394228 -0.518023 19.000000
5.168758 -8.629529 0.136948 5.000000
12.008027 2.556766 -0.964081 1.000000
12.735837 -2.683862 -0.711732 1.000000
17.357527 -12.472648 -0.503708 18.000000
12.292147 -20.685883 0.348599 27.000000
12.133916 2.537117 -0.979966 1.000000
12.565298 -2.693766 -0.702723 1.000000
17.322193 -12.539176 -0.492747 22.000000
12.223703 -20.743450 0.369828 29.000000
12.230951 2.508429 -0.993596 1.000000
12.325730 -2.689698 -0.696497 1.000000
17.300348 -12.620256 -0.493438 12.000000
12.221698 -20.906551 0.393111 23.000000
12.551907 2.526349 -1.030155 1.000000
12.266815 -2.723980 -0.698127 1.000000
17.258072 -12.686591 -0.489815 11.000000
12.162436 -20.981300 0.406377 38.000000
12.569666 2.529924 -1.054139 1.000000
12.192510 -2.707480 -0.715766 1.000000
17.271324 -12.700977 -0.523948 16.000000
12.364690 2.535857 -1.042157 1.000000
12.343290 -2.693529 -0.732883 1.000000
17.276855 -12.607740 -0.548857 14.000000
12.223453 -20.917933 0.346761 24.000000
12.305909 2.573080 -1.040237 1.000000
12.489359 -2.677486 -0.747679 1.000000
17.326521 -12.546918 -0.571388 17.000000
12.292631 -20.860418 0.316965 79.000000
11.949816 2.548733 -1.006699 1.000000
12.508342 -2.633641 -0.757187 1.000000
17.361767 -12.480291 -0.586048 24.000000
12.286381 -20.684401 0.289742 28.000000
11.775549 2.552418 -0.994843 1.000000
12.644602 -2.613968 -0.771635 1.000000
17.382469 -12.398795 -0.607586 23.000000
5.126336 -8.562091 0.107992 1.000000
11.614931 2.562210 -0.986240 1.000000
17.400553 -12.320278 -0.632781 27.000000
5.457514 -9.039888 0.097681 12.000000
11.382142 2.554641 -0.963162 1.000000
17.428867 -12.244669 -0.647058 10.000000
5.517676 -9.067850 0.087074 8.000000
11.377107 2.599437 -0.963574 1.000000
17.477163 -12.183170 -0.669520 10.000000
5.551960 -9.052880 0.074141 24.000000
11.260882 2.616346 -0.952504 1.000000
17.478100 -12.093386 -0.682788 14.000000
5.514143 -8.917712 0.062219 30.000000
11.129976 2.628964 -0.942240 1.000000
9.887632 -6.787962 -0.397862 1.000000
5.563785 -8.928171 0.049574 25.000000
11.052746 2.653529 -0.932525 1.000000
13.756088 -2.534643 -0.875127 1.000000
9.887433 -6.734639 -0.405219 3.000000
5.586963 -8.896031 0.038503 39.000000
10.883028 2.655009 -0.920989 179.000000
14.011560 -2.523602 -0.893222 1.000000
9.881546 -6.680253 -0.416525 1.000000
5.852252 -9.243053 0.026731 9.000000
10.916596 2.707651 -0.920750 21.000000
9.938980 -6.666135 -0.424188 1.000000
5.817256 -9.117210 0.015101 7.000000
10.853443 2.734253 -0.916263 39.000000
17.629673 -11.730876 -0.772784 14.000000
6.019412 -9.361815 0.000000 9.000000
10.805034 2.764213 -0.909106 49.000000
17.647078 -11.649366 -0.786453 19.000000
6.050962 -9.335491 -0.009708 9.000000
10.838548 2.815151 -0.908853 4.000000
19.267963 -3.186336 -1.256080 10.000000
17.699709 -11.595606 -0.801783 21.000000
5.790945 -8.866368 -0.024028 163.000000
10.837949 2.857440 -0.907706 6.000000
19.274370 -3.114863 -1.259167 9.000000
17.716242 -11.513856 -0.822773 15.000000
5.761369 -8.754189 -0.034753 20.000000
10.789192 2.886919 -0.900578 10.000000
14.608240 -2.305878 -0.956369 1.000000
17.757959 -11.448610 -0.833836 17.000000
5.809978 -8.757977 -0.045858 28.000000
10.768409 2.925712 -0.899774 98.000000
14.621028 -2.253004 -0.964437 6.000000
17.782469 -11.372363 -0.847784 24.000000
6.079442 -9.095092 -0.057281 30.000000
10.748004 2.962512 -0.898971 35.000000
19.261955 -2.895905 -1.273270 19.000000
17.808645 -11.301709 -0.869270 14.000000
6.218848 -9.230243 -0.073816 9.000000
10.746976 3.004654 -0.895879 7.000000
19.277651 -2.822614 -1.276996 25.000000
17.832651 -11.225472 -0.879480 21.000000
6.217293 -9.158780 -0.083079 22.000000
10.764960 3.052266 -0.894374 9.000000
19.311895 -2.755368 -1.288845 9.000000
17.877384 -11.162354 -0.894402 19.000000
6.141896 -8.980096 -0.096844 86.000000
10.768372 3.095918 -0.891658 1.000000
19.351292 -2.688656 -1.294233 8.000000
17.900381 -11.085735 -0.915604 16.000000
10.766522 3.138155 -0.892452 3.000000
19.449333 -2.629653 -1.310459 9.000000
17.914948 -11.004116 -0.925309 16.000000
6.009095 -8.652398 -0.113997 38.000000
10.768067 3.187603 -0.887762 1.000000
19.513021 -2.565473 -1.317558 6.000000
17.952692 -10.941175 -0.939987 15.000000
6.387599 -9.125825 -0.132209 12.000000
10.776537 3.229016 -0.889338 1.000000
19.665571 -2.512241 -1.330703 5.000000
17.974722 -10.864450 -0.961088 13.000000
6.459654 -9.160537 -0.146734 32.000000
10.774466 3.271479 -0.886196 4.000000
19.515991 -2.420469 -1.323420 1.000000
18.026838 -10.805941 -0.972779 13.000000
6.563883 -9.239696 -0.160239 7.000000
10.753169 3.308107 -0.881484 72.000000
20.158243 -2.425138 -1.373480 1.000000
18.027096 -10.716477 -0.985340 23.000000
6.623778 -9.251995 -0.174777 18.000000
10.707951 3.337205 -0.874835 238.000000
20.112253 -2.344855 -1.373302 1.000000
18.076551 -10.660656 -1.004358 24.000000
6.617905 -9.175952 -0.185627 16.000000
10.700693 3.378022 -0.871307 238.000000
84.269051 -9.511865 -5.766499 18.000000
18.093340 -10.581368 -1.017796 26.000000
6.198740 -8.528704 -0.184036 39.000000
10.721766 3.427939 -0.870087 227.000000
84.173401 -9.188753 -5.772458 18.000000
18.140179 -10.519723 -1.029261 14.000000
6.228376 -8.506881 -0.193236 32.000000
10.694585 3.464566 -0.865007 226.000000
18.182314 -10.455295 -1.044149 14.000000
6.217838 -8.427510 -0.202921 22.000000
