VERSION .7
FIELDS x y z intensity
SIZE 4 4 4 4
TYPE F F F F
COUNT 1 1 1 1
WIDTH 1256
HEIGHT 1
VIEWPOINT 0 0 0 1 0 0 0
POINTS 1256
DATA ascii
10.837250 14.148927 -1.961315 4.000000
9.892069 0.780260 -2.013405 1.000000
7.142161 -2.610833 -1.520890 9.000000
3.502555 -3.398957 -0.763417 8.000000
10.826041 14.022429 -1.974566 1.000000
9.869766 0.736915 -2.013616 1.000000
7.078100 -2.616864 -1.505171 9.000000
3.496421 -3.420363 -0.760695 8.000000
10.810841 13.912166 -1.982494 5.000000
9.837718 0.699999 -2.008360 6.000000
7.004434 -2.620244 -1.487564 8.000000
3.485718 -3.432589 -0.754718 9.000000
10.688958 13.651752 -1.969344 1.000000
9.874435 0.666246 -2.015343 1.000000
6.949180 -2.630035 -1.473919 7.000000
3.498840 -3.469650 -0.754895 9.000000
10.679468 13.541979 -1.983269 1.000000
9.861903 0.627371 -2.014075 2.000000
6.853175 -2.622457 -1.451592 9.000000
3.500460 -3.496796 -0.754470 8.000000
10.597747 13.337523 -1.980092 1.000000
9.878911 0.590376 -2.017071 1.000000
6.848337 -2.650796 -1.448718 1.000000
3.495329 -3.517360 -0.749054 8.000000
10.481586 13.097206 -1.967641 5.000000
5.271657 2.710427 -1.050535 1.000000
9.856296 0.551052 -2.013801 5.000000
6.693084 -2.618949 -1.413987 3.000000
3.502466 -3.552954 -0.749182 8.000000
10.505344 13.024066 -1.983426 4.000000
9.868034 0.515435 -2.015800 4.000000
6.638043 -2.626847 -1.400597 23.000000
3.514806 -3.590455 -0.749118 8.000000
10.362507 12.760159 -1.965916 6.000000
9.835337 0.475866 -2.010523 1.000000
6.592602 -2.636853 -1.389179 25.000000
3.506964 -3.606290 -0.743710 8.000000
10.359373 12.656680 -1.979254 6.000000
9.842136 0.434880 -2.011523 4.000000
6.542158 -2.645860 -1.376844 19.000000
3.527253 -3.656407 -0.746590 9.000000
10.316709 12.515167 -1.982853 3.000000
9.872191 0.403412 -2.020973 1.000000
6.496516 -2.655148 -1.366734 17.000000
3.517878 -3.673540 -0.741103 8.000000
10.227795 12.315065 -1.976929 6.000000
9.859333 0.364972 -2.016246 5.000000
6.432498 -2.657854 -1.351621 13.000000
3.529437 -3.711459 -0.740786 8.000000
10.145017 12.129002 -1.972349 6.000000
9.869749 0.327413 -2.021695 1.000000
6.382596 -2.664664 -1.339421 10.000000
3.540123 -3.750125 -0.740397 8.000000
10.097791 11.991512 -1.969321 6.000000
9.836659 0.288509 -2.014675 1.000000
6.336779 -2.674154 -1.328215 10.000000
3.527540 -3.763024 -0.734996 8.000000
10.073859 11.878687 -1.975887 6.000000
9.866679 0.253198 -2.022415 1.000000
6.260037 -2.668841 -1.309244 13.000000
3.551344 -3.816355 -0.737296 8.000000
9.990336 11.693048 -1.967453 4.000000
9.857783 0.215098 -2.020407 1.000000
6.200766 -2.671755 -1.295318 10.000000
3.559358 -3.850492 -0.736006 8.000000
9.971299 11.588613 -1.974711 6.000000
9.883024 0.177685 -2.025426 4.000000
6.146523 -2.675136 -1.282387 11.000000
3.575787 -3.896822 -0.737646 7.000000
9.979871 11.512955 -1.984263 5.000000
9.849349 0.139251 -2.018400 3.000000
6.079043 -2.672311 -1.265539 15.000000
3.582783 -3.931909 -0.735292 8.000000
9.900803 11.341509 -1.982040 5.000000
8.476673 3.936539 -1.730518 1.000000
9.898065 0.103656 -2.031892 1.000000
6.019962 -2.673967 -1.251793 19.000000
3.604023 -3.987252 -0.737195 8.000000
9.826762 11.165902 -1.976719 5.000000
8.389788 3.853550 -1.712803 1.000000
9.850117 0.065329 -2.018400 2.000000
5.970377 -2.678185 -1.239966 11.000000
3.620552 -4.033755 -0.735743 7.000000
9.806368 11.076289 -1.976509 4.000000
8.437493 3.841631 -1.724954 1.000000
9.869889 0.027562 -2.022415 1.000000
5.911611 -2.679138 -1.225195 18.000000
3.627368 -4.068408 -0.735021 7.000000
9.691439 10.869791 -1.966385 5.000000
8.449477 3.811535 -1.733043 1.000000
9.883560 -0.001725 -2.030601 1.000000
5.872932 -2.682641 -1.215322 21.000000
3.685113 -4.163797 -0.744870 7.000000
9.703347 10.803172 -1.976240 5.000000
8.489204 3.792072 -1.745048 1.000000
9.855138 -0.043001 -2.019404 1.000000
5.809342 -2.681833 -1.199757 12.000000
9.643239 10.661157 -1.971742 3.000000
8.713417 3.853979 -1.793387 1.000000
9.815042 -0.077089 -2.014801 1.000000
5.754652 -2.683438 -1.189434 20.000000
5.645231 -6.414534 -1.135576 10.000000
9.607231 10.543412 -1.974223 5.000000
8.596479 3.762858 -1.773116 1.000000
9.844017 -0.118555 -2.020833 1.000000
5.705875 -2.686198 -1.174545 26.000000
5.596371 -6.406207 -1.121399 9.000000
9.548825 10.406119 -1.969819 5.000000
8.411030 3.645007 -1.737069 1.000000
9.829528 -0.154415 -2.014385 1.000000
5.664996 -2.693574 -1.164852 19.000000
5.563875 -6.416322 -1.110546 14.000000
9.488029 10.264091 -1.964428 5.000000
8.568590 3.674273 -1.771740 1.000000
9.862505 -0.189370 -2.024855 1.000000
5.607060 -2.691268 -1.150469 27.000000
5.516442 -6.406667 -1.095031 14.000000
9.474699 10.178164 -1.974104 5.000000
8.282474 3.515702 -1.716413 1.000000
9.891085 -0.227915 -2.030887 1.000000
5.562411 -2.693767 -1.142114 23.000000
5.474334 -6.405092 -1.082355 10.000000
9.449944 10.070210 -1.972803 5.000000
8.331915 3.497282 -1.728640 1.000000
9.899835 -0.269611 -2.032898 1.000000
5.512868 -2.697148 -1.127511 21.000000
5.437717 -6.411936 -1.069536 9.000000
9.390100 9.940174 -1.968032 3.000000
8.415785 3.497984 -1.748443 1.000000
9.854826 -0.301092 -2.023849 1.000000
5.459550 -2.695907 -1.114226 23.000000
5.413948 -6.426993 -1.060106 10.000000
9.349999 9.825333 -1.966566 5.000000
8.454661 3.477857 -1.760478 1.000000
9.863740 -0.339279 -2.024137 1.000000
5.419509 -2.700887 -1.103698 17.000000
5.373208 -6.424006 -1.046120 10.000000
9.337831 9.744207 -1.976085 5.000000
8.421627 3.426519 -1.755785 1.000000
9.881943 -0.377899 -2.028156 4.000000
5.383077 -2.708583 -1.096215 24.000000
5.328137 -6.417772 -1.033047 10.000000
9.320509 9.655041 -1.979274 4.000000
9.914676 -0.417282 -2.035187 1.000000
5.343255 -2.713134 -1.084722 27.000000
5.300188 -6.429642 -1.021639 10.000000
9.302905 9.566386 -1.979976 5.000000
9.932847 -0.457997 -2.037470 1.000000
5.312052 -2.721825 -1.076102 28.000000
5.251106 -6.420169 -1.006639 11.000000
9.248288 9.444040 -1.975473 1.000000
9.877202 -0.493444 -2.026429 1.000000
5.280849 -2.730320 -1.067517 24.000000
5.219035 -6.428896 -0.993270 10.000000
9.909658 -0.529750 -2.033455 1.000000
5.240441 -2.734980 -1.057204 27.000000
5.190002 -6.434338 -0.984270 10.000000
7.024443 2.672545 -1.479966 1.000000
9.947028 -0.570058 -2.039746 5.000000
5.214245 -2.743347 -1.051626 28.000000
5.160820 -6.446365 -0.974441 9.000000
7.175092 2.702658 -1.512589 1.000000
9.944873 -0.606512 -2.039746 1.000000
5.164711 -2.743814 -1.039637 17.000000
5.129753 -6.453606 -0.962612 9.000000
7.258337 2.716669 -1.531746 3.000000
9.942115 -0.644670 -2.041485 3.000000
5.128741 -2.750007 -1.030324 25.000000
5.111810 -6.481973 -0.953687 10.000000
7.405315 2.756955 -1.563179 1.000000
9.929792 -0.682169 -2.039477 1.000000
5.089746 -2.750868 -1.021193 25.000000
5.093862 -6.503452 -0.947052 9.000000
7.465229 2.748149 -1.578017 1.000000
9.942112 -0.721381 -2.040749 5.000000
5.066473 -2.764626 -1.013549 25.000000
5.106342 -6.571208 -0.940815 9.000000
7.534335 2.740784 -1.597662 1.000000
9.856721 -0.751512 -2.021976 1.000000
5.018575 -2.761266 -1.001767 23.000000
5.166889 -6.694828 -0.950077 120.000000
7.751162 2.787534 -1.645948 1.000000
9.936062 -0.795946 -2.042489 1.000000
4.991499 -2.770251 -0.996329 28.000000
5.189527 -6.772907 -0.948026 36.000000
7.737897 2.749255 -1.645349 1.000000
9.958405 -0.836231 -2.042274 3.000000
4.968051 -2.783381 -0.989775 24.000000
5.216507 -6.860055 -0.946884 255.000000
7.756358 2.723839 -1.651618 1.000000
9.871809 -0.867144 -2.026985 1.000000
4.936970 -2.789792 -0.981535 23.000000
5.486727 -7.267927 -0.989274 19.000000
9.377479 3.252743 -1.999548 1.000000
9.936859 -0.909571 -2.041013 1.000000
4.897827 -2.790273 -0.971631 29.000000
5.452998 -7.275926 -0.978133 9.000000
9.360197 3.208363 -2.000532 1.000000
9.914141 -0.945892 -2.035267 1.000000
4.878776 -2.805420 -0.965021 25.000000
5.385461 -7.240964 -0.959622 7.000000
9.371454 3.172062 -2.005713 1.000000
9.925414 -0.985440 -2.036529 5.000000
4.843460 -2.808785 -0.956042 27.000000
5.461539 -7.402440 -0.968494 26.000000
9.373274 3.132616 -2.008901 1.000000
9.912165 -1.022574 -2.032790 7.000000
4.816688 -2.816901 -0.948781 24.000000
5.344872 -7.292155 -0.940696 23.000000
9.295629 3.068837 -1.993394 1.000000
9.912868 -1.059380 -2.035529 1.000000
4.790901 -2.823183 -0.941546 22.000000
5.365496 -7.376846 -0.939424 37.000000
9.319659 3.037135 -2.004942 1.000000
9.932365 -1.100053 -2.044019 4.000000
4.750782 -2.824174 -0.932810 17.000000
5.398522 -7.476980 -0.940011 19.000000
9.311076 2.996632 -2.006056 1.000000
9.914528 -1.136630 -2.035788 1.000000
4.728269 -2.834296 -0.926465 25.000000
5.254325 -7.331051 -0.906631 24.000000
9.265832 2.942855 -1.997395 7.000000
9.915011 -1.171764 -2.038530 6.000000
4.701383 -2.841654 -0.920274 23.000000
5.207782 -7.322648 -0.893721 24.000000
9.242687 2.896482 -1.998805 1.000000
9.939757 -1.215166 -2.042783 4.000000
4.670427 -2.846367 -0.912325 20.000000
5.174206 -7.329472 -0.881276 23.000000
9.229185 2.855145 -1.997124 5.000000
9.959677 -1.256434 -2.046029 1.000000
4.643694 -2.853469 -0.905230 28.000000
5.137781 -7.332063 -0.868383 29.000000
9.196935 2.806520 -1.993049 1.000000
9.930840 -1.291553 -2.039288 4.000000
4.627853 -2.861569 -0.899793 28.000000
5.097269 -7.331277 -0.855061 23.000000
9.201137 2.770979 -1.998744 4.000000
9.930775 -1.326812 -2.042034 4.000000
4.596932 -2.865793 -0.891933 19.000000
5.069241 -7.345540 -0.846796 11.000000
9.197297 2.731349 -1.997364 3.000000
9.926197 -1.363250 -2.040286 4.000000
4.574391 -2.875076 -0.885724 23.000000
5.131528 -7.491603 -0.847174 255.000000
9.164103 2.683244 -1.994859 1.000000
9.887632 -1.396656 -2.029816 2.000000
4.555877 -2.886788 -0.881282 18.000000
5.167342 -7.600659 -0.849372 255.000000
9.129968 2.640409 -1.988974 1.000000
9.950437 -1.444518 -2.042006 1.000000
4.525117 -2.890596 -0.872565 24.000000
5.023161 -7.447142 -0.817506 20.000000
9.148687 2.604346 -1.999324 1.000000
9.925337 -1.478039 -2.039776 4.000000
4.498404 -2.896801 -0.865622 16.000000
5.155596 -7.701337 -0.832014 33.000000
9.129682 2.561080 -1.996464 1.000000
9.905408 -1.513971 -2.035039 9.000000
4.479855 -2.908141 -0.861229 10.000000
5.310985 -7.993674 -0.853147 6.000000
9.039313 2.500029 -1.978104 6.000000
9.900224 -1.552104 -2.031541 38.000000
4.440876 -2.906028 -0.851026 10.000000
5.261683 -7.979761 -0.837928 8.000000
9.056950 2.467510 -1.986722 4.000000
9.811594 -1.576832 -2.016388 42.000000
4.434301 -2.926104 -0.848109 9.000000
5.193517 -7.936526 -0.818135 34.000000
9.003941 2.415967 -1.978144 1.000000
9.810931 -1.613635 -2.015647 44.000000
4.415692 -2.937113 -0.843756 8.000000
5.023800 -7.738930 -0.786130 255.000000
9.011398 2.382596 -1.984652 5.000000
9.804663 -1.651295 -2.015647 32.000000
4.380896 -2.937186 -0.834439 8.000000
4.981081 -7.732089 -0.772346 9.000000
9.000880 2.342876 -1.983734 7.000000
9.784109 -1.686492 -2.010934 39.000000
4.382980 -2.961926 -0.832167 7.000000
4.863312 -7.607473 -0.747091 9.000000
8.966508 2.297204 -1.977578 4.000000
9.797513 -1.725803 -2.013168 25.000000
4.388785 -2.989338 -0.832495 4.000000
4.826466 -7.608228 -0.736007 9.000000
8.974197 2.264156 -1.980809 4.000000
9.863855 -1.776565 -2.024545 4.000000
4.350004 -2.986322 -0.821549 2.000000
4.779113 -7.592042 -0.721790 27.000000
8.919801 2.214037 -1.973623 4.000000
9.953012 -1.832107 -2.046111 5.000000
4.298751 -2.974377 -0.811120 1.000000
5.290246 -8.472744 -0.791390 10.000000
8.883403 2.172112 -1.970559 5.000000
9.931454 -1.867593 -2.043139 6.000000
4.316540 -3.010140 -0.813731 1.000000
4.985417 -8.046926 -0.740013 15.000000
8.900886 2.138557 -1.975861 6.000000
9.900826 -1.899431 -2.036425 8.000000
4.939492 -8.035315 -0.725762 32.000000
8.888664 2.099553 -1.978019 6.000000
9.888650 -1.936492 -2.035435 5.000000
4.424342 -3.133768 -0.830612 1.000000
4.569123 -7.491304 -0.665939 35.000000
8.838870 2.051991 -1.968486 7.000000
9.905869 -1.979388 -2.036859 2.000000
4.208233 -3.003921 -0.787485 1.000000
4.509863 -7.452539 -0.648858 28.000000
8.810611 2.014663 -1.968954 8.000000
9.903002 -2.016588 -2.039611 5.000000
4.205444 -3.025258 -0.787182 1.000000
4.490506 -7.482328 -0.642357 28.000000
8.827497 1.979651 -1.975819 5.000000
9.890388 -2.053602 -2.038622 1.000000
4.281505 -3.089055 -0.801283 1.000000
4.459656 -7.490056 -0.630974 18.000000
8.795858 1.940333 -1.968857 3.000000
9.878330 -2.090696 -2.034108 6.000000
4.030790 -2.930691 -0.751919 1.000000
4.494749 -7.609296 -0.628840 23.000000
8.788242 1.900085 -1.971931 8.000000
9.879811 -2.130677 -2.036083 3.000000
4.160042 -3.048037 -0.774427 3.000000
4.677794 -7.982679 -0.648606 29.000000
8.764488 1.864548 -1.971761 7.000000
9.920222 -2.173843 -2.047730 5.000000
4.133256 -3.051756 -0.768767 7.000000
4.748064 -8.167825 -0.650701 31.000000
8.703655 1.816703 -1.961373 5.000000
9.902930 -2.209938 -2.042212 4.000000
4.074966 -3.031858 -0.755456 8.000000
4.640172 -8.046742 -0.628359 32.000000
8.690094 1.779079 -1.963258 5.000000
9.874557 -2.243444 -2.041800 6.000000
4.056123 -3.040998 -0.752215 9.000000
4.383097 -7.665724 -0.589606 20.000000
9.889748 -2.286865 -2.046742 3.000000
4.021054 -3.038893 -0.745173 10.000000
4.442762 -7.833404 -0.591835 21.000000
8.481015 1.703912 -1.938369 74.000000
9.770990 -2.259404 -2.044032 4.000000
4.020617 -3.028652 -0.754986 11.000000
4.342720 -7.660126 -0.586404 37.000000
8.455293 1.732547 -1.933996 20.000000
9.745070 -2.215814 -2.040530 6.000000
4.046894 -3.025261 -0.763244 13.000000
4.314512 -7.548831 -0.592753 30.000000
8.554317 1.787090 -1.954998 5.000000
9.661285 -2.157783 -2.028437 4.000000
4.064725 -3.016530 -0.770038 10.000000
4.552086 -7.900358 -0.634391 37.000000
8.538163 1.816400 -1.952815 6.000000
9.624690 -2.112604 -2.026284 5.000000
4.078973 -3.003983 -0.776980 13.000000
4.729429 -8.142308 -0.670006 28.000000
8.521255 1.847031 -1.952153 7.000000
9.641268 -2.077471 -2.033462 6.000000
4.093175 -2.991366 -0.783933 10.000000
4.704430 -8.034562 -0.675554 22.000000
8.561746 1.890256 -1.963078 8.000000
9.609459 -2.032038 -2.032242 6.000000
4.122808 -2.991000 -0.793976 12.000000
4.474595 -7.584241 -0.652841 37.000000
8.512248 1.910514 -1.953246 3.000000
9.600374 -1.996881 -2.036049 8.000000
4.145092 -2.984039 -0.801636 11.000000
4.459795 -7.499220 -0.659110 30.000000
8.533375 1.952836 -1.956745 6.000000
9.583639 -1.955040 -2.032674 6.000000
4.168826 -2.965917 -0.810331 18.000000
4.434205 -7.397292 -0.663620 28.000000
8.530564 1.986694 -1.957835 8.000000
9.546151 -1.910975 -2.030315 6.000000
4.187040 -2.955821 -0.817262 15.000000
4.531693 -7.500429 -0.686597 31.000000
8.523539 2.019592 -1.954778 6.000000
9.510149 -1.862370 -2.024511 3.000000
4.205347 -2.945709 -0.823318 21.000000
4.580675 -7.522052 -0.702409 23.000000
8.530644 2.054326 -1.956514 7.000000
9.477102 -1.821572 -2.021384 7.000000
4.223392 -2.935334 -0.831186 15.000000
4.914000 -8.006368 -0.762433 9.000000
8.537578 2.090711 -1.956710 7.000000
9.362801 -1.764043 -1.999084 15.000000
4.237586 -2.922224 -0.836476 24.000000
8.534885 2.124822 -1.954727 9.000000
9.330666 -1.720916 -1.992526 46.000000
4.267905 -2.920108 -0.845901 14.000000
5.224309 -8.380157 -0.829247 7.000000
8.574739 2.166558 -1.965574 6.000000
9.311759 -1.680484 -1.993995 52.000000
4.294295 -2.915114 -0.853660 10.000000
4.746771 -7.555278 -0.760237 8.000000
8.557566 2.197209 -1.960321 5.000000
9.284076 -1.638704 -1.988423 62.000000
4.316607 -2.907205 -0.860636 13.000000
4.809921 -7.596796 -0.777165 22.000000
8.549337 2.231717 -1.957236 5.000000
9.265231 -1.600383 -1.986546 60.000000
4.326481 -2.890862 -0.866086 12.000000
4.908082 -7.692290 -0.803124 8.000000
8.578786 2.274624 -1.964338 1.000000
9.347453 -1.577647 -2.008047 27.000000
4.348747 -2.882741 -0.873102 14.000000
4.821245 -7.498340 -0.795604 30.000000
8.561221 2.305187 -1.959082 3.000000
9.386878 -1.547256 -2.016960 4.000000
4.370245 -2.875084 -0.881969 14.000000
4.838734 -7.468106 -0.805143 24.000000
8.586753 2.344238 -1.963527 1.000000
9.353161 -1.506506 -2.011971 5.000000
4.388494 -2.864099 -0.887291 10.000000
5.041081 -7.721215 -0.847305 15.000000
8.601215 2.383711 -1.968912 6.000000
9.362666 -1.471177 -2.017973 4.000000
4.422873 -2.863476 -0.898737 10.000000
5.053667 -7.681780 -0.857857 14.000000
8.617579 2.422292 -1.966487 3.000000
9.358925 -1.433789 -2.014238 1.000000
4.425144 -2.840892 -0.899809 10.000000
5.127973 -7.732852 -0.877089 25.000000
8.621443 2.462391 -1.969705 5.000000
9.309771 -1.389693 -2.009365 6.000000
4.459171 -2.840806 -0.910406 10.000000
5.129363 -7.676633 -0.885747 31.000000
8.618146 2.494019 -1.967646 1.000000
9.324132 -1.356920 -2.013097 3.000000
4.482005 -2.831216 -0.916652 10.000000
5.033233 -7.476139 -0.875749 70.000000
8.636069 2.538458 -1.972502 3.000000
9.308865 -1.318218 -2.013842 4.000000
4.495081 -2.817573 -0.923986 9.000000
5.119811 -7.542064 -0.900223 34.000000
8.665807 2.581742 -1.973174 1.000000
9.294136 -1.279749 -2.011290 3.000000
4.517867 -2.807750 -0.930274 10.000000
8.665182 2.617823 -1.975306 1.000000
9.284098 -1.242062 -2.009781 4.000000
4.540012 -2.798498 -0.937513 10.000000
5.100510 -7.401898 -0.909906 23.000000
8.670069 2.655671 -1.973757 1.000000
9.278544 -1.206719 -2.009316 5.000000
4.571518 -2.792657 -0.946516 14.000000
5.111495 -7.362701 -0.918339 20.000000
8.656268 2.686186 -1.969530 5.000000
9.267514 -1.169116 -2.011058 4.000000
4.608912 -2.785761 -0.958316 19.000000
5.179275 -7.405020 -0.937025 33.000000
8.702809 2.737307 -1.977494 1.000000
9.256684 -1.131658 -2.011156 5.000000
4.626959 -2.773567 -0.963834 21.000000
5.169867 -7.336906 -0.944936 20.000000
8.693202 2.767669 -1.977494 5.000000
9.207223 -1.089747 -2.001179 4.000000
4.652178 -2.767755 -0.973021 13.000000
5.274159 -7.432446 -0.969138 22.000000
8.677866 2.802874 -1.971660 3.000000
9.205606 -1.055357 -2.003359 4.000000
4.687949 -2.763618 -0.983078 18.000000
5.333582 -7.455366 -0.989355 28.000000
8.734548 2.853203 -1.981642 1.000000
9.214795 -1.020579 -2.002798 3.000000
4.717727 -2.760131 -0.991338 18.000000
5.356471 -7.437870 -0.997354 14.000000
8.691700 2.876188 -1.971068 6.000000
9.198860 -0.983075 -2.000189 3.000000
4.752741 -2.757285 -1.000528 23.000000
4.970080 -6.850781 -0.932910 9.000000
8.704745 2.917636 -1.971523 1.000000
9.235551 -0.951143 -2.012447 3.000000
4.784006 -2.750925 -1.008860 19.000000
4.918229 -6.727295 -0.928849 15.000000
8.736638 2.963989 -1.976141 1.000000
9.170548 -0.910493 -1.999227 2.000000
4.818922 -2.747550 -1.019096 25.000000
4.890191 -6.635318 -0.930390 9.000000
8.739392 3.002391 -1.977670 1.000000
9.212235 -0.882169 -2.009322 4.000000
4.853710 -2.743861 -1.030356 24.000000
4.857054 -6.547188 -0.930255 9.000000
9.186013 -0.844076 -2.004567 4.000000
4.884547 -2.737718 -1.038809 28.000000
4.861453 -6.505536 -0.935359 9.000000
9.198223 -0.809593 -2.009914 3.000000
4.919694 -2.733770 -1.048210 30.000000
4.884473 -6.486625 -0.946698 10.000000
7.716842 2.749362 -1.741260 1.000000
9.147631 -0.766540 -1.999818 3.000000
4.950239 -2.727045 -1.058707 25.000000
4.909384 -6.472565 -0.957202 8.000000
7.651870 2.759369 -1.724527 1.000000
9.174124 -0.738132 -2.006746 4.000000
4.986228 -2.721968 -1.066213 28.000000
4.928220 -6.450510 -0.966536 8.000000
7.670126 2.797763 -1.726474 1.000000
9.181762 -0.703274 -2.007811 5.000000
5.008480 -2.710335 -1.072956 26.000000
4.957161 -6.439330 -0.977647 9.000000
7.476586 2.759741 -1.680924 1.000000
9.184044 -0.667988 -2.009419 1.000000
5.047691 -2.707682 -1.085436 23.000000
4.991145 -6.436865 -0.988566 9.000000
7.407109 2.764985 -1.666130 1.000000
9.147424 -0.626817 -2.002491 4.000000
5.082932 -2.702643 -1.095040 24.000000
5.033197 -6.439882 -1.005020 10.000000
7.149835 2.731687 -1.603167 1.000000
9.193426 -0.597735 -2.012092 2.000000
5.109976 -2.691905 -1.102810 34.000000
5.061954 -6.434907 -1.015425 9.000000
7.065601 2.734893 -1.582799 1.000000
9.132019 -0.556938 -1.999820 1.000000
5.163595 -2.693727 -1.116254 26.000000
5.099190 -6.428966 -1.029345 9.000000
6.983843 2.731315 -1.562513 1.000000
9.138086 -0.525299 -2.004083 3.000000
5.206691 -2.694282 -1.127877 25.000000
5.140350 -6.439206 -1.042331 9.000000
9.120177 -0.489142 -2.001399 3.000000
5.242155 -2.687166 -1.139714 27.000000
5.172440 -6.430919 -1.054297 10.000000
6.760088 2.702474 -1.508994 1.000000
9.156136 -0.455819 -2.008891 1.000000
5.295018 -2.689803 -1.153358 31.000000
5.193925 -6.411674 -1.065819 9.000000
6.668440 2.695578 -1.488217 1.000000
9.133422 -0.419539 -2.003540 1.000000
5.334988 -2.685553 -1.163158 28.000000
5.249034 -6.429076 -1.082365 9.000000
6.795231 2.775850 -1.514767 1.000000
9.115099 -0.383630 -2.000851 2.000000
5.379665 -2.682202 -1.175001 26.000000
5.282194 -6.426074 -1.093663 9.000000
9.096922 -0.349468 -1.996567 3.000000
5.419515 -2.677314 -1.185935 19.000000
5.312297 -6.412344 -1.105141 9.000000
9.102380 -0.314681 -2.000817 5.000000
5.467827 -2.676295 -1.200974 26.000000
5.358182 -6.424247 -1.119164 9.000000
9.118612 -0.277006 -2.002444 1.000000
5.531588 -2.678840 -1.214733 19.000000
5.401056 -6.425333 -1.133398 9.000000
8.789879 9.402933 -1.960430 5.000000
7.845609 3.306049 -1.741424 1.000000
9.080468 -0.244124 -1.993868 5.000000
5.566009 -2.672760 -1.225938 18.000000
5.433245 -6.422553 -1.144884 8.000000
8.731717 9.406320 -1.938729 5.000000
7.735109 3.292923 -1.714979 1.000000
9.056231 -0.208678 -1.991670 1.000000
5.632559 -2.679356 -1.242952 24.000000
5.477095 -6.421927 -1.162189 9.000000
8.795726 9.545198 -1.946795 5.000000
7.696500 3.311452 -1.703134 1.000000
9.071613 -0.174184 -1.994891 1.000000
5.668830 -2.669966 -1.252096 24.000000
5.501909 -6.405599 -1.171715 4.000000
8.783756 9.599233 -1.937620 4.000000
9.052660 -0.140630 -1.990596 1.000000
5.717769 -2.667454 -1.265319 25.000000
8.873153 9.768579 -1.948748 3.000000
9.072665 -0.106098 -1.994891 1.000000
5.767216 -2.663606 -1.278602 14.000000
8.888344 9.857657 -1.945805 5.000000
8.109792 3.597152 -1.787251 1.000000
9.063239 -0.071184 -1.992744 1.000000
5.811986 -2.658481 -1.289841 15.000000
8.862060 9.897759 -1.931026 5.000000
9.048796 -0.036324 -1.989523 1.000000
5.878435 -2.664103 -1.307206 21.000000
3.524931 -3.957686 -0.766553 6.000000
8.925689 10.042648 -1.938533 4.000000
9.019221 -0.004722 -1.984655 2.000000
5.941179 -2.666334 -1.322527 15.000000
3.507088 -3.912833 -0.765614 7.000000
8.970744 10.164577 -1.939107 5.000000
9.058590 0.028458 -1.991670 1.000000
5.990148 -2.661976 -1.337204 22.000000
3.492199 -3.864893 -0.766400 7.000000
9.000102 10.266263 -1.940645 5.000000
9.009603 0.059755 -1.980933 2.000000
6.048792 -2.660272 -1.352811 20.000000
3.470507 -3.816713 -0.764524 7.000000
9.054967 10.405540 -1.943496 4.000000
9.019073 0.094451 -1.983081 1.000000
6.099167 -2.654525 -1.362997 13.000000
3.480590 -3.799729 -0.769188 8.000000
9.078415 10.506318 -1.939090 5.000000
9.057661 0.132802 -1.991670 1.000000
6.179500 -2.662592 -1.386103 14.000000
3.483794 -3.775352 -0.773250 8.000000
9.050836 10.552335 -1.926608 2.000000
9.061996 0.166088 -1.992744 1.000000
6.310158 -2.691510 -1.416933 11.000000
3.460590 -3.721432 -0.771273 8.000000
9.192114 10.793061 -1.947039 5.000000
9.022236 0.200017 -1.984154 1.000000
6.355849 -2.682202 -1.428637 10.000000
3.455561 -3.691401 -0.771934 7.000000
9.208177 10.892550 -1.943668 3.000000
9.016601 0.231384 -1.983081 2.000000
6.342129 -2.649069 -1.428365 13.000000
3.451465 -3.660045 -0.774308 7.000000
9.276528 11.051418 -1.950839 4.000000
9.005444 0.268848 -1.982506 1.000000
6.382764 -2.637304 -1.441514 10.000000
3.457938 -3.638816 -0.779797 7.000000
9.306262 11.165760 -1.944614 5.000000
9.029440 0.304270 -1.984725 1.000000
6.437458 -2.632322 -1.452945 17.000000
3.443451 -3.597076 -0.778002 7.000000
9.383466 11.342662 -1.953731 4.000000
5.135803 2.583040 -1.110164 1.000000
9.017753 0.338546 -1.985729 3.000000
6.496716 -2.627482 -1.467861 15.000000
3.421139 -3.548886 -0.775446 7.000000
9.397233 11.436309 -1.951339 5.000000
5.113402 2.596422 -1.103316 1.000000
9.036444 0.369260 -1.988449 3.000000
6.541452 -2.617718 -1.482211 16.000000
3.428787 -3.533294 -0.780685 7.000000
9.427924 11.555658 -1.944895 5.000000
5.235995 2.682855 -1.125495 1.000000
9.006378 0.402677 -1.978860 6.000000
6.596467 -2.610394 -1.494980 24.000000
3.420527 -3.499031 -0.780257 7.000000
9.497292 11.732365 -1.949731 6.000000
5.108684 2.641307 -1.098121 3.000000
9.033341 0.438643 -1.988449 5.000000
6.651268 -2.602587 -1.509030 13.000000
3.419312 -3.471025 -0.783912 7.000000
9.512437 11.831085 -1.944724 5.000000
5.107892 2.665802 -1.095975 5.000000
9.031938 0.473344 -1.986871 1.000000
6.855669 -2.653634 -1.559890 1.000000
3.419797 -3.448568 -0.786615 7.000000
9.585745 12.016457 -1.952770 5.000000
5.107457 2.689440 -1.093814 3.000000
9.015247 0.510344 -1.983652 1.000000
6.778260 -2.593789 -1.543971 7.000000
3.426051 -3.427248 -0.790092 7.000000
9.564668 12.080596 -1.938357 5.000000
5.085221 2.701584 -1.087001 4.000000
9.052756 0.544175 -1.990652 4.000000
6.883006 -2.604990 -1.569674 10.000000
3.426310 -3.404849 -0.792737 8.000000
9.663312 12.284289 -1.943995 6.000000
9.036078 0.576419 -1.987436 4.000000
6.992937 -2.615943 -1.596529 3.000000
3.416513 -3.371493 -0.792905 8.000000
9.710876 12.438300 -1.948740 4.000000
4.737612 2.562686 -1.008994 1.000000
9.009782 0.609486 -1.980500 5.000000
7.106695 -2.630256 -1.624544 7.000000
3.414159 -3.344559 -0.794651 7.000000
9.814794 12.662280 -1.958583 1.000000
4.711546 2.570952 -1.001564 1.000000
9.022336 0.645146 -1.982135 7.000000
7.098031 -2.594702 -1.624309 26.000000
3.415190 -3.321127 -0.797180 7.000000
9.881177 12.840239 -1.957805 3.000000
4.668252 2.569577 -0.990507 1.000000
9.078235 0.684189 -1.994978 6.000000
7.143918 -2.580423 -1.636691 10.000000
3.426737 -3.308006 -0.802168 8.000000
9.914793 12.986792 -1.951189 1.000000
4.736316 2.630789 -1.003172 1.000000
9.075888 0.719070 -1.993389 5.000000
7.201622 -2.577136 -1.650947 10.000000
3.435143 -3.290733 -0.807150 7.000000
9.920696 13.084256 -1.946347 1.000000
9.068669 0.751955 -1.990731 4.000000
7.254307 -2.573160 -1.664183 10.000000
3.434814 -3.268643 -0.808779 7.000000
9.970518 13.255376 -1.942611 3.000000
9.094913 0.789304 -1.997143 3.000000
7.332875 -2.583752 -1.683803 8.000000
3.440019 -3.247383 -0.812878 8.000000
10.035555 13.439238 -1.943641 4.000000
9.097027 0.824693 -1.996617 1.000000
3.436895 -3.220693 -0.814423 7.000000
10.101441 13.616491 -1.940691 3.000000
9.109424 0.861094 -1.995029 2.000000
3.439928 -3.202177 -0.816001 8.000000
10.211918 13.871373 -1.950353 3.000000
9.096673 0.895143 -1.991304 7.000000
8.736528 -2.974157 -2.008851 5.000000
3.454524 -3.192211 -0.822603 8.000000
10.252390 14.028654 -1.952067 1.000000
9.093676 0.928513 -1.989709 5.000000
8.699891 -2.927837 -2.001420 4.000000
3.461935 -3.175615 -0.826662 8.000000
10.324796 14.231746 -1.947338 2.000000
9.080328 0.962393 -1.987582 1.000000
8.732745 -2.903305 -2.011565 7.000000
3.469483 -3.159201 -0.829072 8.000000
10.302577 14.305917 -1.930754 2.000000
9.131024 1.003235 -1.994470 6.000000
8.725263 -2.860286 -2.012102 4.000000
3.473089 -3.139278 -0.832235 9.000000
10.367046 14.507267 -1.930744 1.000000
9.102847 1.032311 -1.990765 6.000000
8.697356 -2.817554 -2.006732 5.000000
3.480258 -3.122656 -0.836257 9.000000
10.447333 14.728029 -1.929755 2.000000
9.118888 1.072837 -1.990204 3.000000
8.689171 -2.778082 -2.004036 5.000000
3.498592 -3.116037 -0.841288 8.000000
10.500265 14.912687 -1.926602 6.000000
9.144734 1.106634 -1.994952 4.000000
8.684324 -2.741490 -2.005586 7.000000
3.508675 -3.103122 -0.847011 8.000000
10.557742 15.106058 -1.924046 6.000000
9.111667 1.138148 -1.986999 1.000000
8.684793 -2.705012 -2.006610 3.000000
3.511963 -3.083164 -0.850126 9.000000
10.577153 15.246903 -1.914356 6.000000
9.107574 1.173170 -1.985396 1.000000
8.680111 -2.667035 -2.008134 5.000000
3.527036 -3.072497 -0.854287 9.000000
10.522517 15.287484 -1.891683 6.000000
9.128601 1.211530 -1.984251 6.000000
8.665798 -2.627915 -2.005897 6.000000
3.529623 -3.053144 -0.857378 9.000000
10.526697 15.408443 -1.875770 5.000000
9.114320 1.246886 -1.980539 5.000000
8.661460 -2.590326 -2.004231 5.000000
3.536376 -3.036398 -0.861356 9.000000
10.825776 15.965584 -1.918580 6.000000
9.128931 1.281363 -1.986358 7.000000
8.674678 -2.558033 -2.011627 6.000000
3.554160 -3.029108 -0.868879 9.000000
10.793876 16.038782 -1.892174 6.000000
9.134648 1.317950 -1.983632 7.000000
8.627190 -2.508063 -2.003304 6.000000
3.568527 -3.018843 -0.873057 8.000000
10.971296 16.425911 -1.908954 6.000000
9.144371 1.355216 -1.985170 6.000000
8.626942 -2.473736 -2.001128 7.000000
3.565193 -2.998982 -0.873556 9.000000
10.915173 16.466038 -1.884820 6.000000
9.130360 1.387358 -1.979847 6.000000
8.620944 -2.436231 -2.004118 5.000000
3.575457 -2.985307 -0.878434 8.000000
11.080497 16.842808 -1.898656 6.000000
9.134968 1.423965 -1.980330 4.000000
8.582895 -2.389930 -1.994758 7.000000
3.600913 -2.984231 -0.886222 6.000000
11.112463 17.026991 -1.889756 6.000000
4.322842 2.850389 -0.866500 1.000000
9.129774 1.459084 -1.978716 7.000000
8.600746 -2.359353 -2.000056 8.000000
11.157239 17.226681 -1.878684 6.000000
4.222626 2.806568 -0.843920 1.000000
9.139942 1.496723 -1.975390 2.000000
8.599648 -2.323584 -2.000978 8.000000
11.305592 17.590002 -1.888234 6.000000
4.167841 2.792234 -0.830513 2.000000
9.114764 1.526924 -1.972831 5.000000
8.597666 -2.289269 -2.003445 7.000000
11.306950 17.727865 -1.872889 8.000000
4.133646 2.791330 -0.821260 3.000000
9.090233 1.558721 -1.965436 4.000000
8.581450 -2.249701 -2.004147 6.000000
11.251714 17.777836 -1.844401 10.000000
9.133365 1.602242 -1.971003 7.000000
8.571134 -2.211859 -1.999739 5.000000
11.188300 17.814949 -1.814593 10.000000
9.132298 1.638224 -1.970423 42.000000
8.578887 -2.178760 -2.002829 7.000000
11.090322 17.796570 -1.782960 10.000000
4.145175 2.865976 -0.815314 1.000000
9.064363 1.660351 -1.953703 96.000000
8.530415 -2.131616 -1.989587 9.000000
3.718501 -2.923020 -0.927956 4.000000
11.021407 17.824299 -1.756087 10.000000
9.077823 1.698868 -1.954628 73.000000
8.565228 -2.106992 -2.002367 6.000000
3.716946 -2.899820 -0.929182 10.000000
10.926674 17.809772 -1.717841 10.000000
9.062626 1.732067 -1.947726 42.000000
8.506906 -2.058037 -1.986870 7.000000
3.738412 -2.894588 -0.937035 10.000000
10.879377 17.858307 -1.697173 9.000000
9.066488 1.767274 -1.946567 16.000000
8.533043 -2.029710 -1.994359 6.000000
3.740700 -2.874491 -0.938384 18.000000
10.920163 18.081150 -1.684669 6.000000
9.194332 1.828866 -1.973800 5.000000
8.521106 -1.992332 -1.992980 8.000000
3.766152 -2.872157 -0.946420 15.000000
10.984844 18.318041 -1.677258 6.000000
9.241321 1.871771 -1.981841 8.000000
8.523264 -1.958352 -1.994923 7.000000
3.784311 -2.863091 -0.952521 15.000000
11.109365 18.688005 -1.672858 9.000000
9.220708 1.906160 -1.972182 6.000000
8.497100 -1.919580 -1.987139 7.000000
3.802086 -2.854687 -0.957808 21.000000
11.037641 18.715780 -1.641371 9.000000
9.247517 1.948757 -1.976059 6.000000
8.541800 -1.895235 -1.999089 8.000000
3.823371 -2.848815 -0.966596 21.000000
10.942145 18.687780 -1.605486 8.000000
9.264923 1.986227 -1.979522 5.000000
8.529284 -1.858125 -1.997681 6.000000
3.845199 -2.843221 -0.972081 22.000000
10.875317 18.723228 -1.578664 9.000000
9.244581 2.017335 -1.969849 5.000000
8.526822 -1.823323 -1.995450 7.000000
3.859352 -2.830830 -0.977254 21.000000
10.756074 18.667669 -1.544345 9.000000
9.299562 2.066772 -1.979771 6.000000
8.446884 -1.772340 -1.979892 11.000000
3.880753 -2.824709 -0.985282 23.000000
10.689430 18.702625 -1.513911 9.000000
9.292231 2.102617 -1.976446 8.000000
8.453628 -1.739894 -1.979892 23.000000
3.892481 -2.824940 -0.988132 24.000000
10.595592 18.689571 -1.479708 9.000000
9.338294 2.149049 -1.980929 7.000000
8.445914 -1.704529 -1.976539 36.000000
3.910196 -2.815974 -0.993509 21.000000
10.490657 18.648346 -1.439916 8.000000
9.335415 2.186164 -1.978594 9.000000
8.466061 -1.674790 -1.982905 27.000000
3.931876 -2.809760 -0.999912 21.000000
10.409451 18.656092 -1.407738 10.000000
9.366458 2.229678 -1.981637 6.000000
8.462575 -1.641893 -1.980666 37.000000
3.958185 -2.805663 -1.006505 26.000000
10.325879 18.659088 -1.375333 9.000000
9.354410 2.264798 -1.973911 7.000000
8.459581 -1.607631 -1.976924 29.000000
3.975729 -2.796263 -1.012778 26.000000
10.225808 18.631475 -1.333415 9.000000
9.471739 2.329988 -1.989815 1.000000
8.571094 -1.594748 -2.001537 29.000000
3.998189 -2.789175 -1.017540 34.000000
10.231795 18.634672 -1.322597 9.000000
9.530180 2.344364 -1.994957 4.000000
8.563843 -1.591853 -1.990179 40.000000
3.994674 -2.796062 -1.012434 25.000000
10.317857 18.636913 -1.347700 9.000000
9.539787 2.307918 -1.991531 1.000000
8.529388 -1.622440 -1.978951 30.000000
3.985406 -2.811395 -1.006476 21.000000
10.435659 18.695393 -1.377067 8.000000
9.543812 2.270137 -1.990537 5.000000
8.572992 -1.664868 -1.980919 61.000000
3.951981 -2.809565 -0.995336 22.000000
10.490234 18.639980 -1.401916 8.000000
9.532983 2.230676 -1.986560 4.000000
8.605823 -1.705560 -1.985173 28.000000
3.930835 -2.816277 -0.985569 24.000000
10.613469 18.705883 -1.436041 9.000000
9.531250 2.191703 -1.987985 5.000000
8.599889 -1.738728 -1.982111 29.000000
3.909263 -2.822563 -0.978366 29.000000
10.697637 18.701826 -1.465030 9.000000
9.558035 2.159256 -1.995390 5.000000
8.704292 -1.789901 -2.005901 8.000000
3.891161 -2.832285 -0.972178 25.000000
10.804311 18.736265 -1.497221 9.000000
9.527960 2.115788 -1.985705 8.000000
8.722595 -1.828601 -2.005184 8.000000
3.868747 -2.849161 -0.961813 29.000000
10.886266 18.727024 -1.526104 8.000000
9.501828 2.071733 -1.982122 7.000000
8.734625 -1.869353 -2.006456 6.000000
3.855012 -2.860898 -0.956643 27.000000
10.969011 18.711189 -1.554712 9.000000
9.528876 2.039335 -1.986116 4.000000
8.715110 -1.897015 -1.996943 7.000000
3.833518 -2.866794 -0.948699 21.000000
11.053580 18.705482 -1.584118 9.000000
9.521225 2.001231 -1.986516 7.000000
8.736685 -1.936877 -2.001935 7.000000
3.808105 -2.869613 -0.939818 24.000000
11.158781 18.733894 -1.612771 9.000000
9.519243 1.962679 -1.984516 4.000000
8.763521 -1.979767 -2.003304 6.000000
3.785746 -2.876663 -0.931109 21.000000
11.235916 18.714497 -1.641284 9.000000
9.492759 1.919249 -1.979204 5.000000
8.757239 -2.010502 -2.000168 6.000000
3.764633 -2.881404 -0.924090 17.000000
11.327143 18.732840 -1.672904 9.000000
9.522744 1.890736 -1.987599 5.000000
8.754887 -2.045381 -1.998117 6.000000
3.754684 -2.895674 -0.919952 20.000000
11.392570 18.678682 -1.702693 7.000000
9.491111 1.844885 -1.982952 5.000000
8.775412 -2.088979 -2.001476 6.000000
3.736926 -2.903883 -0.913918 24.000000
11.159029 18.152939 -1.684501 7.000000
9.401556 1.790042 -1.964531 35.000000
8.801588 -2.129328 -2.005897 6.000000
3.718260 -2.913393 -0.907076 13.000000
11.126894 17.959839 -1.692441 7.000000
4.181322 2.872669 -0.795323 1.000000
9.384286 1.749442 -1.959504 79.000000
8.833392 -2.169689 -2.008198 6.000000
11.129876 17.832294 -1.709740 10.000000
4.191248 2.856932 -0.799750 1.000000
9.389700 1.718251 -1.961170 84.000000
8.835150 -2.206126 -2.007175 7.000000
11.204201 17.812645 -1.737477 11.000000
4.184749 2.830093 -0.801044 7.000000
9.395553 1.682063 -1.964502 84.000000
8.874624 -2.252219 -2.014742 6.000000
11.303229 17.817913 -1.771878 10.000000
4.186428 2.808922 -0.802998 12.000000
9.445019 1.653516 -1.975247 36.000000
8.891316 -2.291175 -2.013705 7.000000
3.667395 -2.959215 -0.886159 5.000000
11.382967 17.805895 -1.800628 9.000000
4.196110 2.793170 -0.807397 13.000000
9.479860 1.620422 -1.984657 3.000000
8.924842 -2.339724 -2.020124 6.000000
3.645005 -2.965385 -0.876827 8.000000
11.465434 17.797691 -1.829890 9.000000
4.205729 2.777382 -0.811796 18.000000
9.519479 1.589599 -1.993416 5.000000
8.940074 -2.380440 -2.022242 6.000000
3.642306 -2.985442 -0.874552 8.000000
11.539647 17.776291 -1.861636 9.000000
4.227672 2.769674 -0.818592 7.000000
9.505641 1.553202 -1.989370 7.000000
8.965405 -2.420731 -2.026475 4.000000
3.625389 -2.991729 -0.868625 9.000000
11.578194 17.713570 -1.877479 9.000000
4.254108 2.764762 -0.823560 6.000000
9.525697 1.518949 -1.994088 5.000000
8.976342 -2.459017 -2.025866 4.000000
3.615097 -3.005577 -0.863702 9.000000
11.630966 17.645987 -1.904781 6.000000
4.288493 2.764804 -0.832820 1.000000
9.521697 1.479142 -1.993745 5.000000
8.990860 -2.503528 -2.024668 6.000000
3.599924 -3.017484 -0.857880 9.000000
11.515162 17.331711 -1.901031 6.000000
9.511593 1.443588 -1.994064 3.000000
9.033588 -2.552842 -2.033051 3.000000
3.600915 -3.040855 -0.854817 9.000000
11.402572 17.032957 -1.897871 6.000000
9.531250 1.409152 -1.998790 1.000000
9.010759 -2.582092 -2.026605 4.000000
3.586564 -3.051326 -0.849816 9.000000
11.374220 16.875677 -1.905815 6.000000
9.536245 1.372495 -2.000472 1.000000
9.049646 -2.627453 -2.032237 7.000000
3.566309 -3.061018 -0.843939 9.000000
11.370221 16.743340 -1.920287 6.000000
9.522162 1.334863 -1.994728 6.000000
9.054238 -2.666524 -2.032105 5.000000
3.566047 -3.085741 -0.840007 9.000000
11.224723 16.405575 -1.914040 6.000000
9.530687 1.298764 -2.002459 4.000000
9.073188 -2.708284 -2.035114 6.000000
3.548492 -3.092276 -0.833324 9.000000
11.221315 16.260151 -1.926676 6.000000
9.525552 1.260829 -2.002098 5.000000
9.067460 -2.747992 -2.031204 5.000000
3.548781 -3.115486 -0.831819 9.000000
11.157429 16.059418 -1.931156 6.000000
9.569510 1.229278 -2.008573 4.000000
9.067839 -2.782703 -2.029989 8.000000
3.530610 -3.122522 -0.825149 8.000000
11.020910 15.745339 -1.921715 6.000000
9.543766 1.190430 -2.007495 1.000000
9.076284 -2.825210 -2.029198 7.000000
3.519785 -3.136014 -0.820212 8.000000
10.879503 15.428393 -1.910954 6.000000
9.523624 1.150799 -2.004061 1.000000
9.076371 -2.860027 -2.027964 5.000000
3.512465 -3.152662 -0.816951 9.000000
10.845076 15.254865 -1.917709 6.000000
9.576235 1.119866 -2.015969 1.000000
9.097930 -2.908770 -2.030257 5.000000
3.508829 -3.172696 -0.813703 9.000000
10.902918 15.229034 -1.942122 6.000000
9.532181 1.077629 -2.004061 1.000000
9.121467 -2.953187 -2.029169 5.000000
3.501554 -3.189522 -0.808765 8.000000
10.916998 15.136791 -1.954962 6.000000
9.564909 1.045838 -2.011876 4.000000
9.158263 -3.000460 -2.036157 4.000000
3.491580 -3.201686 -0.803804 9.000000
10.868990 14.959882 -1.959844 4.000000
9.544168 1.006501 -2.008434 1.000000
9.129113 -3.029775 -2.026987 1.000000
3.486556 -3.222940 -0.800506 8.000000
10.769808 14.709688 -1.951534 1.000000
9.518402 0.966844 -2.003958 3.000000
9.206741 -3.093045 -2.043186 1.000000
3.472287 -3.232300 -0.794707 8.000000
10.772253 14.605790 -1.968361 4.000000
9.502238 0.931703 -1.999858 2.000000
9.168013 -3.119261 -2.031940 7.000000
3.469252 -3.251014 -0.792210 8.000000
10.599628 14.267209 -1.946540 2.000000
9.515297 0.894434 -2.003577 3.000000
3.467532 -3.275645 -0.789681 8.000000
10.596601 14.154465 -1.961432 1.000000
9.503393 0.859860 -2.002164 4.000000
3.467974 -3.297893 -0.787120 8.000000
10.519049 13.949115 -1.956575 1.000000
9.516315 0.820855 -2.005885 1.000000
7.268837 -2.586887 -1.602004 8.000000
3.465987 -3.322601 -0.784527 8.000000
10.545394 13.882978 -1.970937 1.000000
9.475157 0.780665 -1.998296 1.000000
7.206506 -2.604452 -1.585473 14.000000
3.462255 -3.342293 -0.779421 9.000000
10.422635 13.617457 -1.959874 6.000000
9.517676 0.749057 -2.003191 4.000000
7.146188 -2.615133 -1.570345 10.000000
3.461182 -3.365852 -0.776764 8.000000
10.377657 13.461076 -1.963608 2.000000
4.870384 2.622431 -0.993285 1.000000
9.520134 0.712481 -2.004857 4.000000
7.072567 -2.619029 -1.552249 9.000000
3.449401 -3.379082 -0.771707 8.000000
10.371322 13.356181 -1.974514 1.000000
4.870667 2.599602 -0.995373 1.000000
9.516634 0.678822 -2.008826 1.000000
7.026527 -2.632703 -1.540257 8.000000
3.456235 -3.408310 -0.771417 8.000000
10.256329 13.108628 -1.967022 4.000000
4.857649 2.569822 -0.995733 1.000000
9.509630 0.638298 -2.006765 3.000000
6.935132 -2.627486 -1.518277 6.000000
3.450006 -3.429594 -0.768742 8.000000
10.217772 12.965835 -1.968466 1.000000
9.491814 0.605491 -2.004305 2.000000
6.815945 -2.612303 -1.490387 10.000000
3.459527 -3.463151 -0.768299 9.000000
10.165794 12.807662 -1.970092 4.000000
5.246741 2.725464 -1.078729 1.000000
9.484303 0.568455 -2.002243 1.000000
6.825326 -2.644629 -1.490556 1.000000
3.454520 -3.483582 -0.763000 8.000000
10.124577 12.660163 -1.970323 5.000000
5.024430 2.586642 -1.034124 3.000000
9.481366 0.528431 -2.002869 5.000000
6.761102 -2.649647 -1.474782 1.000000
3.459620 -3.514395 -0.761678 8.000000
10.017763 12.437343 -1.960878 6.000000
4.949685 2.525255 -1.022843 1.000000
9.497982 0.492781 -2.005965 1.000000
6.605354 -2.619246 -1.439217 18.000000
3.478981 -3.558825 -0.763335 8.000000
9.933568 12.240703 -1.955155 6.000000
5.054801 2.555578 -1.046711 1.000000
9.479749 0.458662 -2.003494 5.000000
6.582756 -2.636914 -1.435002 18.000000
3.487030 -3.593313 -0.763514 8.000000
9.802034 11.992819 -1.940233 6.000000
9.471591 0.423477 -2.001428 3.000000
6.537858 -2.646777 -1.420914 19.000000
3.464099 -3.595961 -0.756025 8.000000
9.828861 11.936090 -1.953318 6.000000
9.477470 0.383968 -2.005772 5.000000
6.455522 -2.642339 -1.402680 21.000000
3.482197 -3.641365 -0.757486 8.000000
9.792728 11.807973 -1.959699 5.000000
9.493069 0.351413 -2.010533 1.000000
6.428350 -2.658767 -1.395095 10.000000
3.497252 -3.682759 -0.758115 8.000000
9.718123 11.635120 -1.952767 5.000000
9.470602 0.314172 -2.002049 1.000000
6.373978 -2.664985 -1.379235 10.000000
3.480971 -3.692625 -0.751177 8.000000
9.765545 11.605177 -1.972576 5.000000
9.485660 0.279871 -2.008463 1.000000
6.301371 -2.661803 -1.363143 13.000000
3.494989 -3.734827 -0.751678 8.000000
9.679208 11.421410 -1.968333 6.000000
9.470943 0.243043 -2.010318 4.000000
6.259753 -2.672594 -1.355115 10.000000
3.489111 -3.754731 -0.748660 8.000000
9.632762 11.282503 -1.966271 3.000000
9.457837 0.206371 -2.003902 1.000000
6.210467 -2.678505 -1.340426 11.000000
3.495986 -3.789891 -0.747597 8.000000
9.589962 11.153296 -1.965252 5.000000
9.468340 0.170230 -2.005974 3.000000
6.115554 -2.665467 -1.317301 15.000000
3.516868 -3.839333 -0.747502 7.000000
9.557212 11.040934 -1.969189 5.000000
9.487786 0.134139 -2.013431 6.000000
6.083506 -2.678074 -1.311298 10.000000
3.544442 -3.895291 -0.752352 8.000000
9.496984 10.886598 -1.966127 5.000000
8.159490 3.790972 -1.719554 1.000000
9.503592 0.099525 -2.013227 1.000000
6.029393 -2.681937 -1.295862 15.000000
3.545976 -3.928542 -0.749423 8.000000
9.421232 10.720189 -1.954983 5.000000
8.177354 3.761163 -1.726776 1.000000
9.494120 0.062968 -2.011155 1.000000
5.966633 -2.680260 -1.279734 19.000000
3.582510 -3.996980 -0.752445 7.000000
9.384594 10.611085 -1.955568 5.000000
8.096427 3.688048 -1.711652 1.000000
9.479617 0.026472 -2.008047 1.000000
5.921157 -2.687202 -1.268649 13.000000
3.568357 -4.010671 -0.746823 7.000000
9.345828 10.489528 -1.959459 5.000000
8.371226 3.779754 -1.775401 1.000000
9.479302 -0.004963 -2.009701 4.000000
5.868391 -2.686759 -1.254569 17.000000
3.587732 -4.060903 -0.747093 7.000000
9.267308 10.324958 -1.947394 5.000000
8.447855 3.775370 -1.791915 1.000000
9.464890 -0.041299 -2.004938 1.000000
5.778432 -2.672458 -1.234063 17.000000
3.633491 -4.140285 -0.754579 7.000000
9.301645 10.297947 -1.962622 5.000000
8.397288 3.717660 -1.783415 1.000000
9.479336 -0.077761 -2.008047 1.000000
5.742688 -2.681521 -1.223930 10.000000
9.211087 10.115756 -1.954419 4.000000
9.488749 -0.114276 -2.010119 1.000000
5.702312 -2.688169 -1.213993 25.000000
5.553968 -6.371121 -1.150278 8.000000
9.197968 10.037821 -1.959485 3.000000
8.300202 3.602143 -1.771894 1.000000
9.493131 -0.150787 -2.011155 3.000000
5.648376 -2.689299 -1.200171 23.000000
5.541330 -6.397087 -1.141288 10.000000
9.162923 9.919338 -1.957957 5.000000
8.206432 3.520673 -1.751950 1.000000
9.453391 -0.184815 -2.002866 1.000000
5.608251 -2.695453 -1.189233 22.000000
5.506821 -6.409055 -1.128960 10.000000
9.131831 9.816708 -1.960707 3.000000
8.114018 3.445868 -1.737503 1.000000
9.476360 -0.221668 -2.011356 1.000000
5.567960 -2.701255 -1.179422 23.000000
5.461416 -6.403544 -1.116981 15.000000
9.196783 9.814154 -1.981304 5.000000
8.212272 3.450435 -1.760539 1.000000
9.519443 -0.259251 -2.020696 1.000000
5.487340 -2.688220 -1.162313 24.000000
5.430297 -6.412257 -1.104743 10.000000
9.051370 9.595010 -1.957226 3.000000
8.310343 3.455859 -1.782100 1.000000
9.509303 -0.295519 -2.015300 3.000000
5.452115 -2.695787 -1.150338 27.000000
5.399296 -6.420963 -1.091075 10.000000
9.032302 9.508085 -1.959953 5.000000
9.493140 -0.329849 -2.013849 1.000000
5.407271 -2.699502 -1.138685 23.000000
5.359629 -6.416870 -1.078451 9.000000
8.993644 9.398166 -1.960327 5.000000
9.512057 -0.367079 -2.014674 1.000000
5.353987 -2.697460 -1.126289 26.000000
5.307305 -6.404043 -1.062533 10.000000
8.961226 9.289350 -1.958942 3.000000
9.544082 -0.405022 -2.025256 1.000000
5.322859 -2.706284 -1.117504 29.000000
5.274931 -6.412673 -1.053387 10.000000
8.951060 9.220664 -1.964148 1.000000
9.547850 -0.438575 -2.024625 1.000000
5.291731 -2.714912 -1.108754 24.000000
5.236847 -6.407298 -1.038058 9.000000
9.545222 -0.478530 -2.027961 4.000000
5.237961 -2.712782 -1.097532 26.000000
5.202279 -6.417407 -1.028982 10.000000
6.993081 2.691396 -1.516322 1.000000
9.495267 -0.510921 -2.014263 1.000000
5.215926 -2.725661 -1.088625 25.000000
5.177519 -6.432635 -1.018277 10.000000
7.116139 2.708854 -1.547760 1.000000
9.517491 -0.545442 -2.021108 1.000000
5.166617 -2.725201 -1.078401 22.000000
5.138228 -6.427339 -1.005988 9.000000
7.156886 2.695801 -1.558736 2.000000
9.544620 -0.583774 -2.027330 4.000000
5.113846 -2.721370 -1.065280 29.000000
5.098006 -6.422866 -0.992330 10.000000
7.244377 2.712886 -1.578060 1.000000
9.547324 -0.624091 -2.026697 1.000000
5.095825 -2.735794 -1.059434 22.000000
5.072823 -6.444093 -0.983743 9.000000
7.292479 2.707703 -1.591128 1.000000
9.559728 -0.658422 -2.029806 3.000000
5.060462 -2.740749 -1.050011 25.000000
5.031876 -6.433562 -0.969596 9.000000
7.478066 2.755839 -1.631596 1.000000
9.572239 -0.694543 -2.031239 1.000000
5.011693 -2.739275 -1.037947 26.000000
4.997929 -6.436329 -0.957283 9.000000
7.601816 2.769840 -1.663728 1.000000
9.564978 -0.730947 -2.028529 1.000000
4.993635 -2.753224 -1.032178 24.000000
4.984009 -6.467196 -0.950484 9.000000
7.654002 2.752593 -1.677051 1.000000
9.542328 -0.769434 -2.024392 1.000000
4.966625 -2.762117 -1.026632 31.000000
4.959843 -6.487205 -0.940508 9.000000
7.686279 2.732427 -1.686371 1.000000
9.554280 -0.807333 -2.025822 6.000000
4.931649 -2.766381 -1.015378 26.000000
4.970897 -6.548914 -0.936757 9.000000
9.536578 -0.837697 -2.024392 3.000000
4.900037 -2.773437 -1.008011 25.000000
5.000485 -6.633459 -0.939130 30.000000
9.048956 3.144098 -1.994307 1.000000
9.567391 -0.877436 -2.031633 5.000000
4.869074 -2.779524 -0.999692 25.000000
5.034649 -6.727507 -0.938070 22.000000
9.051797 3.102654 -1.997279 2.000000
9.539956 -0.911872 -2.024788 1.000000
4.829593 -2.780505 -0.989658 26.000000
5.011147 -6.752439 -0.929820 6.000000
9.016624 3.051959 -1.990385 4.000000
9.531163 -0.947977 -2.025426 1.000000
4.802299 -2.789397 -0.983253 28.000000
5.341990 -7.250998 -0.984762 7.000000
9.011126 3.016829 -1.995609 5.000000
9.522939 -0.984100 -2.022721 1.000000
4.767969 -2.790643 -0.975130 24.000000
5.378509 -7.348800 -0.986095 23.000000
8.970548 2.964988 -1.989252 2.000000
9.548805 -1.022159 -2.027246 1.000000
4.724511 -2.788506 -0.963391 19.000000
5.363927 -7.385523 -0.977097 24.000000
8.966742 2.927319 -1.989455 1.000000
9.545161 -1.058855 -2.025570 1.000000
4.706372 -2.801109 -0.957838 15.000000
5.443491 -7.550364 -0.984885 30.000000
8.976923 2.892548 -1.994393 3.000000
9.555256 -1.097131 -2.030345 4.000000
4.679751 -2.808544 -0.950582 21.000000
5.293255 -7.396267 -0.952738 21.000000
8.949345 2.845778 -1.992674 6.000000
9.555831 -1.134390 -2.031377 5.000000
4.644073 -2.811442 -0.942592 29.000000
5.194791 -7.315187 -0.928755 23.000000
8.940056 2.806785 -1.993429 4.000000
9.542655 -1.164929 -2.027634 3.000000
4.625887 -2.823653 -0.937098 15.000000
5.164143 -7.326067 -0.916775 24.000000
8.898387 2.756213 -1.986863 2.000000
9.548172 -1.202829 -2.028018 4.000000
4.616201 -2.841017 -0.932368 23.000000
5.139177 -7.344961 -0.905824 15.000000
8.898888 2.718965 -1.988025 5.000000
9.557685 -1.241327 -2.032793 6.000000
4.588211 -2.840379 -0.925305 14.000000
5.090062 -7.331828 -0.892456 26.000000
8.921839 2.690264 -1.996038 1.000000
