VERSION .7
FIELDS x y z intensity
SIZE 4 4 4 4
TYPE F F F F
COUNT 1 1 1 1
WIDTH 1231
HEIGHT 1
VIEWPOINT 0 0 0 1 0 0 0
POINTS 1231
DATA ascii
6.362811 -8.468310 0.518052 21.000000
86.438683 79.428780 1.003963 10.000000
93.987495 31.849585 2.910625 20.000000
19.386219 -10.803530 1.089315 15.000000
6.415233 -8.473232 0.508632 23.000000
86.010048 79.590424 1.063568 10.000000
19.863314 -10.974187 1.101945 13.000000
6.558599 -8.596934 0.508040 23.000000
85.740479 79.982269 1.146063 10.000000
92.620728 32.163349 2.927074 20.000000
20.442680 -11.196678 1.119570 10.000000
6.479174 -8.425540 0.490083 46.000000
56.863293 53.435555 0.817166 12.000000
92.383369 32.460842 2.957525 12.000000
21.052509 -11.435338 1.142393 10.000000
6.504152 -8.394175 0.480355 100.000000
56.692623 53.630295 0.871753 1.000000
91.844185 32.650066 2.961103 12.000000
21.596476 -11.628504 1.148137 9.000000
6.453765 -8.269364 0.465327 133.000000
90.911346 32.658421 2.968254 24.000000
22.203485 -11.850577 1.164884 10.000000
6.364117 -8.098979 0.447918 38.000000
90.309433 32.834251 3.003059 19.000000
22.900547 -12.114984 1.190055 9.000000
6.424739 -8.108910 0.440845 251.000000
89.911743 33.063267 2.993844 27.000000
23.624424 -12.392583 1.211419 9.000000
6.390922 -8.008636 0.427647 29.000000
90.009117 33.474091 3.034706 28.000000
6.310854 -7.849120 0.413318 50.000000
30.525019 29.944536 0.626945 11.000000
90.102463 33.849342 3.075253 30.000000
77.481934 -4.535424 3.307296 1.000000
6.368462 -7.867203 0.408302 36.000000
30.374025 30.026140 0.648575 15.000000
90.238098 34.296261 3.084354 30.000000
77.738609 -4.264606 3.290337 1.000000
6.379982 -7.819844 0.394763 28.000000
30.667227 30.517723 0.694758 7.000000
90.374794 34.691635 3.126768 29.000000
26.313038 -13.320507 1.272202 27.000000
6.374340 -7.760249 0.385798 34.000000
81.809540 -3.900972 3.447052 23.000000
26.621058 -13.354086 1.274304 9.000000
6.387024 -7.717843 0.376096 24.000000
90.548668 35.522102 3.209686 30.000000
81.808311 -3.600440 3.446421 8.000000
28.979116 -14.404276 1.356352 9.000000
6.455224 -7.739557 0.369552 27.000000
90.766045 36.028477 3.273681 26.000000
82.474846 -3.326950 3.473963 26.000000
30.330162 -14.930866 1.399162 11.000000
6.509428 -7.746644 0.363954 11.000000
90.791725 36.406040 3.313354 26.000000
82.946381 -3.041506 3.478820 7.000000
31.484343 -15.369546 1.437796 24.000000
6.660668 -7.867898 0.361787 96.000000
26.112617 26.946131 0.733578 8.000000
90.828499 36.807785 3.336722 1.000000
32.665520 -15.798163 1.470052 8.000000
6.591072 -7.730805 0.345888 38.000000
25.884995 26.907888 0.762545 8.000000
91.078926 37.261372 3.402029 20.000000
85.687447 -2.528176 3.592931 22.000000
34.147411 -16.360699 1.520794 7.000000
6.561421 -7.644534 0.339479 36.000000
25.820351 27.038342 0.789667 9.000000
91.306023 37.745533 3.432920 26.000000
35.676304 -16.940355 1.565530 8.000000
6.759092 -7.811170 0.335447 90.000000
25.677271 27.077120 0.814241 8.000000
91.497932 38.218136 3.480035 24.000000
37.257710 -17.524206 1.617701 8.000000
6.835717 -7.844218 0.330618 29.000000
25.683777 27.283571 0.837242 9.000000
91.464127 38.579536 3.518544 28.000000
38.287365 -17.837423 1.630025 30.000000
6.822293 -7.776596 0.321490 35.000000
91.550247 39.011723 3.579506 26.000000
76.974663 -1.168901 3.199647 40.000000
38.516575 -17.772690 1.614756 10.000000
6.900578 -7.807920 0.314727 18.000000
91.552368 39.447620 3.620595 26.000000
76.873672 -0.872142 3.195287 253.000000
38.701576 -17.694460 1.605036 19.000000
18.361874 19.933447 0.671817 7.000000
91.809761 39.958134 3.654041 35.000000
76.877472 -0.590388 3.168451 255.000000
38.962654 -17.641457 1.590745 10.000000
18.446899 20.173632 0.696725 7.000000
92.372269 40.548592 3.752003 28.000000
76.913414 -0.335600 3.183316 255.000000
39.141033 -17.549637 1.595391 19.000000
7.045425 -7.800064 0.293596 45.000000
18.369146 20.237041 0.715678 9.000000
92.510201 41.014198 3.781373 30.000000
76.915237 -0.053697 3.156467 255.000000
39.355270 -17.489183 1.571644 14.000000
92.719101 41.475258 3.831018 35.000000
76.964432 0.188060 3.171951 149.000000
39.544880 -17.408401 1.554127 22.000000
92.301147 41.694962 3.855443 29.000000
76.948242 0.470056 3.171333 255.000000
39.801300 -17.347414 1.546520 10.000000
6.673051 -7.234049 0.250841 34.000000
51.158478 57.520000 2.190552 1.000000
92.399788 42.147968 3.936996 27.000000
76.945999 0.752082 3.171333 255.000000
39.975464 -17.249249 1.527995 17.000000
6.686000 -7.194993 0.245189 33.000000
51.081287 57.899593 2.264617 20.000000
92.971809 42.801582 4.021383 32.000000
76.951607 1.034218 3.198609 255.000000
40.241100 -17.189194 1.520437 15.000000
50.920628 58.125214 2.320472 14.000000
93.005684 43.270493 4.084123 23.000000
76.992027 1.330459 3.200478 253.000000
40.419384 -17.090445 1.509459 10.000000
49.814175 57.284454 2.332649 20.000000
76.993286 1.585892 3.173804 255.000000
27.439436 -11.489421 1.012824 7.000000
49.642460 57.470776 2.386589 20.000000
76.996948 1.868319 3.174216 254.000000
27.634190 -11.452107 1.002776 6.000000
77.029541 2.151630 3.175863 35.000000
27.556089 -11.301577 0.988024 9.000000
7.495996 -7.778615 0.226283 30.000000
77.101028 2.436468 3.179157 17.000000
27.481882 -11.153648 0.973527 9.000000
7.515495 -7.739156 0.216555 26.000000
76.846855 2.696980 3.182489 3.000000
29.818855 -11.987103 1.043668 115.000000
7.569178 -7.742896 0.209798 28.000000
94.000595 46.192905 4.408105 27.000000
29.828012 -11.857948 1.025563 36.000000
7.467824 -7.583411 0.198784 54.000000
28.656887 34.431709 1.587826 6.000000
94.070244 46.655952 4.474439 36.000000
29.834404 -11.734042 1.013095 9.000000
7.289245 -7.345438 0.184245 7.000000
28.175709 34.082798 1.598330 12.000000
93.986549 47.044441 4.515385 28.000000
29.938084 -11.648299 1.003935 28.000000
7.977139 -7.979925 0.193012 1.000000
28.093714 34.226196 1.639139 12.000000
94.056595 47.511406 4.582364 30.000000
29.971897 -11.535152 0.981202 17.000000
16.039219 -15.938757 0.371007 22.000000
28.039749 34.416908 1.682135 12.000000
29.963596 -11.418022 0.968483 24.000000
7.182220 -7.085104 0.158487 8.000000
27.570240 34.095055 1.692110 12.000000
30.017612 -11.318769 0.957737 29.000000
7.197520 -7.048333 0.149460 7.000000
27.587561 34.361099 1.746740 12.000000
94.870216 49.218075 4.797199 21.000000
30.213430 -11.266296 0.962661 31.000000
27.401514 34.386784 1.773674 12.000000
94.832977 49.640724 4.860644 36.000000
30.156359 -11.119289 0.948308 30.000000
7.402586 -7.146098 0.138284 144.000000
27.460463 34.721111 1.816671 12.000000
94.749619 50.019226 4.921507 27.000000
30.150265 -10.991681 0.935632 12.000000
7.407137 -7.098228 0.130718 36.000000
27.572582 35.114101 1.871213 12.000000
30.009172 -10.809883 0.918815 53.000000
7.433168 -7.071093 0.123556 169.000000
21.049524 27.010115 1.465172 6.000000
30.755144 -10.951414 0.929015 42.000000
7.454296 -7.034405 0.114491 28.000000
20.891529 27.010990 1.490911 8.000000
95.726418 51.867092 5.115366 24.000000
30.725899 -10.826325 0.904280 38.000000
7.465460 -7.000732 0.108965 21.000000
20.802561 27.090839 1.515193 8.000000
95.540482 52.220226 5.210853 37.000000
30.958897 -10.781029 0.909968 24.000000
7.439902 -6.925693 0.099350 255.000000
20.711403 27.177761 1.545677 8.000000
95.534103 52.672413 5.278252 21.000000
92.619484 7.972860 3.928770 1.000000
30.884056 -10.616149 0.895100 25.000000
7.592583 -7.011142 0.093796 96.000000
20.600519 27.228889 1.574344 8.000000
68.289116 37.962414 3.821273 12.000000
92.338783 8.257261 3.918003 1.000000
31.032957 -10.552394 0.886947 9.000000
68.496239 38.406864 3.881931 4.000000
83.940964 7.816522 3.577610 36.000000
31.136223 -10.466398 0.877374 8.000000
27.276611 36.607716 2.192840 8.000000
83.980125 8.130748 3.610029 27.000000
68.158386 38.845329 3.946691 1.000000
83.922028 8.420914 3.594026 28.000000
36.679005 -12.031075 1.010823 22.000000
67.919746 39.055584 3.996365 16.000000
83.835320 8.722695 3.606396 1.000000
36.461029 -11.797677 0.990116 8.000000
67.437401 39.107819 4.017316 15.000000
84.033058 9.084395 3.616442 30.000000
36.656712 -11.712749 0.980816 8.000000
9.028988 -7.979750 0.058887 18.000000
29.077702 40.213581 2.539947 10.000000
67.255539 39.316711 4.055534 13.000000
83.967087 9.359064 3.629691 25.000000
37.348660 -11.797491 0.984597 13.000000
9.070458 -7.962984 0.050559 28.000000
28.931236 40.291744 2.582212 9.000000
66.885727 39.398705 4.095433 1.000000
84.066002 9.667298 3.679793 10.000000
37.580471 -11.726603 0.989623 8.000000
9.080750 -7.913273 0.046249 17.000000
28.673346 40.257969 2.624874 8.000000
66.618820 39.571087 4.128629 14.000000
39.959473 -12.308409 1.036471 8.000000
9.062966 -7.842286 0.037652 21.000000
27.270803 38.587292 2.550762 8.000000
39.755238 -12.070985 1.022653 8.000000
9.132337 -7.838425 0.027307 20.000000
27.203463 38.778503 2.598569 14.000000
81.376595 -24.414146 2.061540 26.000000
8.876730 -7.568056 0.020359 31.000000
22.291504 32.025543 2.167884 9.000000
65.386169 39.833611 4.213580 1.000000
81.523720 -24.132950 2.033318 15.000000
9.102887 -7.703436 0.012488 23.000000
65.057648 39.945511 4.241464 10.000000
101.808311 13.584129 4.520362 20.000000
81.836227 -23.868582 2.023819 22.000000
9.145230 -7.676480 0.004168 24.000000
101.722412 13.952325 4.536743 12.000000
82.131744 -23.659531 1.999324 25.000000
9.132233 -7.614091 -0.004150 24.000000
101.536270 14.306137 4.548681 8.000000
77.319809 -21.981363 1.852234 5.000000
9.133110 -7.558251 -0.012415 50.000000
63.773556 40.098202 4.304050 20.000000
101.508057 14.663705 4.603491 16.000000
76.923660 -21.564331 1.826888 6.000000
9.164611 -7.527896 -0.016560 27.000000
21.414959 31.953077 2.312226 9.000000
63.837894 40.450268 4.357597 1.000000
101.388603 15.026015 4.618465 1.000000
76.993164 -21.279755 1.798776 20.000000
9.155949 -7.467410 -0.024745 22.000000
26.180700 39.390205 2.884530 8.000000
63.450169 40.562477 4.381774 7.000000
102.107346 15.515207 4.671827 23.000000
44.978943 -12.254234 1.041638 5.000000
9.171582 -7.424351 -0.032952 18.000000
24.913919 37.783943 2.799843 6.000000
82.801308 -22.233017 1.885699 1.000000
9.190917 -7.384407 -0.041155 33.000000
24.803541 37.889347 2.841216 13.000000
82.723083 -21.887276 1.867136 6.000000
9.198356 -7.335069 -0.047228 27.000000
24.585869 37.873390 2.872481 9.000000
61.671833 40.372295 4.443806 3.000000
82.711922 -21.575674 1.865173 1.000000
9.205555 -7.285775 -0.053274 23.000000
88.523239 14.734306 4.106510 1.000000
83.947884 -21.569773 1.876114 17.000000
9.240038 -7.258145 -0.059472 25.000000
20.163336 31.528530 2.452944 8.000000
60.916512 40.472836 4.511626 9.000000
88.264618 15.023935 4.144020 14.000000
82.926315 -20.983585 1.851552 27.000000
9.231054 -7.196535 -0.067416 20.000000
21.390757 33.719448 2.652282 10.000000
60.790665 40.711170 4.551782 14.000000
88.176498 15.325836 4.158022 12.000000
44.484592 -11.083009 0.984319 8.000000
9.229649 -7.141205 -0.075361 24.000000
21.245106 33.749718 2.683770 10.000000
44.263077 -10.855672 0.962615 8.000000
9.267623 -7.116439 -0.081576 26.000000
21.085672 33.770355 2.714150 10.000000
60.872746 41.400143 4.670289 1.000000
86.723640 15.729087 4.125672 18.000000
44.249275 -10.680505 0.953508 8.000000
9.260551 -7.059759 -0.089426 28.000000
21.037336 33.956211 2.758192 7.000000
60.602356 41.526379 4.699258 8.000000
86.738358 16.060347 4.144575 6.000000
43.967445 -10.442091 0.930823 1.000000
9.250453 -6.998601 -0.093130 20.000000
19.903015 32.389877 2.671690 6.000000
29.146118 20.129093 2.284392 6.000000
44.059128 -10.293419 0.924059 3.000000
9.295980 -6.979620 -0.101446 21.000000
19.855621 32.579853 2.714801 9.000000
29.180733 20.311363 2.330313 8.000000
83.468491 -19.193512 1.764136 36.000000
9.281378 -6.915606 -0.105050 23.000000
60.807095 42.640884 4.906842 7.000000
83.552902 -18.890762 1.764445 27.000000
9.282481 -6.863661 -0.112837 40.000000
19.785959 32.994553 2.811734 9.000000
60.569473 42.806274 4.965306 23.000000
36.413776 -8.092746 0.761830 193.000000
17.272738 -12.674168 -0.220619 28.000000
20.882698 35.100658 3.027985 10.000000
60.700592 43.217438 5.053712 14.000000
85.595078 17.445633 4.287647 3.000000
36.438179 -7.958133 0.768238 255.000000
17.278593 -12.581298 -0.227565 29.000000
21.089798 35.746281 3.106127 10.000000
60.584934 43.470589 5.083463 13.000000
36.408962 -7.812052 0.741006 255.000000
17.316351 -12.511932 -0.242373 36.000000
20.953165 35.799644 3.148075 9.000000
60.377113 43.657581 5.144744 14.000000
85.570915 18.095022 4.323571 7.000000
36.388309 -7.668220 0.746501 255.000000
17.370113 -12.454131 -0.253678 29.000000
19.311184 33.273376 2.960204 7.000000
60.277882 43.907059 5.201630 13.000000
36.386925 -7.528747 0.739414 255.000000
17.387018 -12.370017 -0.264435 24.000000
60.253590 44.228291 5.279035 5.000000
36.349171 -7.388716 0.744595 123.000000
17.415825 -12.294620 -0.271629 26.000000
19.608177 34.348927 3.126671 10.000000
60.060513 44.410007 5.314976 13.000000
33.270271 7.412403 1.732686 24.000000
84.125648 -16.779428 1.722001 32.000000
17.456554 -12.227752 -0.282725 32.000000
19.297710 34.080826 3.130509 13.000000
60.076794 44.763554 5.409760 14.000000
33.209805 7.520705 1.736852 69.000000
84.226128 -16.478716 1.707824 29.000000
17.484753 -12.152219 -0.289892 32.000000
19.792891 35.256096 3.281497 9.000000
59.884472 44.946190 5.472221 11.000000
33.268417 7.662273 1.765271 21.000000
84.270935 -16.167019 1.722502 33.000000
17.487888 -12.059583 -0.300334 28.000000
19.621958 35.239227 3.316051 15.000000
59.707546 45.156464 5.536823 10.000000
84.417130 -15.905007 1.739402 36.000000
9.877932 -6.758498 -0.173394 1.000000
59.743988 45.529202 5.621553 13.000000
85.947510 20.443884 4.691840 13.000000
9.872486 -6.704298 -0.174970 6.000000
59.793999 45.567310 5.718628 13.000000
85.680397 20.380346 4.769751 18.000000
9.868472 -6.701572 -0.164487 5.000000
19.664713 35.330517 3.374058 10.000000
59.854832 45.267853 5.682193 15.000000
85.987053 20.120588 4.798143 10.000000
84.366043 -15.910631 1.933291 37.000000
9.876986 -6.760382 -0.152504 1.000000
19.831812 35.325424 3.352012 10.000000
59.982052 45.019432 5.652240 11.000000
33.254070 7.658969 1.854099 8.000000
84.321564 -16.222511 1.948615 48.000000
17.486300 -12.062989 -0.252135 30.000000
19.300760 34.100090 3.214574 16.000000
60.019680 44.720993 5.627903 13.000000
33.271866 7.534759 1.859511 11.000000
84.250702 -16.529331 1.993343 37.000000
17.466774 -12.144246 -0.233926 33.000000
60.058041 44.408176 5.563763 12.000000
33.308681 7.414859 1.866011 9.000000
84.144417 -16.828987 2.037229 53.000000
17.426336 -12.211120 -0.222840 30.000000
60.194153 44.184662 5.535841 16.000000
36.353317 -7.402774 0.887253 198.000000
17.402037 -12.289437 -0.204510 26.000000
19.325010 33.297195 3.056968 8.000000
60.285477 43.912594 5.490136 11.000000
36.384369 -7.548087 0.901659 255.000000
17.377357 -12.367712 -0.189860 33.000000
60.415699 43.685482 5.461909 17.000000
36.404896 -7.691625 0.922354 255.000000
17.348289 -12.443069 -0.171407 32.000000
21.079958 35.729603 3.228482 10.000000
85.568359 17.751507 4.763483 1.000000
36.415073 -7.833311 0.942848 255.000000
17.294220 -12.509729 -0.160191 25.000000
20.879810 35.109749 3.143178 10.000000
60.569065 43.123795 5.355731 15.000000
85.437965 17.398081 4.737380 1.000000
36.434784 -7.977381 0.950623 248.000000
17.276976 -12.584735 -0.145494 29.000000
19.783882 32.991089 2.932965 19.000000
60.760719 42.941433 5.346338 11.000000
85.367607 17.073626 4.699667 1.000000
36.385628 -8.106484 0.956620 97.000000
17.250982 -12.662839 -0.126989 25.000000
60.986065 42.766388 5.300071 4.000000
86.085304 16.889265 4.751094 11.000000
83.512589 -18.927616 2.242317 29.000000
9.280391 -6.867128 -0.062464 28.000000
19.847713 32.566879 2.854249 9.000000
29.198610 20.323807 2.525120 8.000000
86.162155 16.576620 4.736591 1.000000
83.422409 -19.228912 2.271677 28.000000
9.287267 -6.925037 -0.052571 25.000000
19.832079 32.287067 2.802526 7.000000
60.580212 41.838322 5.174077 4.000000
86.674942 16.361732 4.777052 7.000000
83.466988 -19.561636 2.319748 7.000000
9.269844 -6.965056 -0.044521 22.000000
21.035913 33.967152 2.919976 9.000000
60.510067 41.478657 5.117087 17.000000
86.710594 16.039555 4.760309 14.000000
44.001797 -10.482707 1.231876 6.000000
9.256235 -7.008058 -0.036474 27.000000
21.060369 33.742939 2.879087 10.000000
44.251129 -10.705475 1.255799 9.000000
9.262311 -7.066215 -0.026433 22.000000
21.185232 33.667637 2.844375 10.000000
44.234592 -10.856872 1.264300 17.000000
9.238837 -7.096898 -0.020333 24.000000
21.352024 33.671379 2.816002 10.000000
60.816162 40.728245 5.002717 19.000000
44.466404 -11.103208 1.296205 7.000000
9.228589 -7.142961 -0.012221 21.000000
20.219038 31.627789 2.624936 9.000000
61.195011 40.657871 4.995823 5.000000
84.134308 -21.304880 2.469740 9.000000
9.229951 -7.198265 -0.002043 30.000000
84.311371 -21.678852 2.507665 6.000000
9.215300 -7.241313 0.004091 22.000000
61.689121 40.352856 4.934914 11.000000
84.092262 -21.982775 2.534118 9.000000
9.197911 -7.287562 0.010241 27.000000
61.750885 40.070858 4.889357 1.000000
82.703545 -21.912998 2.539282 1.000000
9.193227 -7.333603 0.020525 27.000000
26.050552 39.492737 3.142377 8.000000
63.251602 40.731632 4.957330 3.000000
45.088333 -12.140443 1.394008 2.000000
9.189660 -7.386036 0.026751 28.000000
26.221197 39.436203 3.112298 14.000000
63.385101 40.489716 4.929760 17.000000
102.021713 15.447548 5.479912 5.000000
44.902706 -12.250302 1.405779 1.000000
9.159919 -7.414909 0.034967 32.000000
21.372290 31.901449 2.496607 9.000000
63.712261 40.370663 4.904003 12.000000
9.164921 -7.480056 0.043359 29.000000
25.893890 38.345943 2.967814 2.000000
63.791592 40.109543 4.859683 22.000000
102.255089 14.735184 5.450479 6.000000
9.137418 -7.513576 0.051618 28.000000
101.902901 14.339655 5.429142 1.000000
77.126549 -21.940971 2.477943 8.000000
9.131671 -7.559746 0.062072 20.000000
102.311821 13.978595 5.429822 1.000000
9.123065 -7.609148 0.070497 92.000000
22.248232 32.202526 2.414513 9.000000
65.371635 40.122593 4.839152 7.000000
81.777321 -23.913363 2.707351 16.000000
9.102740 -7.648942 0.076782 88.000000
65.631958 39.951939 4.793698 16.000000
9.082233 -7.688678 0.085154 33.000000
27.205704 38.796097 2.848355 16.000000
9.099569 -7.760787 0.098107 22.000000
39.888298 -12.149416 1.368679 8.000000
9.092426 -7.815200 0.102539 20.000000
27.560738 38.710140 2.773223 1.000000
66.593887 39.556278 4.723848 11.000000
37.679447 -11.613311 1.301090 8.000000
9.073952 -7.851791 0.113096 19.000000
66.965866 39.461658 4.699586 13.000000
84.140793 9.675899 4.409048 9.000000
37.593262 -11.737794 1.313353 8.000000
9.078970 -7.914511 0.121928 19.000000
29.114557 40.279354 2.822167 5.000000
67.353500 39.358204 4.675640 15.000000
84.036743 9.351979 4.401770 24.000000
9.068617 -7.964171 0.130607 15.000000
67.598732 39.169853 4.641613 13.000000
84.066254 9.043454 4.386754 18.000000
9.031806 -7.990667 0.138918 22.000000
27.009111 36.808830 2.528534 13.000000
68.007698 39.121960 4.647491 8.000000
83.868843 8.711387 4.404270 1.000000
36.697174 -11.895316 1.333655 8.000000
7.819234 -6.969132 0.127973 9.000000
27.066151 36.577805 2.472313 13.000000
68.014519 38.763340 4.596153 1.000000
83.879631 8.416659 4.388514 29.000000
7.818386 -7.022430 0.135737 10.000000
27.125288 36.417889 2.435458 10.000000
68.274429 38.612083 4.577566 1.000000
83.990196 8.116927 4.377945 30.000000
7.828358 -7.078430 0.143687 10.000000
20.623972 27.478539 1.812612 7.000000
68.284615 38.303871 4.528123 11.000000
84.009445 7.808109 4.377427 18.000000
20.604828 27.244467 1.778228 8.000000
68.430984 38.056915 4.487415 8.000000
92.916061 8.292538 4.823577 1.000000
31.086987 -10.582873 1.175455 7.000000
20.764280 27.257013 1.753785 8.000000
95.414215 52.562889 6.185750 34.000000
92.830009 7.958339 4.817639 1.000000
30.976738 -10.672194 1.184209 8.000000
7.397387 -6.838074 0.158251 23.000000
20.773750 27.063097 1.716346 8.000000
95.588669 52.224895 6.089847 33.000000
30.712805 -10.701341 1.175540 20.000000
7.611187 -7.092582 0.170698 195.000000
20.925287 27.054634 1.702708 8.000000
95.834999 51.947563 6.113618 1.000000
30.823387 -10.866723 1.204137 33.000000
7.493942 -7.027442 0.177530 121.000000
30.731186 -10.961017 1.213501 23.000000
7.428091 -7.017033 0.181930 30.000000
27.642372 35.215633 2.142566 12.000000
94.637794 50.383389 5.881563 22.000000
30.243916 -10.912336 1.207070 33.000000
7.457694 -7.101866 0.190544 255.000000
27.502762 34.787071 2.091291 12.000000
94.568428 49.902470 5.809692 28.000000
30.100060 -10.985282 1.214128 9.000000
7.406213 -7.104785 0.200644 8.000000
27.606308 34.656197 2.050742 12.000000
94.828964 49.638622 5.759346 27.000000
27.906204 34.770409 2.024550 12.000000
30.150951 -11.248993 1.241896 39.000000
28.172735 34.852573 2.003697 12.000000
30.403614 -11.470379 1.265386 24.000000
16.133400 -15.804509 0.488856 13.000000
28.140505 34.552891 1.953420 12.000000
93.836212 47.791309 5.518826 13.000000
30.374952 -11.586920 1.277318 31.000000
16.071621 -15.859841 0.500571 20.000000
28.248589 34.427132 1.928789 12.000000
93.900589 47.432602 5.513331 27.000000
29.741451 -11.464345 1.274641 36.000000
7.976402 -7.929209 0.259158 16.000000
28.369654 34.329601 1.889926 12.000000
93.952065 47.047691 5.451512 24.000000
29.982769 -11.683764 1.298061 22.000000
28.617798 34.372540 1.858951 12.000000
94.002846 46.642975 5.352684 10.000000
30.023417 -11.826537 1.301688 62.000000
7.289210 -7.350533 0.251188 31.000000
30.197163 -12.023017 1.333852 16.000000
7.595152 -7.715404 0.274049 24.000000
77.231293 2.710472 3.955345 2.000000
29.846582 -12.010353 1.331551 7.000000
7.556207 -7.732326 0.281217 21.000000
76.832970 2.387727 3.920972 1.000000
7.586841 -7.820814 0.291034 5.000000
49.530216 57.361065 2.858423 1.000000
40.796474 -16.931831 1.866741 17.000000
7.120150 -7.450812 0.291470 6.000000
49.892277 57.354053 2.814022 22.000000
40.604549 -17.026901 1.876199 8.000000
6.888804 -7.256748 0.289974 1.000000
50.024216 57.122082 2.757684 9.000000
92.974426 43.236214 4.943090 26.000000
40.426033 -17.101574 1.885774 19.000000
7.081386 -7.514584 0.306452 228.000000
50.155479 56.810226 2.686109 8.000000
92.645454 42.670933 4.845880 16.000000
40.154064 -17.176882 1.899199 23.000000
6.914958 -7.389484 0.307436 230.000000
51.493553 57.917095 2.692755 6.000000
92.339272 42.120365 4.786251 32.000000
39.911400 -17.246399 1.905904 17.000000
6.752488 -7.274177 0.308444 70.000000
92.377281 41.748768 4.762906 29.000000
39.723083 -17.338078 1.930251 17.000000
6.785737 -7.358785 0.319820 14.000000
18.385784 20.376528 0.900861 6.000000
92.510651 41.362640 4.690283 32.000000
39.483742 -17.397945 1.929106 14.000000
6.996843 -7.646424 0.336583 20.000000
18.402885 20.267103 0.889009 23.000000
92.395554 40.982666 4.678262 26.000000
76.940643 -0.053715 3.911109 21.000000
39.277008 -17.479038 1.952196 9.000000
6.961123 -7.658226 0.346934 20.000000
18.396709 20.111692 0.856571 7.000000
92.201279 40.492729 4.572816 24.000000
76.976234 -0.335874 3.886016 31.000000
39.077572 -17.545763 1.945165 24.000000
6.821744 -7.555074 0.344792 30.000000
18.328287 19.903957 0.831400 4.000000
91.695496 39.870338 4.505479 33.000000
76.918877 -0.617558 3.896668 55.000000
38.907444 -17.641012 1.962317 23.000000
6.933882 -7.736083 0.360967 31.000000
91.610756 39.453827 4.459633 26.000000
76.991005 -0.900351 3.900463 20.000000
38.654251 -17.689138 1.967519 30.000000
6.863480 -7.711526 0.365917 30.000000
91.701744 39.095192 4.404757 34.000000
91.716805 -1.392769 4.646708 12.000000
38.411709 -17.748701 1.973274 18.000000
6.815149 -7.713970 0.372041 28.000000
25.623652 27.229219 1.063986 9.000000
91.519081 38.621532 4.354413 26.000000
91.890823 -1.732306 4.655816 15.000000
38.187042 -17.815025 1.987186 25.000000
6.885448 -7.851348 0.386572 22.000000
25.723059 27.115925 1.030944 8.000000
91.550789 38.240211 4.314525 31.000000
36.611748 -17.243793 1.922644 8.000000
25.854753 27.074368 1.006463 9.000000
91.509689 37.848431 4.271703 31.000000
85.466064 -2.238008 4.331008 2.000000
34.980682 -16.625015 1.860352 8.000000
25.959978 26.995262 0.980719 9.000000
91.335472 37.384937 4.205377 31.000000
33.599617 -16.119877 1.803072 7.000000
6.575016 -7.663079 0.396720 6.000000
26.179934 27.006161 0.958649 3.000000
91.130600 36.911694 4.155304 28.000000
6.571226 -7.718435 0.407137 9.000000
91.081146 36.503639 4.112608 25.000000
82.118385 -3.039848 4.162787 4.000000
6.545409 -7.739964 0.414214 21.000000
90.944649 36.081001 4.066521 35.000000
82.305534 -3.348897 4.187283 8.000000
6.436468 -7.667965 0.417847 79.000000
30.549101 30.859922 1.008161 7.000000
90.863686 35.663982 4.022897 26.000000
81.875557 -3.589081 4.165960 1.000000
28.849409 -14.346084 1.615258 7.000000
6.462492 -7.756524 0.428440 30.000000
30.658966 30.744703 0.977733 7.000000
90.647095 35.196098 3.939570 1.000000
26.390572 -13.255765 1.485724 14.000000
6.381103 -7.713428 0.430077 39.000000
90.464928 34.744347 3.875268 33.000000
77.852417 -4.011950 3.935426 1.000000
26.326088 -13.338659 1.489870 33.000000
6.282809 -7.651539 0.433996 18.000000
30.372435 30.014091 0.901903 29.000000
90.398849 34.357357 3.867277 17.000000
77.511040 -4.279260 3.959687 1.000000
6.481636 -7.952938 0.460506 33.000000
30.479326 29.899712 0.857087 11.000000
89.965469 33.815796 3.776206 18.000000
77.317543 -4.539342 3.923482 1.000000
6.324861 -7.816129 0.456578 94.000000
89.977638 33.444508 3.737986 18.000000
24.073891 -12.526734 1.417493 22.000000
6.308430 -7.854522 0.466277 32.000000
89.955460 33.061520 3.698502 10.000000
23.377724 -12.273580 1.383763 9.000000
57.897236 55.579674 1.442927 1.000000
90.415344 32.854893 3.678804 6.000000
6.710320 -8.478470 0.517476 70.000000
57.974606 55.247074 1.383873 1.000000
91.231270 32.791328 3.673433 12.000000
22.043955 -11.770375 1.331515 9.000000
6.592651 -8.392826 0.516372 25.000000
56.590469 53.533661 1.278141 9.000000
92.044144 32.703056 3.667167 13.000000
21.391270 -11.518012 1.303017 9.000000
6.440189 -8.257910 0.515845 32.000000
56.744835 53.305588 1.223050 1.000000
92.084442 32.337757 3.629910 1.000000
20.809118 -11.312540 1.282749 9.000000
56.856495 53.019539 1.153402 8.000000
20.254637 -11.098281 1.254874 11.000000
6.503702 -8.466607 0.542702 24.000000
57.032669 52.794346 1.098775 1.000000
93.754692 32.154259 3.582427 10.000000
19.691378 -10.888167 1.234375 17.000000
6.422343 -8.421379 0.547629 24.000000
57.156391 52.521187 1.043241 1.000000
19.214142 -10.707636 1.218231 10.000000
6.544880 -8.647606 0.568368 22.000000
18.739025 -10.533059 1.201837 10.000000
6.386901 -8.503463 0.566659 34.000000
18.289177 -10.364380 1.182660 13.000000
6.243473 -8.373211 0.565664 36.000000
95.759529 31.299038 3.482877 15.000000
18.155178 -10.376539 1.187430 20.000000
6.185837 -8.359679 0.568676 62.000000
18.133781 -10.452671 1.199524 21.000000
6.227255 -8.477381 0.584408 34.000000
18.135481 -10.538159 1.213081 21.000000
6.134086 -8.415017 0.587671 39.000000
79.368286 -8.986750 4.088246 1.000000
18.105167 -10.609500 1.217321 20.000000
6.152758 -8.505952 0.597957 36.000000
79.438255 -9.289685 4.107573 1.000000
18.052715 -10.667841 1.227432 10.000000
6.084875 -8.474240 0.603365 49.000000
28.029152 24.296743 0.271918 24.000000
18.036627 -10.743455 1.232557 15.000000
5.989746 -8.406621 0.606022 37.000000
18.005131 -10.814297 1.244140 13.000000
6.026344 -8.520767 0.621870 47.000000
94.230682 28.163034 3.159480 19.000000
76.232475 -9.752083 3.947035 1.000000
17.990429 -10.895391 1.256927 14.000000
6.032093 -8.595550 0.633067 72.000000
94.391838 27.834742 3.127055 7.000000
76.187004 -10.030209 3.933110 1.000000
17.947462 -10.955177 1.267639 14.000000
5.939042 -8.526095 0.633702 16.000000
94.422287 27.503708 3.090661 11.000000
17.915121 -11.025767 1.279255 11.000000
5.930134 -8.580191 0.645239 10.000000
58.504448 48.899960 0.292778 1.000000
95.004379 27.313862 3.054765 13.000000
80.094048 -11.128217 4.152965 1.000000
17.899652 -11.106907 1.288429 21.000000
5.853299 -8.535739 0.645719 29.000000
58.591072 48.608704 0.239169 1.000000
94.648094 26.836245 3.005753 1.000000
79.794952 -11.384923 4.153697 1.000000
17.855968 -11.166316 1.299151 13.000000
58.801285 48.385914 0.186069 15.000000
94.612152 26.416187 2.949739 12.000000
17.827009 -11.239306 1.311110 10.000000
17.803934 -11.311801 1.323396 15.000000
5.869466 -8.757781 0.685464 18.000000
26.077909 21.147636 0.029300 8.000000
17.770563 -11.382237 1.327706 19.000000
5.861856 -8.816125 0.697623 11.000000
26.011612 20.951273 0.005829 107.000000
17.753292 -11.463155 1.340654 18.000000
5.850011 -8.865272 0.707339 38.000000
17.721140 -11.530242 1.348668 14.000000
5.839066 -8.919630 0.717440 1.000000
17.690685 -11.602937 1.360700 10.000000
5.813056 -8.947903 0.725561 3.000000
9.997442 -6.609637 0.777125 3.000000
13.934934 -21.622784 1.771733 8.000000
59.301277 46.347904 -0.223315 9.000000
9.932560 -6.616683 0.778055 5.000000
15.008889 -23.468746 1.938225 9.000000
59.391640 46.068878 -0.262375 17.000000
9.907903 -6.652815 0.784304 9.000000
14.980639 -23.614819 1.970266 10.000000
85.164825 20.823946 2.341756 17.000000
86.113518 -15.447722 4.523814 1.000000
9.904939 -6.701107 0.792205 1.000000
14.914312 -23.701872 1.997516 12.000000
59.683640 45.598587 -0.380164 11.000000
85.767311 -15.710302 4.493362 1.000000
17.744989 -12.100274 1.422797 9.000000
14.817540 -23.731451 2.015270 18.000000
59.762428 45.312847 -0.445056 20.000000
17.699903 -12.164807 1.434043 10.000000
14.690516 -23.721102 2.024490 10.000000
59.799923 44.997055 -0.509416 20.000000
33.546230 7.812625 0.871869 10.000000
17.685631 -12.246112 1.443884 10.000000
6.234359 -10.145704 0.872386 1.000000
59.876007 44.711536 -0.560837 21.000000
33.623661 7.700847 0.861094 34.000000
17.656370 -12.321836 1.456497 10.000000
37.165894 27.541487 -0.387542 9.000000
33.583820 7.562282 0.841322 83.000000
84.286621 -16.704489 4.428003 1.000000
17.625076 -12.391707 1.465030 9.000000
13.593669 -22.481222 1.966144 10.000000
60.994961 44.854443 -0.673944 1.000000
33.611458 7.439173 0.835314 123.000000
84.436058 -17.055969 4.424033 1.000000
17.603333 -12.473082 1.478362 10.000000
13.543627 -22.585001 1.993977 12.000000
61.113815 44.597649 -0.765886 10.000000
33.663624 7.321394 0.805857 180.000000
47.197216 -9.713953 2.474751 9.000000
17.585915 -12.557809 1.480754 10.000000
13.499860 -22.691223 2.013087 13.000000
91.951599 66.610786 -1.228705 231.000000
33.699287 7.206048 0.782032 182.000000
36.611538 -7.668557 1.914545 8.000000
17.521307 -12.604252 1.486580 10.000000
13.491699 -22.867838 2.047662 22.000000
92.222633 66.293091 -1.328199 33.000000
33.784576 7.094897 0.765318 27.000000
85.146645 -18.160616 4.440830 11.000000
17.369568 -12.591961 1.485136 10.000000
13.421323 -22.931076 2.063112 20.000000
17.337383 -12.661187 1.489919 10.000000
13.388024 -23.058437 2.089082 31.000000
61.532211 43.874298 -1.081641 8.000000
85.235550 -18.506453 4.250583 1.000000
17.299170 -12.633281 1.449072 10.000000
13.379282 -23.043381 2.054966 10.000000
92.243011 66.283325 -1.645579 13.000000
33.744080 7.080244 0.649988 37.000000
85.153229 -18.177559 4.136663 1.000000
17.353415 -12.571011 1.415752 10.000000
13.446599 -22.955879 2.009719 11.000000
92.003952 66.624229 -1.605999 212.000000
33.722790 7.204918 0.650083 248.000000
36.554779 -7.663329 1.741754 8.000000
17.525612 -12.607348 1.407461 10.000000
13.483163 -22.844257 1.975916 10.000000
61.078968 44.572220 -1.029426 19.000000
33.687775 7.320490 0.643877 255.000000
17.580816 -12.549537 1.389262 10.000000
13.519394 -22.715034 1.941178 10.000000
37.087395 27.273308 -0.610680 1.000000
33.650955 7.441754 0.643691 255.000000
84.162910 -17.016083 3.914162 1.000000
17.592926 -12.465707 1.367879 10.000000
13.535673 -22.562809 1.899880 24.000000
37.083763 27.480625 -0.596160 6.000000
33.623775 7.565113 0.625645 255.000000
17.610891 -12.381735 1.346877 10.000000
5.503478 -9.098070 0.756595 5.000000
60.077274 44.861828 -0.942265 28.000000
33.580990 7.684905 0.637398 254.000000
85.455620 -16.626368 3.892380 1.000000
17.638592 -12.309429 1.326858 10.000000
5.577751 -9.141409 0.750705 3.000000
59.769131 44.973885 -0.887783 20.000000
33.538097 7.804560 0.631111 255.000000
17.668098 -12.224850 1.310320 10.000000
6.197097 -10.073237 0.816642 4.000000
59.651947 45.229080 -0.862364 19.000000
33.509266 7.927431 0.631111 196.000000
85.669662 -16.032642 3.805355 1.000000
17.713589 -12.169661 1.291870 10.000000
6.277357 -10.124339 0.810023 1.000000
59.736298 45.638817 -0.839751 9.000000
33.578503 8.067684 0.638970 10.000000
38.506088 -7.060243 1.702393 6.000000
17.728115 -12.079703 1.270750 10.000000
13.832945 -22.128744 1.747058 8.000000
59.537453 45.816914 -0.786745 9.000000
85.245880 20.812233 1.638918 13.000000
38.595917 -6.930594 1.698373 8.000000
9.876511 -6.681874 0.700090 3.000000
13.824642 -21.953161 1.714066 9.000000
59.314022 45.992092 -0.759813 13.000000
38.851978 -6.836669 1.687887 3.000000
9.887845 -6.639348 0.688818 1.000000
13.942245 -21.969463 1.691763 17.000000
59.331047 46.321152 -0.709440 20.000000
39.168102 -6.744388 1.679687 2.000000
9.937339 -6.619866 0.684298 1.000000
14.039598 -21.944668 1.670976 10.000000
17.666601 -11.675540 1.198758 9.000000
13.918935 -21.573145 1.624248 10.000000
17.678896 -11.595205 1.178330 16.000000
13.966844 -21.490627 1.594568 29.000000
99.989433 26.362345 1.967448 1.000000
76.956406 -12.395309 3.226116 1.000000
17.709238 -11.522497 1.166433 22.000000
5.758094 -8.792589 0.644675 9.000000
25.998995 20.933630 -0.244686 102.000000
76.700279 -12.065809 3.213503 26.000000
17.745808 -11.449548 1.147453 19.000000
26.054239 21.135979 -0.222510 3.000000
99.667305 27.041649 2.000928 1.000000
76.567871 -11.757565 3.165500 33.000000
17.746342 -11.366724 1.133977 17.000000
5.882736 -8.837487 0.628870 12.000000
99.726227 27.450453 2.022177 1.000000
76.525009 -11.477706 3.148524 28.000000
17.817783 -11.311872 1.120855 19.000000
5.895922 -8.787304 0.617566 28.000000
94.573471 26.405388 1.953931 9.000000
76.502831 -11.187831 3.132387 31.000000
17.826286 -11.234503 1.104289 17.000000
76.372978 -10.910286 3.085111 34.000000
17.848948 -11.161925 1.092219 20.000000
58.829231 49.119133 -0.347780 1.000000
94.309616 27.042847 1.969463 13.000000
76.234840 -10.605583 3.064485 35.000000
17.886295 -11.094296 1.073593 12.000000
58.490269 49.235935 -0.280222 1.000000
76.162186 -10.297531 3.033082 33.000000
17.916883 -11.026853 1.062068 18.000000
6.016699 -8.695701 0.576386 59.000000
58.464088 49.546082 -0.240756 1.000000
94.319099 27.813292 2.008304 1.000000
76.076103 -10.002101 3.014761 33.000000
17.940760 -10.951086 1.046386 17.000000
5.991697 -8.592092 0.561802 76.000000
58.267014 49.747143 -0.187206 1.000000
93.957558 28.081404 2.019907 21.000000
75.995392 -9.735234 2.996874 33.000000
17.976971 -10.882952 1.035135 15.000000
6.021932 -8.571523 0.552661 30.000000
58.004745 49.891953 -0.146889 12.000000
93.609642 28.315908 2.048588 24.000000
75.892250 -9.439428 2.978054 33.000000
17.998339 -10.810218 1.019494 10.000000
5.964134 -8.429686 0.533945 26.000000
28.056795 24.312130 -0.045357 5.000000
93.567360 28.677855 2.049949 23.000000
75.818237 -9.148163 2.947117 33.000000
18.016842 -10.731671 1.007301 18.000000
6.087975 -8.538177 0.534886 28.000000
58.776520 51.292095 -0.040846 1.000000
93.694855 29.093027 2.089326 15.000000
75.706322 -8.866658 2.928222 33.000000
18.065107 -10.670911 0.996795 10.000000
6.097618 -8.488859 0.523983 33.000000
58.656498 51.603592 0.000000 1.000000
93.724419 29.515232 2.126926 11.000000
75.682228 -8.556005 2.912626 37.000000
18.076666 -10.584324 0.973198 25.000000
6.108578 -8.432470 0.509259 28.000000
75.572128 -8.289843 2.880738 35.000000
18.103321 -10.519471 0.965426 14.000000
6.144074 -8.425629 0.502712 23.000000
58.489185 52.221939 0.109481 10.000000
96.178833 31.046381 2.222906 21.000000
75.471130 -7.972291 2.862381 34.000000
18.145838 -10.446966 0.954463 16.000000
6.210703 -8.445577 0.494382 37.000000
95.783699 31.306938 2.234007 27.000000
75.358475 -7.707791 2.843883 32.000000
18.155077 -10.372277 0.934850 18.000000
6.197215 -8.362839 0.483583 26.000000
95.028374 31.409231 2.253761 14.000000
75.419724 -7.448131 2.845196 24.000000
18.439306 -10.449458 0.936483 10.000000
6.459634 -8.659953 0.492486 16.000000
94.869957 31.743044 2.252748 12.000000
76.034943 -7.227588 2.827340 14.000000
18.904690 -10.621836 0.946759 10.000000
6.410604 -8.528819 0.475166 34.000000
87.069939 79.980820 0.474604 10.000000
93.980492 31.828926 2.269036 26.000000
19.393410 -10.803102 0.957599 10.000000
6.405878 -8.457808 0.463238 19.000000
86.023643 79.603012 0.552314 10.000000
77.106766 -6.759529 2.851748 29.000000
19.894924 -10.991652 0.968539 9.000000
6.511353 -8.535006 0.459322 19.000000
85.884697 80.060753 0.614781 10.000000
92.846741 32.187366 2.315807 26.000000
77.070145 -6.485307 2.849539 37.000000
20.461443 -11.206955 0.977796 9.000000
6.491028 -8.444005 0.448253 33.000000
56.760143 53.301327 0.462058 1.000000
92.453804 32.431217 2.343175 30.000000
77.123764 -6.205231 2.837139 47.000000
21.082350 -11.446782 0.992874 10.000000
56.675205 53.595081 0.517345 1.000000
91.467545 32.462238 2.321179 14.000000
77.117088 -5.920297 2.809042 37.000000
21.641682 -11.652845 1.004402 8.000000
6.398149 -8.201052 0.417772 33.000000
90.980232 32.665241 2.345598 27.000000
77.133286 -5.637246 2.808860 34.000000
22.244452 -11.872442 1.017127 10.000000
90.473869 32.858284 2.369252 22.000000
77.069176 -5.348653 2.792292 34.000000
6.360970 -8.034184 0.393667 41.000000
89.989296 33.073956 2.410102 13.000000
77.182114 -5.085841 2.795723 40.000000
6.580413 -8.243141 0.395979 30.000000
90.107933 33.457146 2.449811 24.000000
77.265541 -4.806983 2.784560 39.000000
6.338686 -7.886554 0.372784 160.000000
30.514114 29.923389 0.432646 17.000000
90.180435 33.860676 2.488786 24.000000
77.372437 -4.529015 2.787795 34.000000
6.331380 -7.815814 0.361797 20.000000
30.368444 29.999672 0.461941 13.000000
90.298706 34.283230 2.495501 28.000000
77.514221 -4.252296 2.765190 32.000000
6.372859 -7.808330 0.351961 27.000000
90.423607 34.710373 2.536284 27.000000
77.618195 -3.999880 2.754829 34.000000
26.326239 -13.332962 1.087239 35.000000
6.440113 -7.837533 0.347148 28.000000
77.613014 -3.700866 2.754121 33.000000
26.654484 -13.370854 1.088244 7.000000
6.432103 -7.766793 0.336296 27.000000
90.729210 35.574657 2.637037 27.000000
28.972391 -14.400932 1.163753 29.000000
90.764626 35.972912 2.675986 33.000000
82.286362 -3.319347 2.919014 30.000000
30.338955 -14.941773 1.198707 9.000000
90.863281 36.397919 2.717003 30.000000
82.741844 -3.062927 2.920326 5.000000
31.482477 -15.368636 1.229516 9.000000
26.078825 26.892471 0.562322 8.000000
90.988701 36.835732 2.724772 26.000000
83.138077 -2.772501 2.904860 18.000000
32.731281 -15.829967 1.256952 7.000000
6.593847 -7.736794 0.303480 28.000000
25.889587 26.893866 0.592948 9.000000
91.195030 37.290295 2.820880 25.000000
34.317390 -16.442139 1.295591 9.000000
25.758209 26.963848 0.618346 8.000000
91.324738 37.734608 2.863672 32.000000
85.448608 -2.237550 2.984954 14.000000
35.754745 -16.969954 1.333668 8.000000
25.700266 27.101370 0.638897 8.000000
91.397987 38.157654 2.870335 30.000000
37.510365 -17.643042 1.367876 8.000000
25.672327 27.271408 0.673378 9.000000
91.440315 38.569492 2.928092 33.000000
91.997574 -1.734319 3.213197 9.000000
38.273026 -17.830744 1.371164 8.000000
6.839090 -7.790256 0.275073 25.000000
91.472115 38.978428 2.968404 28.000000
6.788881 -7.681535 0.264866 31.000000
91.463081 39.352379 3.007338 21.000000
76.917854 -0.899496 2.686214 63.000000
39.012424 -17.828348 1.370452 8.000000
6.849739 -7.687978 0.257043 48.000000
18.448423 20.027403 0.551357 4.000000
91.701775 39.854038 3.072371 19.000000
76.970596 -0.617973 2.687959 140.000000
39.242058 -17.759710 1.353647 8.000000
6.908038 -7.696431 0.250946 25.000000
18.469385 20.184067 0.573089 7.000000
91.755455 40.277828 3.114107 14.000000
76.952827 -0.335772 2.673831 139.000000
7.009361 -7.760136 0.246435 59.000000
18.391748 20.240637 0.596746 10.000000
91.879829 40.734722 3.176050 13.000000
76.963539 -0.053731 2.674177 140.000000
39.509457 -17.557703 1.313397 25.000000
7.058711 -7.762864 0.239935 239.000000
92.130974 41.212177 3.224705 18.000000
76.967857 0.188068 2.687785 14.000000
39.565018 -17.409023 1.290461 22.000000
6.698133 -7.307168 0.218025 26.000000
92.113052 41.590641 3.264455 26.000000
76.956657 0.470107 2.687436 108.000000
39.803082 -17.339924 1.280976 10.000000
6.668188 -7.226246 0.209401 32.000000
92.245949 42.058346 3.292319 25.000000
77.010307 0.752711 2.662472 136.000000
39.947952 -17.245649 1.268589 15.000000
6.737755 -7.250688 0.200420 35.000000
51.564339 58.385471 1.944542 1.000000
92.860748 42.750450 3.391277 22.000000
77.016090 1.035084 2.689704 126.000000
40.210518 -17.192730 1.259735 8.000000
6.747274 -7.207772 0.194744 32.000000
51.148098 58.343765 1.991098 1.000000
92.997459 43.227184 3.419952 23.000000
77.012947 1.303930 2.662818 146.000000
27.261375 -11.526871 0.837091 8.000000
6.845809 -7.259517 0.186366 29.000000
50.912697 58.527088 2.058409 18.000000
93.245903 43.739124 3.524665 26.000000
77.036690 1.586786 2.690751 149.000000
27.345203 -11.444354 0.828016 27.000000
7.014892 -7.381825 0.184862 25.000000
77.041290 1.869394 2.664200 153.000000
27.323509 -11.328944 0.805551 37.000000
77.033920 2.151752 2.664200 133.000000
27.316071 -11.203136 0.798901 9.000000
7.507038 -7.790074 0.177506 9.000000
27.427420 -11.142696 0.790731 19.000000
7.587858 -7.816401 0.171131 6.000000
93.748131 45.643028 3.714033 33.000000
7.670357 -7.840919 0.162737 25.000000
93.957802 46.131168 3.783257 25.000000
7.612204 -7.730026 0.153383 135.000000
28.212503 33.873718 1.369983 7.000000
94.124306 46.682770 3.834199 29.000000
29.926062 -11.776123 0.814048 22.000000
7.267333 -7.325915 0.138687 10.000000
28.157015 34.048080 1.411647 12.000000
93.870346 46.986275 3.885881 27.000000
7.409894 -7.409894 0.131692 10.000000
28.047094 34.169399 1.451023 19.000000
94.126389 47.484814 3.957914 19.000000
101.603935 5.022590 3.552420 13.000000
7.402565 -7.353631 0.123842 7.000000
28.005911 34.375374 1.501885 12.000000
30.131796 -11.482117 0.788060 14.000000
28.092503 34.728516 1.544241 12.000000
30.056997 -11.327628 0.773794 31.000000
27.419844 34.152203 1.552403 11.000000
94.933731 49.251022 4.164646 30.000000
30.206291 -11.257629 0.765311 33.000000
27.549147 34.572052 1.597788 12.000000
94.878418 49.601238 4.225179 34.000000
30.261915 -11.152210 0.743151 19.000000
27.545053 34.815578 1.651142 12.000000
94.795868 50.043640 4.286630 34.000000
30.352318 -11.065342 0.744418 36.000000
7.288352 -6.984396 0.084571 22.000000
27.537067 35.068874 1.681736 12.000000
29.979086 -10.804957 0.723159 31.000000
7.375536 -7.016268 0.076399 28.000000
27.432003 35.187256 1.721803 7.000000
30.588491 -10.898088 0.725550 47.000000
7.419425 -7.006396 0.067682 31.000000
20.970055 27.102739 1.358377 8.000000
95.675369 51.839432 4.503701 28.000000
30.636944 -10.776952 0.714325 38.000000
7.364820 -6.903942 0.063428 55.000000
20.808994 27.099216 1.384233 8.000000
95.547684 52.180855 4.600983 37.000000
30.989056 -10.785467 0.710238 8.000000
7.514562 -6.992744 0.055539 18.000000
20.689600 27.139326 1.400483 8.000000
95.467979 52.635956 4.626344 23.000000
92.933563 7.983556 3.322464 7.000000
34.304485 -11.798589 0.772559 9.000000
7.421450 -6.857915 0.045855 39.000000
20.664600 27.313587 1.435497 8.000000
68.233513 37.931507 3.353918 10.000000
34.203728 -11.630577 0.756754 29.000000
7.737640 -7.097697 0.040317 18.000000
20.670372 27.520348 1.472653 6.000000
68.310623 38.271454 3.405004 11.000000
83.903046 7.812991 3.016263 21.000000
34.369583 -11.546613 0.746821 14.000000
27.143148 36.388813 1.974142 9.000000
68.194435 38.535431 3.447320 1.000000
84.340836 8.165670 3.047865 3.000000
34.416664 -11.422221 0.734266 9.000000
68.110001 38.802010 3.491002 9.000000
83.992149 8.442757 3.036362 13.000000
83.975029 8.752046 3.051637 13.000000
36.606850 -11.851920 0.752245 8.000000
9.039456 -8.051032 0.010564 20.000000
67.543961 39.138115 3.558515 1.000000
84.023445 9.053684 3.054526 24.000000
36.664452 -11.722276 0.745820 10.000000
9.048782 -8.002871 0.002108 21.000000
28.992075 40.065697 2.332240 7.000000
67.365952 39.349712 3.610933 13.000000
84.112244 9.375244 3.103356 24.000000
28.982201 40.347855 2.377522 4.000000
66.983490 39.456291 3.625355 5.000000
9.065730 -7.900185 -0.014691 18.000000
66.643005 39.585453 3.668989 9.000000
39.995853 -12.311972 0.766990 8.000000
9.041679 -7.821106 -0.018779 15.000000
27.357506 38.667004 2.358036 14.000000
39.911812 -12.126135 0.749955 8.000000
8.846456 -7.595731 -0.026456 22.000000
27.228754 38.785751 2.400635 14.000000
40.162022 -12.041544 0.746502 8.000000
9.113960 -7.767566 -0.035530 20.000000
22.313066 32.020744 2.011231 7.000000
65.539726 39.895790 3.766031 17.000000
40.392845 -11.949571 0.749974 8.000000
9.119444 -7.714716 -0.043781 20.000000
65.232361 40.021442 3.796543 8.000000
81.876244 -23.895760 1.488778 19.000000
9.142470 -7.679604 -0.050014 25.000000
9.135957 -7.617196 -0.060206 19.000000
26.075935 38.297638 2.509257 13.000000
102.202141 14.399957 3.892830 23.000000
81.853523 -23.254820 1.440733 3.000000
9.140668 -7.564506 -0.068337 18.000000
25.852861 38.270782 2.549781 10.000000
63.805283 40.102612 3.857203 19.000000
44.442627 -12.450420 0.765327 122.000000
9.172176 -7.534111 -0.072509 23.000000
63.824295 40.441650 3.920177 8.000000
44.627834 -12.326080 0.759650 123.000000
9.157061 -7.465655 -0.080422 24.000000
63.808552 40.760212 3.968112 4.000000
102.118202 15.535090 3.986176 14.000000
44.851444 -12.211088 0.746459 15.000000
9.164882 -7.416280 -0.088482 88.000000
26.023190 39.421307 2.731886 7.000000
62.970226 40.534889 3.990289 15.000000
9.191952 -7.382598 -0.096713 83.000000
24.818933 37.898426 2.659697 9.000000
62.735714 40.709923 4.024127 1.000000
82.653992 -21.853559 1.357976 29.000000
9.191526 -7.326998 -0.104632 139.000000
24.616049 37.890911 2.692389 3.000000
61.777935 40.410950 4.010931 8.000000
82.801720 -21.568232 1.329220 28.000000
9.205241 -7.285526 -0.110645 74.000000
88.262848 14.706798 3.546951 15.000000
82.832016 -21.252239 1.313518 74.000000
9.243630 -7.260967 -0.116941 23.000000
21.547586 33.693024 2.467156 7.000000
61.032776 40.550079 4.096740 8.000000
82.993378 -20.985142 1.285018 27.000000
9.207026 -7.177803 -0.124296 18.000000
21.321726 33.597664 2.489568 10.000000
29.345949 19.652819 1.993179 9.000000
86.367424 15.026933 3.505662 14.000000
44.060112 -10.969085 0.673646 10.000000
9.252990 -7.159265 -0.130688 25.000000
21.210331 33.694477 2.532824 8.000000
29.325953 19.788054 2.015084 8.000000
86.665329 15.406236 3.535410 24.000000
44.303963 -10.857502 0.676761 14.000000
9.263250 -7.113081 -0.136579 26.000000
21.030611 33.669086 2.560167 8.000000
29.260317 19.900225 2.040357 8.000000
86.587997 15.720095 3.549967 1.000000
44.290112 -10.682180 0.667994 8.000000
9.277272 -7.069946 -0.142511 12.000000
21.005730 33.905193 2.607202 9.000000
29.276257 20.060884 2.064984 8.000000
85.364990 15.821465 3.517357 29.000000
43.935066 -10.426300 0.654175 6.000000
9.299053 -7.032818 -0.150590 7.000000
20.867764 33.946613 2.639693 3.000000
29.221579 20.181206 2.097428 7.000000
86.009392 16.251644 3.592132 27.000000
44.177460 -10.312935 0.657217 5.000000
17.225866 -12.928845 -0.293227 21.000000
19.781118 32.444862 2.550571 12.000000
29.166683 20.301584 2.123712 8.000000
86.233154 16.621498 3.619351 17.000000
83.464844 -19.162001 1.225684 27.000000
17.228907 -12.832679 -0.303727 24.000000
22.193769 36.689610 2.930781 11.000000
60.763844 42.610554 4.474195 13.000000
83.466446 -18.840593 1.209748 27.000000
17.243580 -12.745610 -0.310646 33.000000
60.600620 42.828285 4.525702 11.000000
85.650963 17.161392 3.661188 23.000000
36.388622 -8.087155 0.514004 103.000000
17.273872 -12.670363 -0.325312 28.000000
20.825996 34.991451 2.854566 10.000000
60.553207 43.112507 4.598485 9.000000
85.756332 17.494087 3.683583 1.000000
36.392124 -7.954730 0.520161 172.000000
17.275639 -12.574535 -0.331936 26.000000
21.198013 35.915375 2.967472 10.000000
60.513138 43.419075 4.672744 18.000000
85.547256 17.778280 3.738486 1.000000
36.374882 -7.798099 0.519463 169.000000
17.329525 -12.516849 -0.347016 28.000000
21.037151 35.914379 2.998117 12.000000
