VERSION .7
FIELDS x y z intensity
SIZE 4 4 4 4
TYPE F F F F
COUNT 1 1 1 1
WIDTH 1228
HEIGHT 1
VIEWPOINT 0 0 0 1 0 0 0
POINTS 1228
DATA ascii
13.610694 -22.429729 2.979973 14.000000
87.927864 20.882515 8.033833 4.000000
85.880363 -16.180696 10.374385 1.000000
17.501011 -12.127315 2.678503 21.000000
13.630633 -22.286804 2.944197 10.000000
59.722004 45.644405 3.189873 7.000000
87.684990 21.148443 8.018338 18.000000
17.506378 -12.036301 2.653724 11.000000
13.703403 -22.222387 2.914619 26.000000
87.600685 21.468163 8.033637 5.000000
85.728783 -15.502290 10.249562 1.000000
17.557629 -11.981494 2.643834 12.000000
13.733355 -22.089331 2.885366 26.000000
59.616436 46.259918 3.268232 4.000000
111.343864 27.719864 10.200126 17.000000
85.841431 -15.213412 10.210343 11.000000
17.582405 -11.904184 2.625925 20.000000
13.753919 -21.951149 2.846113 12.000000
59.272430 46.342030 3.284976 10.000000
110.724937 27.976593 10.152310 2.000000
85.960228 -14.909719 10.217904 1.000000
9.934908 -6.675982 1.473922 4.000000
6.357566 -10.064451 1.299525 5.000000
86.139412 -14.631255 10.186697 9.000000
9.919081 -6.612704 1.457409 9.000000
13.869041 -21.778421 2.791224 24.000000
33.131050 26.287601 1.883535 6.000000
86.204010 -14.317360 10.172605 11.000000
9.949657 -6.585534 1.454458 6.000000
13.895011 -21.652016 2.763054 17.000000
33.150749 26.501808 1.912432 15.000000
95.861412 25.327677 8.848983 1.000000
17.702707 -11.619661 2.562519 10.000000
13.921828 -21.519871 2.725537 15.000000
32.955620 26.544384 1.921576 10.000000
95.788666 25.684416 8.833451 5.000000
17.708858 -11.531052 2.546048 22.000000
13.990779 -21.453627 2.705541 13.000000
26.066343 21.153343 1.542000 8.000000
95.676498 26.030594 8.866733 19.000000
17.746689 -11.467672 2.527012 16.000000
6.016066 -9.155102 1.149469 2.000000
17.785166 -11.400348 2.519044 15.000000
14.033925 -21.186874 2.639656 14.000000
32.328655 26.621271 1.967629 18.000000
95.112198 26.609493 8.849234 7.000000
17.803774 -11.329155 2.497670 16.000000
5.882617 -8.810616 1.091043 9.000000
32.376133 26.860098 1.998572 10.000000
17.835648 -11.253456 2.484864 20.000000
5.936379 -8.817632 1.085352 33.000000
32.863228 27.468176 2.049827 11.000000
94.190392 27.079840 8.798516 10.000000
79.780106 -11.198163 9.193144 1.000000
17.844564 -11.167851 2.465488 21.000000
6.058246 -8.934549 1.092693 7.000000
32.566952 27.423920 2.052499 32.000000
93.656891 27.298494 8.740805 1.000000
80.403008 -10.985250 9.245872 4.000000
17.859219 -11.090453 2.450991 18.000000
32.468925 27.545395 2.082465 15.000000
93.639236 27.666115 8.782920 1.000000
17.900476 -11.025371 2.443653 20.000000
6.289468 -9.134146 1.104983 2.000000
30.112633 25.727709 1.957876 10.000000
93.702827 28.040905 8.815221 1.000000
17.921385 -10.947848 2.422441 19.000000
6.332199 -9.117630 1.098225 8.000000
30.089529 25.899357 1.976425 26.000000
17.960571 -10.885880 2.411445 19.000000
28.089312 24.340305 1.869842 10.000000
17.989017 -10.813166 2.395081 11.000000
29.991310 26.199982 2.024344 9.000000
98.713272 30.707964 9.335491 20.000000
18.016800 -10.740168 2.382398 21.000000
6.152334 -8.663578 1.023153 7.000000
31.238338 27.472546 2.136492 8.000000
98.487701 31.034157 9.361195 37.000000
78.263580 -9.013881 8.836699 1.000000
18.042065 -10.670048 2.373389 26.000000
6.152699 -8.597168 1.008656 6.000000
78.322647 -8.729929 8.867554 1.000000
18.065565 -10.603242 2.360734 13.000000
6.204960 -8.603390 1.004575 255.000000
32.447300 28.950151 2.286559 9.000000
78.248566 -8.445246 8.814046 1.000000
18.079958 -10.522786 2.342770 11.000000
6.214883 -8.554052 0.993894 28.000000
96.153732 31.446461 9.224567 23.000000
18.125893 -10.464989 2.336577 18.000000
6.243762 -8.527895 0.984203 35.000000
31.677563 28.683187 2.284469 11.000000
95.960663 31.773121 9.234945 36.000000
18.147247 -10.380412 2.322857 11.000000
6.322779 -8.569744 0.982327 31.000000
31.579416 28.825865 2.315655 11.000000
95.628059 32.052387 9.249681 9.000000
18.184427 -10.317602 2.311910 16.000000
6.460048 -8.685788 0.990844 28.000000
31.647881 29.081337 2.357829 11.000000
94.998566 32.210690 9.234923 29.000000
18.448065 -10.377989 2.333098 10.000000
6.417591 -8.569212 0.972432 16.000000
94.471664 32.418583 9.177611 32.000000
18.937353 -10.566384 2.371146 10.000000
6.572454 -8.709284 0.981454 20.000000
93.765968 32.561043 9.155530 14.000000
19.407875 -10.744679 2.417749 12.000000
6.413458 -8.437181 0.943986 31.000000
93.458176 32.783535 9.170354 22.000000
19.922838 -10.934567 2.468865 12.000000
6.484109 -8.465542 0.942308 20.000000
30.258944 28.624468 2.365223 10.000000
92.471992 32.855068 9.086455 16.000000
78.554192 -6.196145 8.727242 6.000000
20.504192 -11.160686 2.515454 10.000000
6.515493 -8.442239 0.934864 14.000000
30.128727 28.701227 2.392006 10.000000
21.044500 -11.354996 2.568172 9.000000
6.092867 -7.837915 0.863309 87.000000
30.101351 28.886335 2.427445 1.000000
91.846336 33.374882 9.099823 6.000000
77.523338 -5.543342 8.594239 1.000000
21.635164 -11.571519 2.622066 13.000000
6.134302 -7.831807 0.856361 22.000000
30.299397 29.290462 2.474198 10.000000
89.930771 33.052444 8.955712 7.000000
77.558594 -5.273815 8.582320 1.000000
22.374617 -11.866755 2.697705 28.000000
6.114045 -7.747283 0.840887 15.000000
30.151257 29.361801 2.500357 10.000000
89.796761 33.377277 8.988224 27.000000
23.035183 -12.098870 2.757694 9.000000
32.546017 31.915955 2.724137 13.000000
90.238914 33.900608 9.044271 8.000000
23.808836 -12.394095 2.825908 19.000000
30.481417 30.111275 2.598075 23.000000
90.238426 34.278362 9.124742 24.000000
24.417562 -12.613639 2.893441 9.000000
32.442886 32.284725 2.799381 13.000000
90.576874 34.787342 9.171796 27.000000
25.266621 -12.935149 2.968380 10.000000
6.500562 -7.996088 0.849043 33.000000
32.079762 32.158241 2.810031 16.000000
26.069202 -13.225661 3.041481 10.000000
6.645713 -8.116585 0.855079 33.000000
31.892864 32.194874 2.819367 13.000000
26.343702 -13.249502 3.047285 31.000000
31.661303 32.196285 2.840957 12.000000
26.552338 -13.232721 3.065787 10.000000
31.307804 32.071098 2.859035 7.000000
91.507416 36.618881 9.403679 13.000000
6.502102 -7.765403 0.804215 101.000000
91.148056 36.863224 9.415206 26.000000
30.326590 -14.843719 3.447530 7.000000
6.510249 -7.720224 0.794791 30.000000
25.977371 27.003916 2.442808 9.000000
91.721039 37.524067 9.559700 1.000000
31.732445 -15.387920 3.600912 5.000000
6.487220 -7.635949 0.781519 255.000000
25.765184 26.971149 2.444769 9.000000
91.578751 37.839565 9.576033 27.000000
32.967384 -15.844877 3.708951 6.000000
6.466893 -7.555722 0.768744 82.000000
25.699306 27.100357 2.474114 8.000000
91.510941 38.167309 9.599591 34.000000
34.026821 -16.200809 3.821435 8.000000
6.571694 -7.624136 0.770965 73.000000
25.652876 27.231693 2.497999 8.000000
91.541611 38.574585 9.652577 35.000000
91.687195 39.013371 9.717340 28.000000
91.825493 39.470329 9.764874 31.000000
38.264515 -17.713116 4.208674 20.000000
91.804649 39.898746 9.814887 32.000000
38.543087 -17.670820 4.217214 12.000000
6.802097 -7.664080 0.754311 66.000000
25.732733 28.121740 2.645437 9.000000
92.177025 40.405331 9.903690 24.000000
38.746300 -17.600569 4.217700 23.000000
6.910262 -7.728708 0.755883 117.000000
28.338299 31.198034 2.947211 10.000000
92.389130 40.902653 9.978132 24.000000
38.913067 -17.504553 4.198761 17.000000
28.394867 31.480404 2.994248 11.000000
92.403473 41.314716 10.031647 32.000000
39.134510 -17.448364 4.216389 10.000000
27.995115 31.266874 2.993605 10.000000
92.614738 41.758793 10.104588 31.000000
39.328526 -17.370550 4.215581 16.000000
27.919710 31.391506 3.026137 10.000000
92.435204 42.086189 10.137567 23.000000
39.804974 -17.406914 4.229164 9.000000
6.807498 -7.400506 0.704900 27.000000
28.043993 31.764936 3.081944 10.000000
92.548325 42.547909 10.202919 24.000000
39.987122 -17.328836 4.227032 8.000000
6.875510 -7.419678 0.703800 31.000000
93.063995 43.218613 10.296077 31.000000
40.223953 -17.248320 4.229615 21.000000
6.946600 -7.436296 0.697308 31.000000
93.079094 43.601433 10.349928 29.000000
40.457771 -17.173304 4.232069 9.000000
7.306376 -7.769622 0.725222 19.000000
93.258369 44.102943 10.460522 31.000000
40.703979 -17.102018 4.251238 9.000000
7.319991 -7.729857 0.718291 30.000000
22.092213 25.757225 2.557449 6.000000
93.126297 44.438919 10.463044 33.000000
40.844280 -16.993469 4.228502 18.000000
7.207430 -7.555334 0.697201 28.000000
22.019117 25.863230 2.583793 8.000000
93.034035 44.814259 10.525690 25.000000
40.903049 -16.842319 4.212585 20.000000
7.200923 -7.493330 0.684801 26.000000
21.951967 25.976646 2.610950 8.000000
93.290802 45.359959 10.610067 35.000000
41.131813 -16.760464 4.214146 10.000000
7.336249 -7.578358 0.687629 6.000000
21.638882 25.788214 2.608045 8.000000
93.508148 45.869892 10.689669 26.000000
117.545456 4.207484 12.798471 12.000000
41.351295 -16.673437 4.214641 9.000000
7.188761 -7.374319 0.665973 1.000000
21.654701 26.000006 2.645185 8.000000
93.664207 46.373123 10.782170 31.000000
41.549305 -16.584898 4.213141 14.000000
16.120596 -16.415895 1.475746 30.000000
20.964188 25.359365 2.595285 5.000000
93.823189 46.860329 10.856236 29.000000
41.833424 -16.520809 4.219944 22.000000
16.167337 -16.343239 1.458417 28.000000
20.967955 25.554073 2.630551 6.000000
93.949402 47.354397 10.927969 20.000000
42.006351 -16.411385 4.215411 17.000000
7.759833 -7.786967 0.691638 11.000000
20.710617 25.420891 2.632421 8.000000
94.053787 47.840118 11.016282 27.000000
42.273708 -16.345982 4.220531 13.000000
7.755577 -7.728552 0.679257 7.000000
22.283237 27.556822 2.870029 16.000000
94.245590 48.352512 11.095830 31.000000
42.551537 -16.291416 4.234830 9.000000
16.029608 -15.857081 1.383022 12.000000
22.249765 27.722633 2.897521 9.000000
94.375137 48.856747 11.150841 24.000000
42.785999 -16.201626 4.220012 18.000000
16.084742 -15.795399 1.366978 20.000000
94.435318 49.327629 11.254443 25.000000
47.716019 -17.859274 4.699465 9.000000
20.984657 26.514051 2.809682 8.000000
94.822166 49.951763 11.359086 15.000000
47.706478 -17.675566 4.674818 24.000000
20.907663 26.616663 2.836211 8.000000
94.764908 50.323765 11.428971 20.000000
47.332993 -17.340153 4.614216 16.000000
8.885784 -8.539042 0.725685 183.000000
20.760906 26.639769 2.859840 8.000000
94.751488 50.784012 11.488740 1.000000
92.810249 6.636440 10.157460 25.000000
47.370586 -17.166616 4.603143 9.000000
8.899418 -8.489622 0.713482 147.000000
20.094982 25.981121 2.804304 8.000000
94.869919 51.295971 11.582936 1.000000
92.548149 6.991220 10.148157 7.000000
47.379677 -16.955051 4.579664 11.000000
8.883537 -8.412499 0.705447 73.000000
19.819462 25.819893 2.801933 5.000000
94.904640 51.765182 11.648436 1.000000
8.921853 -8.386973 0.699611 15.000000
19.762737 25.923527 2.828979 8.000000
91.457878 7.535277 10.082623 1.000000
8.918587 -8.325452 0.688527 84.000000
20.743504 27.427828 3.008616 8.000000
91.403435 7.868180 10.047324 19.000000
45.672108 -15.788609 4.355324 9.000000
8.909113 -8.255707 0.676949 56.000000
21.403637 28.517334 3.150857 7.000000
91.406876 8.206091 10.067152 1.000000
45.688690 -15.607108 4.334431 12.000000
8.946919 -8.229996 0.671140 21.000000
19.636280 26.353691 2.927331 8.000000
91.550888 8.541269 10.086234 9.000000
45.610176 -15.393844 4.304663 9.000000
8.977367 -8.197463 0.662653 18.000000
19.449514 26.303707 2.936862 10.000000
38.370396 -12.816218 3.610442 8.000000
8.966915 -8.127851 0.653323 20.000000
21.136988 28.806124 3.232737 9.000000
38.483028 -12.682353 3.616220 8.000000
8.995570 -8.096805 0.644874 23.000000
20.926165 28.728521 3.247083 9.000000
67.912987 39.288643 8.703508 27.000000
46.180187 -15.031589 4.300138 9.000000
9.021713 -8.060678 0.638273 20.000000
19.495216 26.971205 3.063792 8.000000
67.567154 39.419804 8.719110 15.000000
46.042019 -14.809072 4.290939 9.000000
9.021642 -8.001346 0.627747 16.000000
19.418934 27.054188 3.089334 11.000000
67.496048 39.663063 8.753638 6.000000
45.899105 -14.595329 4.239199 24.000000
9.051153 -7.968441 0.621433 19.000000
19.309410 27.110809 3.116996 13.000000
66.877708 39.630180 8.760919 9.000000
46.141666 -14.486459 4.265175 29.000000
8.497733 -7.426114 0.575640 73.000000
18.965950 26.826262 3.105574 10.000000
66.584641 39.802750 8.783620 18.000000
46.224415 -14.326530 4.250919 21.000000
9.048082 -7.851526 0.604771 26.000000
19.398254 27.652187 3.210782 23.000000
46.441544 -14.216333 4.257755 9.000000
9.073412 -7.815393 0.594069 23.000000
19.320753 27.757553 3.244554 8.000000
9.102153 -7.782219 0.589889 22.000000
19.391861 28.068159 3.302976 11.000000
65.436356 40.083740 8.797391 9.000000
9.081350 -7.706996 0.580455 19.000000
19.425417 28.338266 3.350573 9.000000
65.308914 40.304119 8.825319 3.000000
9.117482 -7.680354 0.572619 19.000000
29.892979 18.606741 4.067802 9.000000
9.126642 -7.631058 0.565191 33.000000
19.160709 28.385542 3.394181 8.000000
29.850342 18.717825 4.089119 8.000000
9.111256 -7.564310 0.554313 29.000000
64.119637 40.534756 8.830710 7.000000
49.753731 -14.060130 4.468807 9.000000
9.131432 -7.524695 0.547650 32.000000
18.893873 28.426800 3.430994 8.000000
63.730927 40.601082 8.836745 9.000000
49.628876 -13.828624 4.434893 9.000000
9.147573 -7.481870 0.540769 29.000000
21.208237 32.163979 3.913405 9.000000
63.516674 40.792637 8.894493 6.000000
9.155689 -7.432671 0.535510 30.000000
21.113590 32.277241 3.938148 9.000000
63.030762 40.792034 8.859620 11.000000
45.176666 -12.231904 4.012460 3.000000
9.167601 -7.386760 0.526384 26.000000
21.131231 32.551678 4.003677 9.000000
61.939983 40.408981 8.779413 1.000000
45.055443 -12.030439 3.997939 6.000000
9.194827 -7.353281 0.520219 29.000000
21.112581 32.785442 4.050400 10.000000
61.559460 40.483162 8.785574 5.000000
9.198454 -7.301066 0.512746 27.000000
20.216339 31.647907 3.940440 9.000000
130.173599 21.620134 14.941267 10.000000
77.720009 -20.143183 6.854870 11.000000
9.224023 -7.269023 0.508646 25.000000
20.186796 31.846144 3.982940 18.000000
61.002007 40.744839 8.851305 13.000000
130.206131 22.116232 14.954205 10.000000
77.531502 -19.805771 6.803969 24.000000
9.235073 -7.223019 0.501642 33.000000
20.229511 32.173710 4.048147 9.000000
60.876141 40.968792 8.892721 21.000000
130.332123 22.629414 15.001482 10.000000
78.017921 -19.625700 6.854440 5.000000
9.249919 -7.180146 0.492826 23.000000
20.662424 33.131092 4.186620 10.000000
78.951286 -19.553093 6.915801 9.000000
9.240761 -7.118913 0.484826 29.000000
20.409081 32.980705 4.185979 9.000000
60.524525 41.364468 8.962276 1.000000
130.596466 23.639229 15.144850 10.000000
78.923111 -19.239380 6.878550 25.000000
9.266925 -7.085099 0.480755 28.000000
20.597769 33.559891 4.291600 10.000000
60.530819 41.695080 9.037863 19.000000
130.701065 24.129642 15.190154 10.000000
80.805283 -19.399632 7.051255 8.000000
9.257078 -7.023958 0.476873 29.000000
20.610376 33.844864 4.353810 10.000000
60.565289 42.046959 9.105149 11.000000
130.960266 24.674187 15.301380 10.000000
79.902451 -18.873413 6.951954 16.000000
9.289783 -6.997812 0.469164 22.000000
60.621597 42.400417 9.175138 9.000000
130.876450 25.155457 15.278691 10.000000
79.933434 -18.571682 6.934257 16.000000
9.303625 -6.954937 0.460450 29.000000
60.940384 42.956860 9.286796 6.000000
131.623260 25.775747 15.447440 14.000000
80.057251 -18.306149 6.924976 17.000000
9.309119 -6.906003 0.455414 22.000000
20.521729 34.535065 4.513143 10.000000
60.767258 43.153122 9.349369 20.000000
131.267105 26.205933 15.440482 10.000000
80.196716 -18.028992 6.931278 15.000000
9.318402 -6.860083 0.450590 11.000000
20.372828 34.572399 4.543698 10.000000
60.552254 43.335175 9.380267 11.000000
80.443436 -17.774969 6.932444 23.000000
17.283375 -12.626371 0.822267 39.000000
20.189230 34.549728 4.559259 5.000000
60.406471 43.566521 9.448390 14.000000
80.323669 -17.454659 6.931278 1.000000
17.390562 -12.607179 0.813899 50.000000
60.286129 43.800434 9.493072 11.000000
36.554306 -7.803205 3.145279 7.000000
17.513947 -12.598957 0.809966 28.000000
19.627628 34.119709 4.554385 10.000000
60.297245 44.147076 9.560004 11.000000
36.505173 -7.652930 3.132062 23.000000
17.540014 -12.520411 0.797744 31.000000
19.523006 34.227474 4.587067 10.000000
60.234524 44.424953 9.614422 7.000000
117.612312 25.686640 14.078045 28.000000
36.484715 -7.509146 3.121377 7.000000
17.530951 -12.421794 0.784090 34.000000
19.235106 34.025639 4.591577 9.000000
60.064537 44.640396 9.679733 9.000000
116.962074 25.972706 14.074574 30.000000
47.736279 -9.651336 4.106755 8.000000
17.560123 -12.346040 0.779614 29.000000
18.976484 33.829529 4.597780 9.000000
59.934677 44.869507 9.737135 18.000000
47.693832 -9.460936 4.091547 175.000000
17.576605 -12.270733 0.771042 31.000000
18.792496 33.791203 4.617399 9.000000
59.830296 45.134499 9.813502 19.000000
47.982506 -9.335546 4.113348 170.000000
17.609398 -12.188779 0.766586 37.000000
18.729620 33.956661 4.672240 9.000000
59.776020 45.438278 9.898506 13.000000
48.268578 -9.216455 4.143726 118.000000
17.666410 -12.141788 0.759818 38.000000
18.816999 34.412716 4.767143 10.000000
59.670357 45.687481 10.000785 12.000000
18.804630 34.404362 4.793311 10.000000
59.694885 45.706261 10.071675 9.000000
18.979336 34.423595 4.791724 10.000000
59.810673 45.464619 10.064372 18.000000
48.238979 -9.236984 4.262490 109.000000
17.679525 -12.155346 0.801719 37.000000
18.838520 33.887886 4.691945 9.000000
59.909889 45.194542 10.013131 21.000000
47.940247 -9.353378 4.264721 152.000000
17.597548 -12.194211 0.811249 31.000000
18.939520 33.777451 4.665661 9.000000
59.990734 44.927814 9.973744 9.000000
47.669685 -9.482091 4.260811 140.000000
17.601421 -12.292628 0.828509 28.000000
19.146460 33.868832 4.666822 10.000000
60.072857 44.646580 9.946830 15.000000
116.975540 25.932854 14.584167 14.000000
17.588335 -12.379643 0.848821 31.000000
19.331144 33.932373 4.663644 10.000000
60.137997 44.369965 9.918637 26.000000
117.261299 25.545660 14.629278 3.000000
36.506859 -7.526989 3.293897 7.000000
17.566807 -12.461021 0.865041 33.000000
19.584558 34.072350 4.658401 10.000000
60.336399 44.175743 9.884747 15.000000
36.382061 -7.653641 3.305002 8.000000
17.553158 -12.548301 0.877944 29.000000
20.240957 34.917480 4.762631 9.000000
60.328609 43.847389 9.831849 18.000000
36.479813 -7.813935 3.323025 7.000000
17.542900 -12.638380 0.898642 31.000000
20.255602 34.649426 4.700655 5.000000
60.452873 43.599987 9.786289 14.000000
17.354589 -12.599594 0.902604 35.000000
20.378201 34.609127 4.682534 8.000000
60.561745 43.357952 9.766129 13.000000
20.501507 34.528473 4.653343 9.000000
60.607204 43.055378 9.708354 10.000000
131.397842 26.208185 16.309013 10.000000
9.336064 -6.883141 0.502372 30.000000
20.590410 34.404068 4.617870 8.000000
60.653160 42.770248 9.678567 11.000000
131.436661 25.715385 16.325743 10.000000
9.302398 -6.911090 0.512053 26.000000
20.335190 33.696732 4.512023 10.000000
60.758080 42.511665 9.657220 2.000000
130.914246 25.139027 16.226244 10.000000
79.599098 -18.567230 7.452935 1.000000
9.300636 -6.962830 0.523516 27.000000
20.497465 33.672676 4.484457 10.000000
60.425602 41.965614 9.541862 11.000000
130.982056 24.607283 16.245880 13.000000
79.362968 -18.804491 7.451279 1.000000
9.298759 -7.014754 0.530965 26.000000
20.656584 33.682087 4.480838 10.000000
60.380314 41.606945 9.497550 12.000000
130.451385 24.083549 16.147100 10.000000
80.601509 -19.410234 7.617967 12.000000
9.273993 -7.047001 0.537064 28.000000
20.544554 33.225544 4.388661 10.000000
60.455597 41.348335 9.447641 17.000000
130.497604 23.597811 16.118519 10.000000
9.251843 -7.083809 0.543396 24.000000
20.572271 33.012192 4.349317 9.000000
60.721630 41.204437 9.426492 19.000000
130.365387 23.080790 16.115082 10.000000
9.268935 -7.150936 0.556174 25.000000
20.235130 32.207588 4.219449 9.000000
60.780067 40.934967 9.400323 19.000000
130.218094 22.586205 16.063620 10.000000
77.505173 -19.525486 7.414587 24.000000
9.242433 -7.184680 0.562304 32.000000
20.285194 32.038460 4.179746 9.000000
61.016251 40.769756 9.374623 9.000000
77.788750 -19.900415 7.462778 24.000000
9.251189 -7.246040 0.570616 21.000000
20.285997 31.781403 4.135901 9.000000
61.269756 40.630501 9.352605 7.000000
77.744263 -20.221888 7.494521 16.000000
9.224175 -7.279588 0.580870 25.000000
21.178532 32.913090 4.265596 10.000000
61.637836 40.550117 9.346786 9.000000
9.201181 -7.316329 0.585221 29.000000
21.160080 32.633522 4.204571 9.000000
45.365784 -12.130269 4.397640 2.000000
9.189572 -7.362236 0.594436 24.000000
21.256273 32.520138 4.179393 9.000000
62.989479 40.796520 9.454010 11.000000
49.589802 -13.454663 4.838995 16.000000
9.173857 -7.405014 0.603423 27.000000
21.259134 32.277935 4.130484 9.000000
63.369370 40.729286 9.449565 13.000000
49.600910 -13.653053 4.863047 28.000000
9.167080 -7.452540 0.610887 30.000000
18.747437 28.238543 3.592433 8.000000
64.002090 40.805244 9.494638 5.000000
49.568897 -13.839885 4.873911 9.000000
9.154905 -7.498541 0.618116 26.000000
19.233994 28.753103 3.648098 8.000000
64.068756 40.518242 9.468996 7.000000
9.157749 -7.557123 0.630564 25.000000
19.135298 28.379930 3.579426 8.000000
9.122057 -7.584041 0.636245 28.000000
19.525713 28.731215 3.608219 8.000000
65.199547 40.583145 9.511287 3.000000
47.601608 -13.847566 4.729858 9.000000
9.136042 -7.652473 0.645431 26.000000
19.326294 28.225340 3.535035 8.000000
29.990723 18.537113 4.354023 4.000000
47.474213 -13.990430 4.748175 19.000000
9.129440 -7.698602 0.653036 25.000000
19.332481 28.013567 3.487345 28.000000
30.049910 18.407394 4.333122 8.000000
47.516403 -14.192349 4.775035 9.000000
9.113326 -7.747824 0.662479 24.000000
19.385284 27.871004 3.454472 9.000000
29.978910 18.220297 4.307472 8.000000
9.095800 -7.790537 0.673759 25.000000
19.326820 27.581066 3.403122 12.000000
30.014059 18.091351 4.278132 1.000000
46.314354 -14.203925 4.690178 9.000000
9.079622 -7.831791 0.680880 23.000000
18.944136 26.825195 3.295244 8.000000
66.644104 39.838295 9.437158 18.000000
46.173405 -14.337223 4.689462 18.000000
8.673880 -7.537431 0.656545 84.000000
19.282772 27.093418 3.319266 12.000000
66.843948 39.641705 9.432040 15.000000
45.857887 -14.423747 4.679694 25.000000
8.664539 -7.585231 0.668021 21.000000
19.402105 27.060642 3.294183 10.000000
67.291130 39.574253 9.446959 9.000000
45.925652 -14.630254 4.717527 30.000000
9.033143 -7.966588 0.707123 19.000000
19.441298 26.906502 3.260671 9.000000
30.211342 17.625801 4.214108 14.000000
45.995865 -14.829669 4.747060 21.000000
9.025992 -8.019287 0.715203 15.000000
20.869785 28.682663 3.459282 9.000000
30.248781 17.513453 4.205017 8.000000
46.030293 -15.027236 4.764799 27.000000
9.002696 -8.052167 0.723931 17.000000
21.190172 28.889175 3.468727 8.000000
30.265409 17.368254 4.185670 15.000000
38.475666 -12.717161 4.001867 9.000000
9.004698 -8.116407 0.735087 23.000000
19.430614 26.287743 3.141869 17.000000
30.369596 17.280388 4.172734 8.000000
46.312889 -15.496077 4.831501 9.000000
8.989479 -8.162604 0.740536 25.000000
19.633219 26.368786 3.142355 9.000000
30.395081 17.147722 4.155217 8.000000
46.143803 -15.618816 4.836691 27.000000
8.966386 -8.201795 0.751750 61.000000
21.371067 28.484291 3.378685 7.000000
30.478312 17.054701 4.139886 8.000000
46.028172 -15.767941 4.847747 9.000000
8.946885 -8.244390 0.761170 130.000000
20.647640 27.330807 3.225840 8.000000
30.540302 16.956648 4.128281 8.000000
8.930943 -8.290435 0.768799 165.000000
19.755781 25.942562 3.042211 9.000000
30.446098 16.751728 4.088374 6.000000
47.636684 -16.719475 5.074730 8.000000
8.919781 -8.338227 0.778898 173.000000
20.751492 27.063427 3.163692 8.000000
30.585548 16.696564 4.087311 1.000000
92.360275 7.268912 11.112955 15.000000
47.482517 -16.842424 5.064229 9.000000
8.931755 -8.405095 0.788821 174.000000
20.106361 26.005209 3.020468 8.000000
47.452415 -17.027809 5.076529 10.000000
8.901161 -8.443934 0.797707 183.000000
20.735292 26.616484 3.076521 8.000000
94.656128 50.754173 12.503139 17.000000
47.077694 -17.079069 5.060447 9.000000
8.891492 -8.496894 0.806094 188.000000
20.853985 26.576962 3.056569 8.000000
93.720726 49.811214 12.336609 1.000000
47.156216 -17.303402 5.111099 9.000000
8.899419 -8.567095 0.818315 186.000000
20.869228 26.415548 3.022254 9.000000
93.805107 49.457825 12.251033 1.000000
47.637272 -17.678295 5.179187 9.000000
8.876211 -8.604651 0.827607 167.000000
42.962921 -16.114477 4.693257 9.000000
8.815749 -8.608939 0.831387 1.000000
22.249746 27.752365 3.155791 9.000000
42.683456 -16.188354 4.685281 9.000000
16.072449 -15.799867 1.532532 10.000000
22.196207 27.478607 3.109038 14.000000
94.070702 48.325016 12.124317 13.000000
42.404037 -16.260405 4.677141 13.000000
7.819632 -7.748983 0.760156 1.000000
20.716642 25.455492 2.865618 21.000000
93.849960 47.777683 12.017355 16.000000
42.173904 -16.341246 4.673976 20.000000
16.005594 -15.977684 1.569538 9.000000
21.027678 25.654240 2.872904 8.000000
93.606812 47.222702 11.926904 1.000000
41.909214 -16.415604 4.659218 8.000000
16.184431 -16.269396 1.612758 11.000000
20.970579 25.394163 2.829205 8.000000
93.548180 46.784191 11.861572 1.000000
41.736271 -16.524559 4.662531 9.000000
7.871151 -7.970690 0.791186 9.000000
21.606441 25.969704 2.878372 8.000000
93.509041 46.336952 11.798100 15.000000
41.459808 -16.582741 4.653840 12.000000
7.349220 -7.496920 0.748846 14.000000
21.577950 25.742960 2.838368 8.000000
93.470612 45.912216 11.717738 16.000000
41.258926 -16.678064 4.653825 8.000000
7.363064 -7.566319 0.760486 50.000000
21.713945 25.722290 2.820762 17.000000
93.244293 45.377594 11.631783 27.000000
40.993462 -16.745817 4.646401 8.000000
7.204643 -7.455416 0.752264 25.000000
22.048229 25.924911 2.827900 15.000000
93.060028 44.866810 11.551690 35.000000
40.822937 -16.842672 4.649294 20.000000
7.473784 -7.790867 0.790919 8.000000
22.254616 25.974081 2.818099 8.000000
92.941727 44.410603 11.481287 31.000000
40.796146 -17.006865 4.668911 20.000000
7.386338 -7.756420 0.792186 8.000000
92.772408 43.912762 11.386006 31.000000
40.626644 -17.111252 4.672218 20.000000
7.264996 -7.685204 0.789612 11.000000
92.693352 43.460201 11.320502 32.000000
40.382145 -17.174486 4.666457 19.000000
7.170925 -7.636260 0.787651 29.000000
27.919931 31.881453 3.402261 2.000000
92.547028 42.998173 11.284233 16.000000
40.152981 -17.251083 4.662679 26.000000
28.031563 31.773205 3.371881 8.000000
92.399597 42.518604 11.175308 22.000000
39.937489 -17.332172 4.660371 17.000000
27.885628 31.386265 3.311633 10.000000
92.341270 42.082340 11.113675 27.000000
39.747753 -17.414959 4.660618 21.000000
27.935524 31.211279 3.274527 10.000000
92.015472 41.546577 11.021278 29.000000
39.238129 -17.363371 4.608294 10.000000
6.900249 -7.564688 0.796840 36.000000
28.130110 31.219732 3.263046 10.000000
92.006516 41.175777 10.968187 30.000000
39.062359 -17.457075 4.625350 10.000000
6.934334 -7.660929 0.811425 14.000000
28.225769 31.095951 3.231405 10.000000
91.896721 40.723022 10.901731 31.000000
38.874424 -17.519814 4.624650 15.000000
6.888515 -7.661220 0.816269 148.000000
25.658167 28.069750 2.899515 9.000000
91.641235 40.227692 10.819354 32.000000
38.598175 -17.549540 4.606172 21.000000
6.660255 -7.456944 0.797415 20.000000
25.711580 27.921986 2.867315 9.000000
91.618263 39.817745 10.764063 23.000000
38.425858 -17.657671 4.616436 10.000000
91.562073 39.413918 10.723631 25.000000
38.224419 -17.710760 4.613778 14.000000
25.580902 27.374628 2.784256 7.000000
91.662476 39.059547 10.648190 24.000000
141.518906 -2.519637 16.927895 10.000000
25.650288 27.257524 2.755162 9.000000
91.515259 38.601101 10.579516 30.000000
141.186066 -3.031385 16.889299 10.000000
6.494544 -7.486938 0.818338 240.000000
25.700371 27.129915 2.731191 9.000000
91.510612 38.223431 10.528482 32.000000
33.994255 -16.199863 4.150712 7.000000
6.481192 -7.524448 0.823451 255.000000
25.783480 26.999733 2.689181 9.000000
91.365685 37.770199 10.443464 27.000000
32.328472 -15.565593 3.973933 6.000000
6.573550 -7.693918 0.846216 232.000000
25.967161 27.012167 2.679262 9.000000
91.245781 37.329632 10.414050 29.000000
31.314314 -15.205414 3.867747 3.000000
6.486363 -7.643047 0.845298 47.000000
91.120804 36.907726 10.350320 28.000000
29.808884 -14.616126 3.700443 7.000000
6.634459 -7.875883 0.875595 87.000000
31.299494 32.073784 3.141631 1.000000
91.114449 36.516987 10.265042 26.000000
6.485564 -7.759400 0.866982 200.000000
31.368378 31.931841 3.114348 9.000000
91.005989 36.086952 10.203307 30.000000
26.389374 -13.163008 3.307841 23.000000
32.037586 32.374851 3.137037 10.000000
90.826126 35.630947 10.134007 1.000000
26.317209 -13.247690 3.320481 29.000000
32.002609 32.103306 3.090275 13.000000
90.563797 35.163757 10.056704 25.000000
25.763487 -13.087529 3.256647 21.000000
32.394821 32.270672 3.093199 10.000000
90.634987 34.809662 10.016120 28.000000
24.982630 -12.800769 3.173495 9.000000
6.568337 -8.088104 0.922561 24.000000
30.485361 30.146723 2.870239 22.000000
89.593521 34.033386 9.853367 1.000000
23.901400 -12.357572 3.056151 50.000000
32.362976 31.769718 3.004234 13.000000
89.651245 33.697689 9.846719 24.000000
77.325905 -4.688817 9.264919 1.000000
23.497293 -12.257991 3.028947 15.000000
89.732346 33.353336 9.791482 24.000000
77.583900 -5.017126 9.298169 1.000000
22.772688 -11.991442 2.946005 10.000000
30.108850 29.126600 2.723689 10.000000
89.931900 33.052860 9.766178 26.000000
22.139570 -11.751999 2.877992 23.000000
6.168543 -7.824759 0.906779 25.000000
30.197309 29.008806 2.693159 9.000000
90.288353 32.826588 9.758501 9.000000
21.440643 -11.477108 2.800928 18.000000
6.150006 -7.857506 0.915105 111.000000
30.445276 29.033203 2.683648 10.000000
92.223785 33.184422 9.938455 19.000000
20.860010 -11.264854 2.738837 10.000000
30.502441 28.874994 2.642539 30.000000
78.428497 -6.172457 9.394876 1.000000
20.282787 -11.044762 2.680351 10.000000
6.465230 -8.386185 0.987906 25.000000
30.645771 28.798431 2.616320 10.000000
93.315475 32.788357 9.924669 28.000000
19.715609 -10.838748 2.615107 10.000000
6.493151 -8.489618 1.002791 85.000000
30.792255 28.724293 2.597687 10.000000
94.087929 32.709652 9.977673 20.000000
19.231318 -10.655705 2.563321 10.000000
6.554975 -8.629603 1.022478 19.000000
30.904644 28.628035 2.569201 10.000000
94.297043 32.358662 9.950845 26.000000
18.768633 -10.493734 2.518415 14.000000
6.573648 -8.726694 1.040466 24.000000
31.036064 28.539122 2.549256 10.000000
94.902725 32.196663 9.967510 19.000000
18.291681 -10.306833 2.466419 10.000000
31.307648 28.577791 2.533242 10.000000
95.463448 32.034286 9.997443 25.000000
18.172806 -10.323591 2.462631 14.000000
30.259161 27.418089 2.418800 10.000000
96.010254 31.789541 10.005611 29.000000
18.148075 -10.406123 2.468623 34.000000
30.212561 27.174879 2.371513 4.000000
96.265167 31.482906 9.948689 1.000000
18.116646 -10.468083 2.480165 25.000000
30.216377 26.978622 2.335660 10.000000
79.759933 -8.594284 9.608454 1.000000
18.092117 -10.538320 2.489239 27.000000
6.253033 -8.612882 1.049222 92.000000
32.429142 28.751478 2.476162 11.000000
98.183914 31.372252 10.070193 25.000000
79.635826 -8.876297 9.583171 1.000000
18.047964 -10.601383 2.499609 19.000000
6.165734 -8.558443 1.047266 1.000000
32.509361 28.610474 2.443933 6.000000
98.533813 31.048687 10.075012 32.000000
18.023664 -10.671907 2.501387 24.000000
6.245105 -8.739172 1.075906 9.000000
29.983791 26.193413 2.211985 5.000000
98.848488 30.750029 10.022642 25.000000
18.004614 -10.749947 2.515332 24.000000
6.172686 -8.698668 1.072154 12.000000
29.944681 25.966351 2.181247 9.000000
17.944582 -10.799251 2.523321 11.000000
30.078634 25.889980 2.156289 10.000000
17.946566 -10.890243 2.536630 10.000000
31.950993 27.298372 2.253903 10.000000
17.912296 -10.955180 2.540894 11.000000
32.314777 27.404924 2.242800 10.000000
17.892014 -11.033085 2.554904 18.000000
32.330929 27.225170 2.215119 10.000000
93.962181 27.387478 9.320588 1.000000
80.082710 -10.969967 9.695699 11.000000
17.880201 -11.116459 2.566476 12.000000
32.676880 27.312420 2.202135 11.000000
93.835579 27.013294 9.264699 2.000000
79.899414 -11.243350 9.678431 1.000000
17.827532 -11.170186 2.575677 22.000000
6.122684 -9.036371 1.143390 7.000000
17.799437 -11.243643 2.573826 16.000000
5.915955 -8.797235 1.116124 8.000000
32.408249 26.686811 2.112020 10.000000
95.048576 26.591694 9.294975 1.000000
17.788246 -11.323636 2.589114 12.000000
6.051455 -9.070344 1.157574 6.000000
95.220947 26.299751 9.268463 1.000000
17.762186 -11.398744 2.602602 11.000000
14.064529 -21.241129 2.718039 9.000000
26.132298 21.199303 1.645749 7.000000
95.475075 25.993692 9.231600 1.000000
17.734026 -11.468266 2.611810 11.000000
5.985614 -9.112226 1.170894 7.000000
33.072361 26.628899 2.054372 10.000000
95.576065 25.645288 9.214793 1.000000
17.703962 -11.541069 2.617340 12.000000
13.974473 -21.444981 2.762574 12.000000
33.036510 26.419933 2.024491 10.000000
96.000198 25.400200 9.212118 1.000000
17.674862 -11.610214 2.630256 9.000000
13.930873 -21.542095 2.786923 11.000000
86.124283 -14.335011 10.472808 9.000000
9.924182 -6.571164 1.486755 3.000000
13.890760 -21.653706 2.817475 10.000000
32.352627 25.486446 1.913446 10.000000
100.670151 25.847700 9.568622 1.000000
86.179802 -14.622642 10.500570 1.000000
9.915888 -6.618076 1.495476 7.000000
13.859402 -21.771669 2.844747 10.000000
32.407780 25.337955 1.875228 4.000000
100.740089 25.472454 9.511465 1.000000
86.344452 -14.976363 10.496220 1.000000
9.929560 -6.677420 1.503165 1.000000
6.341445 -10.042813 1.315471 8.000000
32.481014 25.213022 1.852788 4.000000
110.944229 27.620371 10.425028 32.000000
85.866798 -15.217907 10.460303 1.000000
17.551044 -11.896357 2.667269 14.000000
13.755341 -21.961939 2.892984 10.000000
85.930893 -15.538836 10.428278 1.000000
17.537704 -11.976871 2.675345 12.000000
13.720027 -22.076485 2.910933 15.000000
59.881538 45.782894 3.291083 5.000000
87.852890 21.205166 8.177134 7.000000
85.666519 -15.815499 10.418582 1.000000
17.500706 -12.045898 2.687719 10.000000
13.713559 -22.247549 2.945317 18.000000
59.669170 45.274948 3.204783 11.000000
85.746376 -16.155451 10.419978 1.000000
17.462242 -12.109474 2.692056 12.000000
13.658341 -22.332108 2.964064 10.000000
59.816528 45.042259 3.151440 23.000000
85.570656 -16.431849 10.420957 10.000000
17.445814 -12.193015 2.700169 24.000000
13.624545 -22.461393 2.988508 18.000000
60.138588 44.940323 3.120331 1.000000
86.857559 19.956865 7.953817 15.000000
85.423943 -16.728546 10.395077 1.000000
17.442772 -12.272635 2.717000 12.000000
13.552392 -22.519341 3.013141 11.000000
37.263298 27.633825 1.887610 9.000000
86.950172 19.658863 7.908920 29.000000
85.902390 -17.133810 10.445005 1.000000
17.405380 -12.341948 2.721988 10.000000
13.530047 -22.669870 3.040632 21.000000
60.112572 44.237892 2.971591 15.000000
86.208847 19.159405 7.788448 2.000000
85.578064 -17.395500 10.397796 1.000000
17.381983 -12.416766 2.728880 11.000000
13.487978 -22.779694 3.063075 10.000000
60.154922 43.930088 2.913622 1.000000
86.652290 18.924942 7.775392 27.000000
85.259148 -17.656321 10.382252 7.000000
17.335583 -12.479835 2.736336 10.000000
13.446058 -22.899935 3.091385 12.000000
84.972610 -17.906538 10.278057 15.000000
17.340479 -12.575491 2.740222 14.000000
13.380495 -22.971544 3.104134 19.000000
88.000999 18.544718 7.725855 22.000000
85.189758 -18.278654 10.296937 11.000000
17.300484 -12.638869 2.740856 10.000000
13.351860 -23.107470 3.125627 11.000000
85.116966 -18.263035 10.072516 16.000000
17.300312 -12.638744 2.702832 10.000000
13.356246 -23.115059 3.093595 13.000000
86.750542 18.597706 7.403385 1.000000
84.727036 -17.870230 9.942361 23.000000
17.333113 -12.565532 2.674175 13.000000
13.380246 -22.961901 3.046740 11.000000
60.328213 44.040493 2.647498 1.000000
86.601234 18.882122 7.349492 20.000000
85.350136 -17.675163 9.930752 8.000000
17.346912 -12.483394 2.646838 13.000000
13.445788 -22.881178 3.014394 28.000000
60.112980 44.205853 2.670888 19.000000
86.615402 19.218033 7.341032 26.000000
85.163223 -17.326654 9.855816 1.000000
17.390383 -12.418182 2.627576 14.000000
13.500769 -22.783152 2.979892 12.000000
37.175064 27.548283 1.672377 13.000000
87.113083 19.663736 7.389271 13.000000
85.391991 -17.047504 9.828816 14.000000
17.415245 -12.344375 2.605898 11.000000
13.528295 -22.648964 2.940526 30.000000
60.246296 44.955296 2.730100 5.000000
86.115120 19.754635 7.263849 23.000000
85.483322 -16.740175 9.786013 17.000000
17.421772 -12.262406 2.578136 17.000000
13.540741 -22.482214 2.902115 14.000000
59.833015 45.021954 2.745713 1.000000
86.569862 20.193226 7.324020 2.000000
85.614578 -16.455778 9.748180 17.000000
17.451607 -12.178938 2.563991 12.000000
13.614303 -22.418028 2.872452 15.000000
85.758270 20.335623 7.261615 13.000000
85.742813 -16.154779 9.709721 1.000000
17.499928 -12.122044 2.546012 17.000000
13.665491 -22.326286 2.839055 20.000000
59.713867 45.605179 2.820811 19.000000
85.591103 20.611814 7.238038 5.000000
17.512602 -12.036077 2.530136 14.000000
13.698661 -22.197350 2.810601 14.000000
86.752869 21.228292 7.358507 20.000000
85.949226 -15.557644 9.673941 9.000000
17.541643 -11.961612 2.512949 19.000000
13.736823 -22.077717 2.774267 19.000000
33.124168 25.665970 1.609793 9.000000
86.638130 21.537077 7.386796 20.000000
85.887222 -15.236989 9.645507 1.000000
17.576155 -11.895478 2.500662 10.000000
13.772567 -21.963867 2.747682 13.000000
33.116070 25.854500 1.628681 10.000000
86.486366 21.820183 7.364632 1.000000
86.143326 -14.956965 9.621711 8.000000
9.925709 -6.669799 1.398454 4.000000
6.366589 -10.070948 1.250172 6.000000
32.999794 25.977602 1.642760 4.000000
100.724556 25.805462 8.566792 7.000000
86.017929 -14.610620 9.586246 1.000000
9.927459 -6.615787 1.384560 8.000000
13.855574 -21.740520 2.686881 10.000000
33.092892 26.229103 1.673860 8.000000
86.254646 -14.372181 9.561213 1.000000
9.958031 -6.588577 1.381544 1.000000
13.884513 -21.619051 2.650647 18.000000
32.977253 26.325396 1.687401 15.000000
95.818886 25.280664 8.182147 1.000000
17.698753 -11.608229 2.430266 10.000000
13.948441 -21.544512 2.629651 25.000000
32.922436 26.479780 1.719095 10.000000
95.535103 25.580683 8.200624 1.000000
17.711088 -11.528101 2.415209 18.000000
14.026089 -21.491371 2.602268 26.000000
26.040070 21.101887 1.375470 7.000000
95.586342 25.970236 8.195733 12.000000
17.745934 -11.458405 2.403013 17.000000
5.994519 -9.115379 1.098562 7.000000
32.559875 26.583588 1.747036 10.000000
17.766521 -11.392772 2.386019 19.000000
6.132982 -9.251884 1.105974 4.000000
32.450180 26.692839 1.761081 17.000000
95.305496 26.627703 8.205170 1.000000
17.805016 -11.325580 2.374409 20.000000
5.879786 -8.799721 1.047030 10.000000
32.382179 26.836502 1.784777 10.000000
94.945633 26.902704 8.217306 1.000000
17.818388 -11.242565 2.355787 16.000000
6.024914 -8.949139 1.057799 9.000000
32.605652 27.214247 1.832023 10.000000
94.188774 27.025988 8.176736 1.000000
17.837507 -11.167768 2.341990 22.000000
6.058087 -8.927606 1.050267 85.000000
32.520245 27.345806 1.855132 11.000000
93.993416 27.360987 8.168837 1.000000
17.862473 -11.092474 2.328769 16.000000
6.335827 -9.263643 1.080661 148.000000
32.133446 27.222235 1.853476 12.000000
79.801582 -10.619454 8.617722 3.000000
17.915117 -11.030076 2.311511 21.000000
6.281002 -9.115037 1.058077 24.000000
32.119854 27.413561 1.888013 10.000000
79.737610 -10.327805 8.578480 1.000000
17.934904 -10.951809 2.301446 22.000000
6.369306 -9.164230 1.054954 2.000000
93.927536 28.447859 8.223884 1.000000
78.416382 -9.892388 8.418811 1.000000
17.963650 -10.887746 2.289359 29.000000
78.698868 -9.635122 8.445291 1.000000
18.002230 -10.825384 2.282026 17.000000
6.268845 -8.889947 1.012946 3.000000
31.664743 27.622915 1.944864 10.000000
98.796875 30.715061 8.742443 14.000000
78.793983 -9.339827 8.409572 1.000000
18.017349 -10.736234 2.259944 14.000000
31.435225 27.626240 1.951613 10.000000
98.434532 30.960756 8.701280 31.000000
18.041033 -10.669437 2.247363 14.000000
6.227590 -8.695397 0.977127 52.000000
31.497261 27.886028 1.991230 10.000000
98.270744 31.286619 8.732657 26.000000
79.710068 -8.898659 8.458218 3.000000
18.079514 -10.607188 2.232730 22.000000
6.197117 -8.589355 0.960180 39.000000
31.062340 27.704723 1.991984 8.000000
78.181366 -8.437994 8.278790 1.000000
18.102087 -10.531437 2.219646 16.000000
6.269949 -8.623513 0.959057 32.000000
96.185486 31.401106 8.585367 18.000000
18.130796 -10.463601 2.211285 16.000000
6.240289 -8.516913 0.938594 39.000000
95.909996 31.719200 8.607101 32.000000
18.169340 -10.388841 2.199801 19.000000
6.288226 -8.513578 0.931572 39.000000
31.529469 28.739946 2.116403 7.000000
95.209175 31.875025 8.589939 23.000000
79.031738 -7.665581 8.345552 1.000000
18.187056 -10.319094 2.190412 11.000000
6.352385 -8.541030 0.931259 14.000000
94.722137 32.061676 8.537963 19.000000
78.811134 -7.352710 8.277454 1.000000
18.493336 -10.407705 2.204190 10.000000
6.515578 -8.693727 0.940953 23.000000
31.525251 29.162056 2.175496 8.000000
94.460716 32.341133 8.559629 27.000000
19.053202 -10.631024 2.258562 17.000000
6.586919 -8.722118 0.937024 34.000000
31.378582 29.230301 2.194915 10.000000
93.783287 32.493710 8.543880 13.000000
78.664970 -6.771628 8.242872 1.000000
19.445597 -10.756698 2.288628 10.000000
6.433728 -8.457717 0.903553 96.000000
93.726555 32.859306 8.584553 5.000000
78.797157 -6.505998 8.254293 1.000000
20.028816 -10.988185 2.344682 13.000000
6.489408 -8.466336 0.897633 25.000000
30.073225 28.428896 2.161579 3.000000
92.509323 32.795616 8.466241 22.000000
78.550674 -6.195868 8.198236 9.000000
20.638826 -11.224631 2.390545 10.000000
6.429500 -8.324805 0.875876 29.000000
30.017475 28.565281 2.193377 10.000000
78.792480 -5.924437 8.207211 1.000000
21.204008 -11.436284 2.442873 10.000000
6.434417 -8.271328 0.865241 26.000000
29.954994 28.715773 2.218276 10.000000
91.254097 33.105595 8.441628 11.000000
21.777750 -11.642894 2.490978 12.000000
29.903740 28.867622 2.251031 10.000000
90.078331 33.035316 8.377224 24.000000
22.440861 -11.891855 2.552868 9.000000
89.890884 33.376553 8.405911 17.000000
23.170067 -12.174875 2.621743 13.000000
90.246063 33.849380 8.449576 25.000000
23.860844 -12.426462 2.671024 9.000000
6.580070 -8.210334 0.837318 51.000000
30.512209 30.131168 2.412503 33.000000
90.348152 34.247887 8.504263 26.000000
24.636602 -12.715899 2.742855 13.000000
6.594827 -8.167224 0.828006 37.000000
32.445763 32.242538 2.589397 13.000000
90.647102 34.741718 8.578482 20.000000
25.341702 -12.968003 2.806264 15.000000
32.291134 32.324966 2.610494 13.000000
26.175911 -13.274055 2.877720 26.000000
6.638031 -8.101431 0.811417 31.000000
32.072731 32.342556 2.634309 13.000000
26.327551 -13.229867 2.878657 24.000000
6.407962 -7.762432 0.769208 211.000000
32.014854 32.544449 2.672243 12.000000
90.985916 36.005505 8.732976 14.000000
26.873362 -13.386853 2.922629 7.000000
31.530365 32.276539 2.664898 1.000000
91.297249 36.516296 8.775645 17.000000
91.164558 36.851379 8.810413 25.000000
26.014576 27.004831 2.260567 9.000000
25.821198 27.001463 2.278526 8.000000
91.411560 37.714458 8.947133 30.000000
25.698195 27.061323 2.302145 8.000000
91.577766 38.176414 9.011954 31.000000
25.642227 27.201355 2.332246 8.000000
91.610840 38.566105 9.063386 30.000000
141.359665 -3.035112 14.511709 10.000000
91.704216 39.001713 9.121781 28.000000
141.633408 -2.521675 14.538766 10.000000
91.684174 39.390629 9.134087 23.000000
38.366402 -17.752150 3.966327 27.000000
6.910367 -7.838273 0.730699 36.000000
91.759491 39.802982 9.225795 21.000000
38.586971 -17.682789 3.959983 17.000000
6.876452 -7.742412 0.716843 39.000000
25.699261 28.065485 2.480865 6.000000
38.738918 -17.580906 3.953958 21.000000
6.858466 -7.665391 0.706623 58.000000
123.065063 -0.408101 12.609075 10.000000
38.982941 -17.527807 3.957548 13.000000
6.827421 -7.579958 0.693676 119.000000
28.351370 31.421150 2.818394 20.000000
122.988922 -0.021466 12.622895 10.000000
39.172440 -17.473473 3.956405 10.000000
6.823996 -7.523180 0.683532 31.000000
28.301809 31.565044 2.838176 5.000000
92.662956 41.761074 9.482408 36.000000
39.366520 -17.370911 3.953785 9.000000
6.811540 -7.454360 0.670692 30.000000
92.450363 42.073612 9.530020 30.000000
39.618259 -17.308792 3.957451 10.000000
6.913469 -7.510445 0.670856 25.000000
49.323708 55.828800 5.091704 1.000000
92.544189 42.506878 9.590791 33.000000
39.813492 -17.228836 3.940384 9.000000
7.032867 -7.584177 0.672488 30.000000
49.080219 55.965267 5.139922 1.000000
40.033260 -17.150007 3.940559 11.000000
7.015424 -7.512599 0.659301 10.000000
48.905132 56.159866 5.194324 10.000000
93.197739 43.637180 9.763898 14.000000
40.251724 -17.069263 3.955878 21.000000
7.114868 -7.563327 0.662397 60.000000
48.993385 56.679340 5.278288 6.000000
93.265236 44.066364 9.841523 32.000000
40.483486 -17.001064 3.941896 13.000000
7.091371 -7.483202 0.650425 51.000000
48.611065 56.615437 5.309653 1.000000
93.322174 44.472412 9.899455 22.000000
40.747818 -16.953337 3.946609 9.000000
7.181087 -7.522460 0.648832 89.000000
22.073782 25.909105 2.445791 8.000000
93.224983 44.886192 9.944628 25.000000
40.921474 -16.849907 3.941850 17.000000
7.242199 -7.533649 0.644650 28.000000
22.018848 26.018921 2.473171 8.000000
93.666916 45.462009 10.043638 10.000000
41.154884 -16.769865 3.942750 9.000000
7.190221 -7.424917 0.630354 1.000000
93.879791 46.031876 10.104614 28.000000
41.354210 -16.666222 3.940001 21.000000
16.073561 -16.476942 1.383675 20.000000
21.613493 25.932116 2.490897 8.000000
93.836617 46.438099 10.155110 28.000000
41.590935 -16.601517 3.941535 11.000000
16.120356 -16.404194 1.370433 29.000000
93.914062 46.885235 10.236621 28.000000
41.882671 -16.531809 3.947299 9.000000
16.167490 -16.337688 1.357506 33.000000
93.991707 47.355152 10.301023 19.000000
42.102020 -16.440292 3.946367 10.000000
7.759804 -7.784220 0.641454 10.000000
22.510567 27.620363 2.716680 9.000000
94.167023 47.856346 10.394321 18.000000
42.339844 -16.354568 3.947050 12.000000
7.781524 -7.748997 0.633204 1.000000
22.328363 27.573235 2.730047 22.000000
94.280296 48.307972 10.499129 25.000000
101.793198 5.459469 10.462501 23.000000
42.510799 -16.258804 3.949936 20.000000
16.049931 -15.866104 1.285479 20.000000
22.279032 27.739258 2.756347 8.000000
94.315407 48.804955 10.524772 26.000000
101.382828 5.827943 10.386724 12.000000
42.797867 -16.180504 3.954716 9.000000
94.449455 49.293053 10.652761 23.000000
101.617477 6.179588 10.448717 30.000000
20.843292 26.335438 2.649149 4.000000
94.730377 49.882286 10.704995 24.000000
101.458122 6.525440 10.416679 11.000000
20.877907 26.559690 2.688461 9.000000
94.752831 50.338558 10.785053 32.000000
101.190361 6.880723 10.391707 1.000000
8.898251 -8.545048 0.670297 162.000000
20.644369 26.461643 2.694440 8.000000
94.888947 50.836369 10.858636 34.000000
92.485619 6.629452 9.516562 1.000000
50.279140 -18.200794 4.546569 10.000000
8.904466 -8.488503 0.661957 24.000000
20.886120 26.965073 2.768219 8.000000
95.283844 51.455322 10.980573 19.000000
92.761131 6.974744 9.580173 21.000000
50.130482 -17.939440 4.517791 9.000000
8.912621 -8.437091 0.651777 10.000000
20.822409 27.087317 2.796926 8.000000
95.283432 51.907074 11.040643 31.000000
49.986012 -17.681341 4.480260 9.000000
8.951090 -8.411515 0.643732 20.000000
19.781540 25.929409 2.698514 8.000000
95.434937 52.422424 11.156141 25.000000
8.927337 -8.327789 0.633415 46.000000
20.655750 27.272203 2.848777 8.000000
45.621052 -15.770959 4.053355 15.000000
8.928810 -8.268169 0.622847 104.000000
68.342636 38.211067 8.077648 18.000000
91.441650 8.209212 9.455190 17.000000
45.510853 -15.528620 4.021089 34.000000
8.966725 -8.242439 0.614855 18.000000
19.707876 26.420891 2.796828 10.000000
68.445358 38.598465 8.148041 10.000000
45.456882 -15.350944 3.995175 26.000000
8.971290 -8.186172 0.606732 17.000000
19.394978 26.191685 2.788299 8.000000
68.309601 38.852577 8.176503 1.000000
38.367271 -12.800290 3.353712 8.000000
8.989019 -8.145029 0.597515 20.000000
21.179676 28.822090 3.085195 8.000000
38.437832 -12.652586 3.348302 8.000000
9.000480 -8.095538 0.589946 18.000000
20.990126 28.784647 3.104254 9.000000
67.903877 39.235931 8.228905 11.000000
46.175877 -15.030186 4.000929 15.000000
9.016407 -8.055937 0.580775 18.000000
19.443394 26.869865 2.919217 8.000000
67.760178 39.484879 8.270491 9.000000
46.318195 -14.897902 4.008730 9.000000
9.034024 -8.006695 0.571388 21.000000
19.420626 27.036615 2.959227 9.000000
67.355438 39.564617 8.293041 8.000000
