VERSION .7
FIELDS x y z intensity
SIZE 4 4 4 4
TYPE F F F F
COUNT 1 1 1 1
WIDTH 1224
HEIGHT 1
VIEWPOINT 0 0 0 1 0 0 0
POINTS 1224
DATA ascii
20.100836 19.656721 -1.507868 8.000000
10.904648 4.068406 -0.701669 1.000000
6.724945 -0.437240 -0.382676 5.000000
25.598494 -13.263331 -1.304144 10.000000
6.323655 -7.839791 -0.233849 39.000000
20.211357 19.627251 -1.535668 7.000000
10.830987 3.993615 -0.699982 1.000000
24.744864 -12.936301 -1.243529 12.000000
6.466877 -8.077759 -0.227590 79.000000
20.426151 19.690886 -1.566361 8.000000
10.816385 3.945396 -0.704195 1.000000
23.884901 -12.598408 -1.188458 30.000000
6.407681 -8.061334 -0.215707 33.000000
20.583754 19.697773 -1.597839 15.000000
10.821152 3.902256 -0.707600 1.000000
32.489311 -2.340262 -1.832547 33.000000
23.133551 -12.310687 -1.139563 25.000000
6.285319 -7.967167 -0.203710 38.000000
20.760098 19.735056 -1.631515 9.000000
10.797542 3.849079 -0.709145 1.000000
32.445992 -2.456712 -1.824902 212.000000
22.421913 -12.032603 -1.093221 29.000000
6.172642 -7.877923 -0.192166 29.000000
20.867552 19.692110 -1.659398 7.000000
10.797105 3.804379 -0.714213 3.000000
32.411251 -2.573590 -1.834851 105.000000
21.705866 -11.751010 -1.051770 11.000000
6.105629 -7.854332 -0.182333 38.000000
21.054890 19.716606 -1.693520 7.000000
10.796603 3.759775 -0.717270 1.000000
32.406422 -2.698461 -1.829458 40.000000
21.137318 -11.543590 -1.005209 64.000000
5.997517 -7.773891 -0.169669 30.000000
21.239883 19.758053 -1.723443 7.000000
10.748494 3.698905 -0.721136 1.000000
32.451019 -2.821976 -1.832547 31.000000
20.583067 -11.339039 -0.976712 29.000000
6.098110 -7.961588 -0.164546 103.000000
21.413052 19.759396 -1.761666 9.000000
10.794930 3.670690 -0.725342 1.000000
20.009195 -11.118686 -0.935400 14.000000
6.298921 -8.286503 -0.159880 32.000000
21.547218 19.751307 -1.792908 7.000000
10.798370 3.627760 -0.732660 1.000000
28.010830 -2.642871 -1.587782 2.000000
19.580866 -10.974792 -0.905478 13.000000
6.285080 -8.328480 -0.152980 75.000000
21.761538 19.787596 -1.835036 7.000000
10.763994 3.572360 -0.733410 1.000000
27.161589 -2.663217 -1.535408 3.000000
19.088734 -10.791092 -0.869211 14.000000
6.284575 -8.391601 -0.142734 19.000000
21.922361 19.801424 -1.863755 9.000000
10.748324 3.523479 -0.735422 1.000000
26.681040 -2.705456 -1.504046 3.000000
18.643318 -10.625338 -0.839359 9.000000
6.276197 -8.441669 -0.134031 29.000000
22.023560 19.753672 -1.892407 7.000000
10.737186 3.476297 -0.737740 6.000000
26.710665 -2.807404 -1.506286 2.000000
18.184328 -10.452230 -0.813082 11.000000
6.372931 -8.637719 -0.125529 23.000000
22.243883 19.804653 -1.925967 7.000000
10.706717 3.423127 -0.740690 13.000000
18.119671 -10.495158 -0.800762 26.000000
6.267486 -8.554032 -0.114755 19.000000
10.747241 3.392717 -0.750531 1.000000
18.073557 -10.565566 -0.785955 27.000000
6.475700 -8.909767 -0.107657 7.000000
10.774227 3.355798 -0.755467 1.000000
21.654278 -2.524637 -1.218863 1.000000
18.056353 -10.644496 -0.783235 16.000000
6.745926 -9.350018 -0.102629 34.000000
10.749207 3.300728 -0.756720 1.000000
21.367317 -2.570595 -1.203233 1.000000
18.021976 -10.713433 -0.768785 22.000000
6.691288 -9.346292 -0.092287 14.000000
10.764614 3.266436 -0.760982 6.000000
18.000076 -10.789898 -0.758530 28.000000
6.386419 -8.986565 -0.076968 39.000000
10.776002 3.226806 -0.768836 5.000000
20.085596 -2.562336 -1.132060 1.000000
17.977253 -10.857414 -0.751740 23.000000
6.362379 -9.015905 -0.069334 24.000000
10.739660 3.173079 -0.769335 1.000000
19.907974 -2.613865 -1.119066 1.000000
17.927559 -10.921566 -0.729400 17.000000
6.327751 -9.040323 -0.057779 22.000000
10.779694 3.141994 -0.775311 3.000000
20.111191 -2.715565 -1.127488 2.000000
17.925636 -11.002066 -0.719777 15.000000
6.446148 -9.274792 -0.049284 48.000000
10.781028 3.099557 -0.782454 1.000000
17.911278 -11.092484 -0.713620 21.000000
6.067148 -8.801402 -0.033584 35.000000
10.787252 3.058586 -0.786020 1.000000
17.870922 -11.158319 -0.698911 20.000000
5.933244 -8.675025 -0.025681 29.000000
10.798125 3.018954 -0.789934 7.000000
17.829897 -11.215052 -0.687716 21.000000
5.855198 -8.625374 -0.014556 29.000000
10.804429 2.976036 -0.795450 6.000000
17.808006 -11.296945 -0.681171 25.000000
5.890584 -8.746315 -0.003681 30.000000
10.805369 2.933729 -0.798651 5.000000
17.775051 -11.358880 -0.666606 21.000000
5.759988 -8.617174 0.007236 74.000000
10.835050 2.899190 -0.803989 1.000000
17.746290 -11.432321 -0.652342 11.000000
5.771327 -8.699716 0.018221 38.000000
10.816126 2.851686 -0.809653 1.000000
19.177883 -3.092401 -1.069056 1.000000
17.729609 -11.513743 -0.645890 14.000000
5.651680 -8.580997 0.025107 33.000000
10.826230 2.811952 -0.813558 1.000000
17.681461 -11.579241 -0.630982 26.000000
5.621407 -8.606793 0.035884 103.000000
10.913347 2.791922 -0.825259 1.000000
17.659744 -11.648879 -0.627886 21.000000
6.022618 -9.288208 0.046370 15.000000
10.991204 2.768959 -0.830374 5.000000
14.522783 -2.508520 -0.808492 1.000000
17.679722 -11.755277 -0.615289 9.000000
5.878711 -9.142986 0.058812 26.000000
11.001190 2.726595 -0.838287 1.000000
9.943573 -6.664184 -0.338540 1.000000
5.909652 -9.265586 0.070970 18.000000
11.054565 2.696856 -0.843592 5.000000
9.890187 -6.681066 -0.333384 1.000000
5.912591 -9.334748 0.079071 136.000000
11.092890 2.663167 -0.853774 1.000000
13.797989 -2.534894 -0.769601 1.000000
9.846290 -6.701585 -0.326450 1.000000
5.692108 -9.059940 0.085904 7.000000
11.096994 2.621173 -0.863352 1.000000
13.478454 -2.532165 -0.754741 1.000000
9.889452 -6.789211 -0.324592 1.000000
5.651949 -9.073175 0.095152 16.000000
11.218225 2.606435 -0.872035 1.000000
13.601600 -2.606948 -0.759742 1.000000
17.547016 -12.132015 -0.558616 9.000000
5.562878 -8.993017 0.103357 24.000000
11.411794 2.607362 -0.894552 1.000000
13.533156 -2.645289 -0.756455 1.000000
17.482162 -12.182123 -0.546805 21.000000
5.519371 -8.996218 0.112372 23.000000
11.440718 2.567788 -0.902216 1.000000
17.435600 -12.240311 -0.539240 10.000000
5.500869 -9.036678 0.123717 29.000000
11.644470 2.568726 -0.921722 1.000000
13.059314 -2.647454 -0.730984 1.000000
17.403164 -12.313008 -0.524737 13.000000
5.493492 -9.099483 0.133577 9.000000
11.741026 2.544935 -0.934949 1.000000
12.751276 -2.633700 -0.714278 1.000000
17.386555 -12.397131 -0.518144 10.000000
5.584944 -9.324374 0.146078 8.000000
11.998111 2.554655 -0.965439 1.000000
12.589500 -2.650729 -0.708033 1.000000
17.345278 -12.463846 -0.507082 11.000000
12.292178 -20.685934 0.344399 27.000000
12.153433 2.541198 -0.981542 1.000000
12.472307 -2.673831 -0.701989 1.000000
17.307716 -12.533301 -0.499860 10.000000
12.228780 -20.752064 0.369981 35.000000
12.431138 2.549485 -1.009859 1.000000
12.447671 -2.716307 -0.703388 1.000000
17.292271 -12.614364 -0.493207 14.000000
12.209083 -20.884974 0.392705 36.000000
12.586109 2.533233 -1.032962 1.000000
12.222954 -2.714240 -0.695631 1.000000
17.245991 -12.677710 -0.489472 11.000000
12.182493 -21.015903 0.407048 35.000000
12.447536 2.505342 -1.043897 1.000000
12.270481 -2.724794 -0.720344 1.000000
17.267298 -12.698016 -0.523826 16.000000
12.122492 -20.912395 0.383943 35.000000
12.345163 2.531853 -1.040511 1.000000
12.294521 -2.682887 -0.729987 1.000000
17.289122 -12.616691 -0.541771 10.000000
12.243631 -20.952463 0.347333 30.000000
12.140075 2.538405 -1.026219 1.000000
12.499119 -2.679579 -0.748263 1.000000
17.314537 -12.538240 -0.563525 21.000000
12.257094 -20.800114 0.316048 30.000000
11.905612 2.539304 -1.007253 1.000000
12.395748 -2.609934 -0.754809 1.000000
17.353483 -12.474336 -0.593235 16.000000
12.265980 -20.650055 0.285068 18.000000
11.653632 2.525992 -0.986638 1.000000
12.659266 -2.617000 -0.772530 1.000000
17.386366 -12.401575 -0.615183 16.000000
12.250836 -20.461550 0.253914 26.000000
11.532211 2.543962 -0.979216 1.000000
12.775712 -2.592283 -0.790468 1.000000
17.416868 -12.331830 -0.633374 10.000000
5.485939 -9.086972 0.098190 16.000000
11.508224 2.582939 -0.977977 1.000000
17.432957 -12.247541 -0.647210 12.000000
5.486495 -9.016607 0.084740 19.000000
11.362534 2.596107 -0.962339 1.000000
17.477163 -12.183170 -0.669520 14.000000
5.549346 -9.048618 0.074106 17.000000
11.216874 2.606121 -0.952829 1.000000
17.477903 -12.093250 -0.690207 10.000000
5.493113 -8.883700 0.060159 20.000000
11.163923 2.636982 -0.945114 1.000000
9.887632 -6.787962 -0.397862 1.000000
5.534697 -8.881494 0.049315 14.000000
10.993677 2.643407 -0.927619 1.000000
13.575378 -2.496447 -0.863575 1.000000
9.858522 -6.714947 -0.404035 1.000000
5.557712 -8.849455 0.038301 31.000000
10.883028 2.655009 -0.920989 158.000000
13.568402 -2.448676 -0.869857 1.000000
9.906384 -6.697044 -0.417572 1.000000
10.902085 2.704052 -0.919526 9.000000
9.943007 -6.668835 -0.428544 1.000000
5.801122 -9.091925 0.011294 8.000000
10.896935 2.745210 -0.919934 52.000000
17.642153 -11.739181 -0.773331 10.000000
5.984258 -9.307141 0.000000 8.000000
10.814690 2.766683 -0.909918 88.000000
14.592334 -2.468109 -0.949265 1.000000
17.663757 -11.660378 -0.787196 21.000000
6.050962 -9.335491 -0.009708 9.000000
10.843371 2.816404 -0.909257 1.000000
19.243349 -3.182265 -1.254476 9.000000
17.699709 -11.595606 -0.801783 16.000000
5.722595 -8.761720 -0.020091 181.000000
10.828157 2.854858 -0.908853 10.000000
19.278862 -3.115588 -1.266306 10.000000
17.716242 -11.513856 -0.822773 16.000000
5.755868 -8.745830 -0.036547 150.000000
10.779260 2.884262 -0.903670 15.000000
17.749315 -11.443038 -0.840814 17.000000
5.862489 -8.837133 -0.048124 37.000000
10.758789 2.923099 -0.898971 41.000000
17.769592 -11.364128 -0.854545 28.000000
5.896047 -8.820725 -0.059257 31.000000
10.748004 2.962512 -0.898971 104.000000
19.271381 -2.897322 -1.280724 10.000000
17.795990 -11.293678 -0.868653 20.000000
6.168561 -9.155604 -0.073220 8.000000
10.746976 3.004654 -0.895879 9.000000
19.271778 -2.825190 -1.283468 29.000000
17.828421 -11.222810 -0.879271 19.000000
6.180787 -9.105002 -0.082591 16.000000
10.774249 3.054899 -0.899080 3.000000
19.302017 -2.753958 -1.288186 10.000000
17.868645 -11.156898 -0.901332 19.000000
6.153186 -8.996603 -0.097022 29.000000
10.777653 3.098587 -0.896366 1.000000
19.331526 -2.685910 -1.292911 8.000000
17.896137 -11.083106 -0.915387 14.000000
5.890954 -8.545804 -0.101451 26.000000
10.776093 3.140944 -0.893245 1.000000
19.424612 -2.626311 -1.308793 9.000000
17.921261 -11.012303 -0.933091 28.000000
5.954896 -8.574358 -0.114791 72.000000
10.792931 3.190866 -0.891696 7.000000
19.488291 -2.562222 -1.315888 7.000000
17.969471 -10.951401 -0.948226 16.000000
6.057885 -8.654770 -0.127229 34.000000
10.784958 3.235642 -0.890126 1.000000
19.675007 -2.513446 -1.338297 4.000000
17.987545 -10.872201 -0.961774 29.000000
6.468297 -9.172794 -0.146931 36.000000
10.774466 3.271479 -0.886196 4.000000
18.005419 -10.793100 -0.971623 21.000000
6.532033 -9.194862 -0.159462 9.000000
10.767463 3.312504 -0.882656 16.000000
20.168148 -2.426329 -1.374155 1.000000
18.052855 -10.731790 -0.986748 21.000000
6.597603 -9.215435 -0.172108 12.000000
10.712419 3.338598 -0.879140 233.000000
21.009102 -2.449417 -1.434541 2.000000
18.076551 -10.660656 -1.004358 19.000000
6.609132 -9.163788 -0.185381 20.000000
10.705154 3.379431 -0.875612 232.000000
18.110582 -10.591453 -1.018766 22.000000
6.184044 -8.508483 -0.183599 45.000000
10.716728 3.426328 -0.873629 226.000000
18.127218 -10.512207 -1.028525 23.000000
6.189984 -8.454444 -0.192045 18.000000
10.713412 3.470665 -0.868507 223.000000
18.169008 -10.447643 -1.050719 10.000000
6.211882 -8.419437 -0.204554 23.000000
19.857151 17.954906 -1.923664 9.000000
10.700907 3.510003 -0.864576 233.000000
18.488672 -10.541476 -1.078135 10.000000
6.190410 -8.329318 -0.213760 24.000000
19.744511 17.985029 -1.895699 12.000000
10.707181 3.555580 -0.862169 217.000000
26.669085 -2.610227 -1.845599 5.000000
18.939482 -10.706717 -1.117356 15.000000
6.112884 -8.162347 -0.220732 39.000000
19.576290 17.963524 -1.871876 10.000000
10.703528 3.597976 -0.862931 224.000000
19.422371 -10.885959 -1.155172 25.000000
6.168290 -8.176686 -0.232432 125.000000
19.539789 18.049751 -1.850771 8.000000
10.690697 3.637328 -0.857018 8.000000
19.948322 -11.089417 -1.200122 14.000000
6.300915 -8.289125 -0.247192 35.000000
19.497555 18.156332 -1.830298 7.000000
10.771858 3.709048 -0.860609 1.000000
20.490776 -11.292859 -1.250733 20.000000
6.056165 -7.909684 -0.246944 43.000000
19.521873 18.300228 -1.819500 7.000000
10.786724 3.758446 -0.858881 1.000000
21.092276 -11.523771 -1.297482 25.000000
6.142963 -7.962417 -0.259830 59.000000
20.268810 19.147167 -1.866624 7.000000
10.754490 3.791474 -0.851411 6.000000
21.686918 -11.745647 -1.344356 29.000000
6.149111 -7.913117 -0.267671 35.000000
20.357988 19.359568 -1.861038 8.000000
10.783460 3.844059 -0.854762 1.000000
22.283432 -11.973320 -1.396578 26.000000
6.316816 -8.073531 -0.284547 21.000000
20.489824 19.628452 -1.854786 7.000000
10.763670 3.885774 -0.848398 1.000000
23.071058 -12.277431 -1.456567 37.000000
6.502325 -8.245199 -0.302480 20.000000
20.303780 19.593439 -1.824651 9.000000
10.763684 3.930431 -0.845507 1.000000
6.400804 -0.412800 -0.451893 3.000000
23.786413 -12.557075 -1.513220 19.000000
6.563357 -8.260144 -0.316810 36.000000
20.154247 19.592308 -1.793024 10.000000
10.777688 3.980374 -0.841699 1.000000
6.352489 -0.386309 -0.448379 6.000000
24.706856 -12.927415 -1.593163 6.000000
6.423350 -8.026260 -0.317677 30.000000
20.001265 19.579849 -1.760960 9.000000
10.838046 4.047868 -0.843506 1.000000
6.294031 -0.359605 -0.445262 9.000000
24.934837 -12.919472 -1.624177 6.000000
6.330176 -7.850678 -0.322215 124.000000
19.841621 19.566496 -1.728794 9.000000
10.799950 4.078807 -0.839673 1.000000
6.305268 -0.337066 -0.445967 8.000000
26.020073 -13.372500 -1.707338 7.000000
6.426669 -7.913656 -0.334624 103.000000
19.707104 19.576834 -1.698981 9.000000
10.855083 4.145153 -0.841057 1.000000
26.208109 -13.353698 -1.732061 6.000000
6.619955 -8.090885 -0.354102 24.000000
19.527330 19.554613 -1.661190 8.000000
10.830921 4.181477 -0.834257 1.000000
6.578046 -7.982646 -0.359404 35.000000
19.396299 19.545826 -1.635966 7.000000
10.955309 4.275703 -0.838850 1.000000
21.834768 -10.914977 -1.467380 6.000000
6.680427 -8.046614 -0.374350 22.000000
19.199615 19.489983 -1.596642 6.000000
11.014068 4.345220 -0.840409 1.000000
22.146744 -10.969661 -1.498621 6.000000
6.626227 -7.922069 -0.382318 59.000000
19.132511 19.564781 -1.573054 7.000000
22.512669 -11.048338 -1.542598 5.000000
6.614995 -7.852777 -0.389059 18.000000
18.932779 19.503029 -1.543461 6.000000
6.811572 -8.026249 -0.409928 36.000000
18.792753 19.494482 -1.513879 7.000000
23.131083 -11.142184 -1.606324 6.000000
6.722456 -7.865424 -0.411953 255.000000
18.621984 19.459576 -1.482281 7.000000
6.568408 -7.628396 -0.411356 28.000000
18.534225 19.510529 -1.457424 7.000000
6.517522 -7.513428 -0.415136 5.000000
18.384672 19.495703 -1.427821 7.000000
18.215130 19.451498 -1.391934 6.000000
18.042542 19.409292 -1.360985 6.000000
6.949371 -3.158226 -0.504331 1.000000
7.123017 -8.036963 -0.482029 52.000000
17.863712 19.358721 -1.329791 6.000000
6.928973 -3.118366 -0.503350 1.000000
6.912684 -7.742288 -0.473133 10.000000
17.807081 19.433020 -1.302946 6.000000
6.910540 -3.085446 -0.506650 1.000000
7.164465 -7.965329 -0.499607 25.000000
17.686087 19.443571 -1.276307 7.000000
6.826715 -3.015211 -0.504847 1.000000
7.363441 -8.134999 -0.521295 11.000000
17.461481 19.338570 -1.242414 7.000000
6.891516 -3.016560 -0.508896 3.000000
7.096838 -7.782935 -0.507768 8.000000
17.391352 19.382978 -1.218975 7.000000
6.916011 -2.997126 -0.513856 5.000000
7.084474 -7.712408 -0.514018 20.000000
17.221334 19.322012 -1.188907 7.000000
6.963208 -2.987312 -0.523188 9.000000
7.085846 -7.662742 -0.525053 22.000000
17.101439 19.343262 -1.158888 7.000000
7.005994 -2.975311 -0.529585 7.000000
7.104688 -7.624179 -0.533394 34.000000
16.932312 19.287220 -1.129541 7.000000
6.372363 0.127919 -0.456869 1.000000
7.039672 -2.959206 -0.533986 6.000000
7.156120 -7.623159 -0.546133 31.000000
16.793356 19.270947 -1.098157 7.000000
7.115714 -2.957616 -0.542904 6.000000
7.084195 -7.491326 -0.547567 36.000000
25.795679 29.821392 -1.659505 26.000000
7.044550 -7.397507 -0.551443 40.000000
7.230679 -2.952258 -0.557099 6.000000
6.867368 -7.158723 -0.544199 8.000000
7.254118 -2.933800 -0.560897 3.000000
7.184638 -7.434714 -0.576227 115.000000
25.796158 30.471651 -1.561658 1.000000
15.524947 -6.266183 -1.203007 7.000000
7.011677 -7.205232 -0.570896 40.000000
25.607851 30.475018 -1.529178 1.000000
15.588705 -6.225571 -1.217951 8.000000
7.243782 -7.389363 -0.598457 17.000000
25.429621 30.489105 -1.490502 5.000000
15.710782 -6.201315 -1.228497 9.000000
7.168811 -7.259468 -0.597208 29.000000
25.404678 30.654474 -1.459885 9.000000
15.869992 -6.203411 -1.248301 18.000000
7.307643 -7.346006 -0.615600 6.000000
25.364870 30.857731 -1.422820 10.000000
16.019951 -6.188010 -1.264159 10.000000
7.392905 -7.380013 -0.629757 1.000000
25.346401 31.055620 -1.385826 10.000000
6.398489 0.363333 -0.456015 1.000000
16.199192 -6.192350 -1.285720 19.000000
7.387607 -7.320861 -0.636126 1.000000
25.268055 31.192316 -1.338684 10.000000
16.375271 -6.190966 -1.304030 9.000000
7.463797 -7.342338 -0.649536 1.000000
25.241028 31.382290 -1.314901 10.000000
16.537317 -6.183049 -1.324417 9.000000
16.222567 -15.841998 -1.434516 6.000000
16.718435 -6.181020 -1.343356 8.000000
52.896336 66.714645 -2.601270 24.000000
16.927616 -6.187928 -1.367823 9.000000
16.334053 -15.724102 -1.466174 5.000000
52.779171 67.046280 -2.517566 1.000000
17.085707 -6.174823 -1.385138 9.000000
6.344440 0.500432 -0.449489 1.000000
17.304716 -6.182359 -1.410725 7.000000
20.990210 27.060415 -0.944641 8.000000
17.486618 -6.175168 -1.430211 6.000000
16.375992 -15.421166 -1.513775 7.000000
20.769327 26.979261 -0.915357 8.000000
17.725166 -6.186434 -1.454449 7.000000
16.403248 -15.339151 -1.531024 6.000000
20.687738 27.068230 -0.880218 9.000000
5.233212 2.907985 -0.311664 1.000000
17.902508 -6.174815 -1.477110 3.000000
16.434765 -15.266780 -1.548900 6.000000
20.598087 27.156654 -0.838964 8.000000
11.956689 -4.072718 -0.989668 1.000000
9.067252 -8.355308 -0.862190 29.000000
20.521725 27.253036 -0.803977 8.000000
11.805860 -3.973111 -0.980346 1.000000
9.078856 -8.304675 -0.871184 33.000000
24.000748 32.117508 -0.916873 1.000000
11.810231 -3.926452 -0.988251 1.000000
9.116738 -8.283966 -0.885143 23.000000
23.844467 32.141747 -0.866265 7.000000
11.772288 -3.865978 -0.986060 1.000000
9.168095 -8.263685 -0.893398 1.000000
23.759626 32.273922 -0.825488 10.000000
11.729159 -3.804246 -0.985604 1.000000
16.646233 -14.899139 -1.636637 7.000000
23.691566 32.417885 -0.784985 10.000000
11.666752 -3.736802 -0.983507 1.000000
16.662378 -14.803957 -1.652435 7.000000
23.631832 32.586189 -0.737762 8.000000
11.656610 -3.686502 -0.981506 1.000000
16.669605 -14.711754 -1.660010 7.000000
11.622449 -3.626667 -0.986005 1.000000
16.677094 -14.609978 -1.678761 8.000000
26.459536 37.026508 -0.738747 13.000000
6.302219 0.777165 -0.437351 7.000000
11.607085 -3.575241 -0.983583 1.000000
16.703306 -14.525083 -1.691572 7.000000
26.217012 36.972855 -0.696191 35.000000
6.343940 0.805926 -0.439326 6.000000
11.614848 -3.531075 -0.989536 2.000000
16.823009 -14.521232 -1.721703 7.000000
26.116911 37.105511 -0.657362 13.000000
6.326181 0.827242 -0.437185 3.000000
11.598577 -3.479740 -0.993439 6.000000
16.746498 -14.348415 -1.723969 8.000000
27.100399 38.804195 -0.636118 9.000000
11.572694 -3.425791 -0.994382 25.000000
16.794981 -14.273443 -1.746271 7.000000
20.419050 2.738993 -1.408111 1.000000
11.560078 -3.380403 -0.992329 3.000000
16.860798 -14.233353 -1.755948 8.000000
20.206987 2.785980 -1.383452 1.000000
11.567850 -3.334515 -0.996121 1.000000
16.896393 -14.157666 -1.773599 7.000000
20.102537 2.850277 -1.373480 7.000000
11.579659 -3.291999 -1.000323 9.000000
16.885666 -14.043660 -1.786350 8.000000
19.953962 2.903855 -1.360512 8.000000
11.573251 -3.240021 -1.002862 8.000000
16.919041 -13.961866 -1.803467 7.000000
19.899015 2.970377 -1.353971 8.000000
11.583593 -3.201531 -1.007057 6.000000
16.964270 -13.904882 -1.818780 7.000000
19.932610 3.050118 -1.353473 9.000000
11.600820 -3.156221 -1.011671 3.000000
16.976183 -13.801090 -1.833329 7.000000
19.916601 3.122418 -1.349620 9.000000
11.606410 -3.116442 -1.011252 8.000000
17.040237 -13.759562 -1.850707 7.000000
19.855997 3.187525 -1.342770 10.000000
11.593523 -3.065305 -1.017528 7.000000
17.116755 -13.718012 -1.868968 7.000000
19.786024 3.250724 -1.324775 3.000000
11.590216 -3.019025 -1.016260 5.000000
17.119110 -13.617156 -1.879146 7.000000
20.103394 3.378584 -1.350418 2.000000
11.606722 -2.973623 -1.020865 29.000000
17.113937 -13.501228 -1.887946 7.000000
19.815752 3.404969 -1.328401 91.000000
11.577706 -2.925310 -1.019553 4.000000
17.176916 -13.458742 -1.909146 8.000000
21.413080 33.637707 -0.013919 7.000000
19.808733 3.478557 -1.318200 97.000000
11.657044 -2.895625 -1.025508 4.000000
9.230504 -7.172824 -1.028893 23.000000
21.175365 33.522018 0.027681 10.000000
19.815722 3.554701 -1.315994 29.000000
11.696766 -2.857853 -1.032264 3.000000
9.252217 -7.135462 -1.036612 25.000000
21.027403 33.520554 0.075969 9.000000
19.853176 3.632995 -1.305166 16.000000
11.701160 -2.817841 -1.033937 1.000000
9.275251 -7.104300 -1.044769 29.000000
21.007378 33.762897 0.111045 10.000000
14.002314 2.620462 -0.918712 3.000000
11.701363 -2.772555 -1.037279 1.000000
9.348071 -7.105864 -1.060361 10.000000
20.935247 33.936787 0.160068 7.000000
13.958464 2.665244 -0.913980 5.000000
11.760917 -2.736851 -1.041576 1.000000
17.344547 -13.074800 -1.972906 7.000000
19.499065 31.832052 0.188943 22.000000
4.873855 3.416514 -0.187051 1.000000
13.772900 2.682170 -0.892631 1.000000
11.794027 -2.703360 -1.045836 1.000000
8.832859 -6.612633 -1.009986 1.000000
19.322443 31.804838 0.227332 166.000000
4.923846 3.475966 -0.185199 1.000000
11.760227 -2.648125 -1.046169 1.000000
8.848475 -6.573854 -1.016771 6.000000
19.176804 31.839985 0.272468 123.000000
13.024431 2.635650 -0.840694 2.000000
11.780133 -2.602966 -1.051245 1.000000
8.858044 -6.525941 -1.024536 8.000000
19.099621 31.938435 0.311768 19.000000
12.893713 2.653735 -0.828207 1.000000
11.773919 -2.560672 -1.052046 9.000000
8.919232 -6.525501 -1.036887 21.000000
21.864111 36.867321 0.411468 53.000000
12.811061 2.685705 -0.816644 1.000000
11.807582 -2.522705 -1.054220 1.000000
21.780653 37.020523 0.464809 10.000000
5.305809 3.861974 -0.181015 1.000000
11.953062 -2.508013 -1.068529 1.000000
12.181866 2.647169 -0.771199 1.000000
12.001451 -2.470093 -1.074154 1.000000
5.774269 -4.100526 -0.683179 1.000000
12.016670 2.657431 -0.752729 1.000000
12.044600 -2.432993 -1.077211 1.000000
5.736725 -4.058822 -0.677898 1.000000
11.748919 2.643424 -0.734449 1.000000
12.248684 -2.427526 -1.096856 1.000000
5.893732 -4.137575 -0.699728 1.000000
11.671537 2.670995 -0.721829 1.000000
12.384621 -2.407326 -1.108232 1.000000
23.670300 41.905350 0.798072 69.000000
11.788426 2.743253 -0.723315 1.000000
12.472251 -2.374697 -1.113016 1.000000
23.491629 41.947323 0.855981 255.000000
12.808928 -2.390185 -1.142271 1.000000
23.349312 42.036716 0.923301 255.000000
59.698479 45.510994 -1.611767 7.000000
23.348993 42.036144 0.956871 255.000000
59.798962 45.587597 -1.548832 4.000000
12.995372 -2.375720 -1.141851 1.000000
23.491093 41.929195 0.914433 247.000000
59.746170 45.202068 -1.556244 13.000000
12.786764 -2.386049 -1.112848 1.000000
23.647526 41.865028 0.872854 56.000000
60.086674 45.114353 -1.600156 1.000000
12.567641 -2.395133 -1.087822 1.000000
11.732433 2.682776 -0.689733 1.000000
12.368230 -2.404140 -1.069102 1.000000
5.858694 -4.094687 -0.679440 1.000000
11.776162 2.647394 -0.693842 1.000000
12.340336 -2.445690 -1.060824 1.000000
11.990742 2.649502 -0.701608 1.000000
12.161073 -2.456520 -1.037458 1.000000
5.860693 -4.163439 -0.668170 1.000000
12.000873 -2.469974 -1.022404 1.000000
5.873562 -4.223692 -0.664759 6.000000
21.768719 36.985470 0.569296 11.000000
5.439265 3.908508 -0.167203 1.000000
11.977018 -2.513040 -1.016885 1.000000
5.822222 -4.219234 -0.654367 9.000000
21.836714 36.806477 0.530357 186.000000
5.236504 3.736541 -0.162835 1.000000
11.797689 -2.520592 -0.996077 1.000000
21.978161 36.751938 0.485824 155.000000
12.932342 2.659333 -0.763589 5.000000
11.778802 -2.561734 -0.993150 2.000000
19.205845 31.850458 0.389498 31.000000
11.760278 -2.602884 -0.983920 1.000000
17.390036 -12.811671 -1.920133 4.000000
19.301527 31.757919 0.350267 174.000000
4.944308 3.447914 -0.163107 5.000000
11.770271 -2.650387 -0.983443 1.000000
17.372028 -12.896904 -1.908128 7.000000
19.438875 31.721363 0.311684 118.000000
4.965037 3.435391 -0.167593 1.000000
13.896441 2.698678 -0.823670 5.000000
11.736054 -2.690071 -0.977209 1.000000
17.317726 -12.955315 -1.892151 8.000000
20.871170 33.793308 0.291160 1.000000
14.151269 2.694380 -0.840706 6.000000
11.750550 -2.738763 -0.977126 1.000000
17.327126 -13.061668 -1.879317 8.000000
20.965353 33.682247 0.256208 8.000000
14.092669 2.627190 -0.839130 1.000000
11.707146 -2.773925 -0.965901 4.000000
9.362220 -7.111464 -1.007920 18.000000
21.079718 33.616982 0.214688 9.000000
13.895087 2.542706 -0.826858 1.000000
11.692219 -2.815688 -0.963402 7.000000
9.281400 -7.103869 -0.991741 29.000000
21.157976 33.455677 0.172722 8.000000
11.657940 -2.852680 -0.957216 18.000000
9.267683 -7.147390 -0.984839 28.000000
21.331146 33.470299 0.131617 9.000000
11.608850 -2.887956 -0.945685 27.000000
9.249834 -7.187845 -0.977500 1.000000
19.840950 3.398604 -1.188886 7.000000
11.593513 -2.929304 -0.943204 33.000000
17.176983 -13.449121 -1.801249 7.000000
19.803635 3.317545 -1.192948 7.000000
11.563704 -2.966903 -0.937464 29.000000
17.144695 -13.525494 -1.780028 7.000000
20.190216 3.306275 -1.211913 2.000000
11.562716 -3.011862 -0.934076 27.000000
17.103779 -13.595215 -1.765587 8.000000
20.044277 3.206985 -1.205995 3.000000
11.571192 -3.059401 -0.931457 21.000000
17.128944 -13.717966 -1.754089 7.000000
132.174927 85.017769 -5.268344 10.000000
11.569687 -3.104417 -0.930142 9.000000
16.994162 -13.712560 -1.730080 8.000000
132.577286 84.623779 -5.382505 10.000000
19.775719 3.015514 -1.195482 1.000000
11.553184 -3.147593 -0.925575 10.000000
16.999104 -13.819724 -1.716492 8.000000
20.146814 2.996584 -1.220811 1.000000
11.566216 -3.196729 -0.919125 6.000000
16.969002 -13.898862 -1.695475 8.000000
20.151489 2.929009 -1.224066 1.000000
11.569132 -3.243223 -0.916076 6.000000
16.949617 -13.987098 -1.683216 7.000000
19.935055 2.819432 -1.213780 1.000000
11.576656 -3.291145 -0.913396 8.000000
16.910414 -14.059251 -1.672848 7.000000
20.588228 2.834881 -1.249268 1.000000
11.579193 -3.337784 -0.910324 4.000000
16.909792 -14.163873 -1.654680 8.000000
20.667519 2.768651 -1.257107 1.000000
11.576757 -3.383088 -0.906868 1.000000
16.847431 -14.217033 -1.634321 6.000000
27.169102 38.844769 -0.397135 6.000000
4.882944 2.942094 -0.219002 1.000000
11.569666 -3.427091 -0.898819 1.000000
16.767422 -14.260105 -1.608684 8.000000
27.210150 38.644398 -0.445456 15.000000
4.863541 2.906159 -0.221614 1.000000
6.548913 0.801785 -0.401228 4.000000
11.585375 -3.480187 -0.896825 1.000000
16.808229 -14.391135 -1.597757 7.000000
26.292288 37.051598 -0.483715 19.000000
6.497222 0.771297 -0.399031 7.000000
11.572840 -3.522717 -0.892602 1.000000
16.778660 -14.472733 -1.588316 8.000000
26.488132 37.052856 -0.516737 5.000000
6.445398 0.741198 -0.396816 7.000000
11.583973 -3.572550 -0.890210 5.000000
16.734280 -14.541759 -1.565816 7.000000
6.497672 0.723090 -0.399868 1.000000
11.618695 -3.629946 -0.889623 1.000000
16.708160 -14.626888 -1.548903 7.000000
23.498213 32.378155 -0.537680 6.000000
11.657906 -3.689150 -0.889364 1.000000
16.647762 -14.682141 -1.532711 7.000000
23.684322 32.384235 -0.574237 10.000000
11.663598 -3.738036 -0.886540 1.000000
16.635853 -14.780390 -1.517081 6.000000
23.716784 32.192184 -0.614178 23.000000
11.678574 -3.790092 -0.884419 1.000000
16.601133 -14.858774 -1.499339 7.000000
23.872963 32.156693 -0.657117 10.000000
11.718358 -3.846002 -0.884066 1.000000
9.227351 -8.317096 -0.827278 26.000000
23.972736 32.056683 -0.691721 1.000000
11.797765 -3.924594 -0.886876 1.000000
9.138237 -8.297679 -0.811191 27.000000
20.593662 27.328711 -0.627171 8.000000
9.060422 -8.287812 -0.796213 20.000000
20.640163 27.192410 -0.661455 8.000000
9.063517 -8.351865 -0.788370 6.000000
20.651260 27.000959 -0.688311 8.000000
5.206909 2.835363 -0.270264 1.000000
16.413805 -15.236640 -1.409019 7.000000
20.827303 27.035042 -0.726782 8.000000
5.229256 2.825089 -0.276134 1.000000
17.783363 -6.203265 -1.313715 6.000000
16.395014 -15.331451 -1.396488 6.000000
21.005468 27.060575 -0.765424 8.000000
17.594358 -6.216669 -1.291768 7.000000
16.400234 -15.443995 -1.385729 6.000000
17.370317 -6.209215 -1.264042 8.000000
16.402670 -15.560112 -1.363020 7.000000
17.225679 -6.228809 -1.251958 8.000000
16.373224 -15.657532 -1.349912 7.000000
52.989727 66.784531 -2.143095 30.000000
17.025522 -6.227087 -1.226346 6.000000
16.246704 -15.640016 -1.320052 7.000000
16.904728 -6.253249 -1.212968 6.000000
16.265182 -15.773071 -1.310370 7.000000
25.296032 31.416979 -1.098479 1.000000
6.492344 0.360705 -0.405676 1.000000
16.718746 -6.254209 -1.191871 6.000000
25.388355 31.296127 -1.132694 10.000000
6.403732 0.334485 -0.401191 1.000000
16.618965 -6.279783 -1.180007 6.000000
25.379679 31.063177 -1.169503 10.000000
6.355072 0.308591 -0.398069 1.000000
16.558933 -6.326554 -1.171168 6.000000
25.304094 30.761900 -1.196104 10.000000
6.341204 0.284625 -0.397132 1.000000
7.575623 -7.562412 -0.581593 34.000000
25.429752 30.662939 -1.237971 10.000000
7.496716 -7.536071 -0.568248 183.000000
25.561560 30.603834 -1.274011 15.000000
7.293969 -7.386209 -0.545844 89.000000
25.750053 30.600845 -1.312744 10.000000
7.333660 -7.481047 -0.539862 108.000000
7.145244 -7.393950 -0.511882 9.000000
25.757690 29.946079 -1.413873 1.000000
6.271033 0.140120 -0.394638 1.000000
6.955794 -7.250901 -0.494936 14.000000
25.799091 29.783287 -1.444862 37.000000
6.316366 0.120178 -0.397464 1.000000
6.977742 -7.327351 -0.487784 8.000000
25.946661 29.732738 -1.481498 5.000000
6.371649 0.097869 -0.400917 1.000000
7.065713 -7.471782 -0.484961 33.000000
26.116802 29.728132 -1.520157 1.000000
6.317077 0.073873 -0.397464 1.000000
7.072751 -7.534349 -0.478298 21.000000
7.174769 -7.699384 -0.477899 9.000000
17.542889 19.401480 -1.105435 6.000000
17.811726 19.567968 -1.136787 7.000000
7.127258 -7.874069 -0.445138 8.000000
17.835110 19.449972 -1.166024 6.000000
7.052629 -7.840991 -0.432794 8.000000
17.952890 19.428131 -1.196595 6.000000
7.064020 -7.911786 -0.425999 17.000000
18.077881 19.433701 -1.219192 7.000000
6.889410 -7.773383 -0.408106 36.000000
18.220119 19.443218 -1.242613 6.000000
6.859258 -7.794002 -0.395225 32.000000
18.375942 19.472822 -1.281381 6.000000
6.932729 -7.935946 -0.393765 7.000000
18.487703 19.447956 -1.307666 7.000000
6.641938 -7.659555 -0.369981 255.000000
18.606419 19.429729 -1.334550 7.000000
6.612149 -7.679196 -0.359187 255.000000
18.791168 19.486031 -1.366597 6.000000
23.152617 -11.157536 -1.418903 6.000000
6.554941 -7.669427 -0.348789 14.000000
18.899897 19.455563 -1.393041 6.000000
6.599499 -7.776357 -0.341909 18.000000
19.109564 19.527674 -1.436680 7.000000
6.564666 -7.793030 -0.334460 35.000000
19.341358 19.620167 -1.472801 7.000000
6.603111 -7.891633 -0.328761 22.000000
19.366785 19.509275 -1.488790 7.000000
10.953437 4.268364 -0.756087 1.000000
6.662397 -8.024897 -0.320490 13.000000
19.585505 19.585505 -1.524318 7.000000
10.824313 4.172415 -0.752213 1.000000
6.525053 -7.918338 -0.306315 35.000000
19.755217 19.610929 -1.561162 8.000000
10.853025 4.137857 -0.761292 1.000000
6.471292 -0.373132 -0.410087 6.000000
26.186831 -13.331344 -1.534857 28.000000
6.465858 -7.902549 -0.297694 10.000000
19.861538 19.572468 -1.588296 9.000000
10.844652 4.089203 -0.761680 1.000000
6.479914 -0.397464 -0.409585 9.000000
26.138502 -13.427599 -1.519471 27.000000
6.374028 -7.848836 -0.284192 73.000000
20.060741 19.631216 -1.623312 9.000000
10.831019 4.038783 -0.767783 1.000000
6.523081 -0.426402 -0.412419 6.000000
25.606588 -13.273194 -1.476226 9.000000
6.329689 -7.852879 -0.274688 32.000000
20.203140 19.626123 -1.653666 8.000000
10.794132 3.980026 -0.766146 1.000000
6.641105 -0.457403 -0.418813 3.000000
24.673460 -12.904457 -1.410531 7.000000
6.446076 -8.054658 -0.270146 29.000000
20.417175 19.689108 -1.700042 9.000000
10.798768 3.936835 -0.773506 1.000000
32.577534 -2.243764 -2.065904 1.000000
23.880045 -12.601174 -1.358355 29.000000
6.497457 -8.180138 -0.266256 35.000000
20.549627 19.671989 -1.724988 9.000000
10.780019 3.885297 -0.775156 1.000000
32.505215 -2.347111 -2.061800 28.000000
6.431889 -8.155885 -0.253850 27.000000
20.685797 19.664425 -1.755646 9.000000
10.783064 3.846039 -0.780475 1.000000
32.432068 -2.461351 -2.052020 40.000000
6.189506 -7.907972 -0.236658 20.000000
20.843714 19.669615 -1.788024 8.000000
10.793452 3.800975 -0.784130 1.000000
32.452675 -2.582579 -2.053909 38.000000
21.761755 -11.791092 -1.201858 20.000000
6.119072 -7.874461 -0.224566 38.000000
20.986889 19.659805 -1.829385 9.000000
10.726707 3.733335 -0.786248 1.000000
32.472469 -2.703961 -2.061485 9.000000
21.107428 -11.532049 -1.155313 10.000000
6.157425 -7.984043 -0.220003 41.000000
21.178209 19.693787 -1.865099 10.000000
10.772944 3.705216 -0.794631 1.000000
32.521996 -2.828148 -2.065273 6.000000
20.531908 -11.315527 -1.113772 33.000000
6.114481 -7.985849 -0.207170 25.000000
21.271284 19.635452 -1.887240 9.000000
10.756577 3.659742 -0.796509 1.000000
20.054108 -11.148224 -1.082035 27.000000
6.257674 -8.235224 -0.204013 39.000000
21.029539 19.276775 -1.884813 7.000000
10.742547 3.606919 -0.798367 1.000000
19.469204 -10.916673 -1.037011 21.000000
6.236583 -8.270217 -0.195270 87.000000
20.408815 18.570593 -1.847253 7.000000
10.746451 3.562374 -0.803592 1.000000
26.767994 -2.629342 -1.692204 8.000000
19.033895 -10.764476 -1.004445 10.000000
6.153867 -8.220060 -0.182821 37.000000
20.249479 18.290390 -1.855456 7.000000
10.749421 3.519683 -0.810781 4.000000
26.599024 -2.711211 -1.686824 7.000000
18.552223 -10.582002 -0.969861 12.000000
6.249027 -8.411255 -0.175586 34.000000
10.741786 3.477786 -0.813292 1.000000
26.515053 -2.800882 -1.672795 3.000000
18.176178 -10.455988 -0.937530 25.000000
6.264229 -8.493488 -0.167633 42.000000
10.758939 3.439824 -0.817594 1.000000
18.125053 -10.515181 -0.929546 20.000000
6.280384 -8.581057 -0.159624 49.000000
10.743852 3.387523 -0.819361 1.000000
18.071684 -10.568704 -0.910390 22.000000
6.332753 -8.716287 -0.152323 10.000000
10.746124 3.344987 -0.826493 9.000000
18.054613 -10.647717 -0.904160 17.000000
6.610779 -9.169445 -0.147978 7.000000
10.752114 3.307782 -0.830054 1.000000
18.041079 -10.720529 -0.894249 20.000000
6.695547 -9.348792 -0.140496 10.000000
10.788888 3.271745 -0.835829 1.000000
20.095776 -2.495938 -1.270485 1.000000
17.998430 -10.793182 -0.879598 21.000000
6.655164 -9.371652 -0.126392 21.000000
10.756129 3.222901 -0.840341 1.000000
19.943167 -2.551241 -1.257897 1.000000
17.967564 -10.864406 -0.872688 21.000000
6.466907 -9.174222 -0.115587 26.000000
10.768143 3.181494 -0.844260 3.000000
19.552057 -2.577549 -1.237299 1.000000
17.953602 -10.946027 -0.862924 17.000000
6.366118 -9.098516 -0.102722 30.000000
10.803382 3.148899 -0.850063 1.000000
19.513021 -2.645200 -1.231983 1.000000
17.898767 -10.998481 -0.847438 20.000000
6.287164 -9.056158 -0.090438 42.000000
10.772520 3.093040 -0.850586 4.000000
19.369959 -2.698142 -1.220140 5.000000
17.888563 -11.082736 -0.834157 22.000000
5.957681 -8.645831 -0.075136 36.000000
10.759515 3.046664 -0.852597 4.000000
19.355209 -2.768442 -1.216417 9.000000
17.860781 -11.156321 -0.827401 13.000000
5.917514 -8.655268 -0.067709 9.000000
10.792987 3.017518 -0.862322 10.000000
19.311152 -2.827519 -1.217650 10.000000
17.824364 -11.224601 -0.816568 21.000000
6.179282 -9.106205 -0.059542 28.000000
10.746013 2.961963 -0.861610 82.000000
19.246578 -2.890159 -1.210828 21.000000
17.787285 -11.283799 -0.809215 10.000000
6.098784 -9.052039 -0.051436 27.000000
10.776771 2.923944 -0.867049 7.000000
19.313946 -2.979603 -1.212385 7.000000
17.778198 -11.374005 -0.788650 20.000000
5.866786 -8.780266 -0.036861 32.000000
10.824846 2.896459 -0.877969 1.000000
19.407267 -3.059922 -1.222315 4.000000
17.740822 -11.441947 -0.781467 15.000000
5.983763 -9.026781 -0.026463 28.000000
10.801502 2.847830 -0.877185 4.000000
19.277893 -3.111979 -1.211456 7.000000
17.707312 -11.503656 -0.770596 13.000000
5.702156 -8.667509 -0.018108 75.000000
10.854690 2.819344 -0.888537 1.000000
19.300476 -3.191712 -1.210209 9.000000
17.673864 -11.583083 -0.760079 23.000000
5.671873 -8.687371 -0.007243 129.000000
10.840506 2.773287 -0.890468 28.000000
14.461409 -2.445964 -0.909908 1.000000
17.648197 -11.650105 -0.749546 22.000000
10.851249 2.729672 -0.894374 36.000000
14.418237 -2.493054 -0.902633 1.000000
17.628828 -11.734754 -0.732128 10.000000
10.917833 2.707958 -0.905045 25.000000
14.384583 -2.541568 -0.898544 1.000000
9.929940 -6.662585 -0.409224 1.000000
5.814064 -9.119226 0.024538 8.000000
10.898792 2.658854 -0.906555 9.000000
9.883125 -6.678808 -0.401953 5.000000
5.787526 -9.147889 0.035897 100.000000
11.028991 2.647826 -0.924542 1.000000
13.467413 -2.481453 -0.842366 1.000000
9.850492 -6.709478 -0.395375 1.000000
5.578978 -8.883317 0.042109 16.000000
11.091496 2.619875 -0.934978 1.000000
13.536555 -2.545526 -0.849682 1.000000
9.883627 -6.785212 -0.393512 1.000000
5.544801 -8.904632 0.053094 14.000000
11.231759 2.609580 -0.950041 1.000000
17.490429 -12.101916 -0.683270 19.000000
5.503140 -8.906865 0.063957 23.000000
11.362206 2.596032 -0.966408 1.000000
17.464672 -12.174462 -0.676481 10.000000
5.570264 -9.082726 0.072526 13.000000
11.473857 2.575226 -0.979189 1.000000
17.432583 -12.247278 -0.662084 15.000000
5.494300 -9.029433 0.083016 14.000000
11.667607 2.573830 -1.001212 1.000000
12.705070 -2.584876 -0.799809 1.000000
17.387766 -12.311224 -0.654647 14.000000
5.476628 -9.075130 0.092501 8.000000
11.768792 2.550954 -1.017552 1.000000
12.739629 -2.640569 -0.800309 1.000000
17.367210 -12.392487 -0.644397 10.000000
12.228422 -20.440300 0.228652 16.000000
11.918850 2.537779 -1.036142 1.000000
12.534547 -2.646013 -0.788030 1.000000
17.340263 -12.464833 -0.637547 17.000000
12.039515 2.517379 -1.054472 1.000000
12.348983 -2.654156 -0.779183 1.000000
17.314964 -12.543158 -0.627098 15.000000
12.268950 -20.828545 0.274251 36.000000
12.316946 2.526066 -1.084545 1.000000
12.276731 -2.681250 -0.775181 1.000000
17.281160 -12.615504 -0.620069 20.000000
12.281809 -21.017797 0.297423 68.000000
12.104723 -2.694637 -0.771515 1.000000
17.267275 -12.702642 -0.610004 17.000000
12.197038 -21.049459 0.318470 35.000000
12.655303 2.547160 -1.147564 1.000000
12.117531 -2.699708 -0.794115 1.000000
17.254406 -12.693175 -0.643225 11.000000
12.142053 -20.954567 0.291669 40.000000
12.240940 2.510478 -1.110817 1.000000
12.220203 -2.671139 -0.811096 1.000000
17.297865 -12.632327 -0.673133 13.000000
12.202730 -20.890839 0.253365 27.000000
12.016965 2.510475 -1.093480 1.000000
12.277215 -2.640973 -0.823098 1.000000
17.298956 -12.536164 -0.693777 10.000000
12.269216 -20.828995 0.223621 33.000000
11.773425 2.506814 -1.072187 1.000000
12.379133 -2.615463 -0.835937 1.000000
17.346167 -12.478262 -0.712587 10.000000
12.250082 -20.631489 0.192642 25.000000
11.612910 2.517166 -1.062583 1.000000
12.505445 -2.594306 -0.850535 1.000000
17.374899 -12.402549 -0.734276 10.000000
12.281054 -20.520145 0.162783 29.000000
11.521111 2.541514 -1.052953 1.000000
12.675602 -2.581184 -0.870530 1.000000
17.395140 -12.321005 -0.755568 16.000000
5.578478 -9.247549 0.058433 7.000000
11.429110 2.565183 -1.045397 1.000000
12.767990 -2.551296 -0.878510 1.000000
17.421034 -12.248251 -0.777161 15.000000
5.716300 -9.397967 0.046077 8.000000
11.327283 2.588053 -1.032896 1.000000
12.918614 -2.532190 -0.897462 1.000000
17.469458 -12.186863 -0.792213 14.000000
5.506063 -8.981559 0.033097 20.000000
11.215672 2.605842 -1.025608 1.000000
13.183270 -2.529154 -0.917489 1.000000
17.488667 -12.105212 -0.813372 11.000000
5.513745 -8.924030 0.020139 31.000000
11.099760 2.621826 -1.011868 1.000000
9.870855 -6.781514 -0.466348 1.000000
5.546424 -8.903774 0.009154 31.000000
11.056175 2.654353 -1.008775 3.000000
13.572879 -2.503335 -0.957854 1.000000
9.878723 -6.733757 -0.478090 1.000000
5.606715 -8.930943 -0.005521 30.000000
10.954440 2.672430 -1.000380 1.000000
13.655260 -2.466812 -0.967891 1.000000
9.878158 -6.680475 -0.487298 1.000000
5.827647 -9.211306 -0.019024 7.000000
10.886426 2.700168 -0.991162 28.000000
9.952074 -6.677435 -0.498115 3.000000
5.807582 -9.105553 -0.030159 6.000000
10.953901 2.759561 -0.996233 6.000000
17.654844 -11.756518 -0.896424 10.000000
12.849186 -19.991631 -0.091251 29.000000
10.890969 2.786197 -0.987477 4.000000
17.655611 -11.663850 -0.909086 21.000000
12.946012 -19.988531 -0.116382 37.000000
4.331923 3.474251 -0.494617 1.000000
10.832475 2.813574 -0.983102 1.000000
17.680990 -11.596579 -0.926895 17.000000
6.138626 -9.409451 -0.068630 15.000000
4.562269 3.689181 -0.517444 1.000000
10.831556 2.857776 -0.980066 10.000000
19.264677 -3.116747 -1.395441 7.000000
17.720377 -11.525344 -0.948813 17.000000
6.130685 -9.318892 -0.083717 31.000000
10.811386 2.894880 -0.979195 10.000000
19.295435 -3.049193 -1.400277 8.000000
17.736757 -11.443708 -0.962204 23.000000
5.790187 -8.734763 -0.089625 115.000000
10.776998 2.928046 -0.973118 8.000000
19.271254 -2.973016 -1.407985 9.000000
17.761183 -11.367488 -0.976015 14.000000
6.116557 -9.154074 -0.103765 23.000000
10.756916 2.964968 -0.968355 12.000000
19.301504 -2.905296 -1.412832 20.000000
17.806366 -11.304623 -0.990972 24.000000
6.187500 -9.190636 -0.116027 7.000000
10.755898 3.007148 -0.965321 6.000000
19.287109 -2.830876 -1.414430 26.000000
17.847092 -11.238913 -1.005696 24.000000
6.134045 -9.039541 -0.125844 50.000000
10.763439 3.053864 -0.967043 1.000000
19.311909 -2.758809 -1.425730 10.000000
17.851578 -11.154904 -1.022161 15.000000
6.134417 -8.972521 -0.140387 32.000000
10.758366 3.091009 -0.963566 1.000000
19.336462 -2.690036 -1.430230 9.000000
17.883465 -11.092540 -1.040284 10.000000
5.850794 -8.493889 -0.145820 28.000000
10.774887 3.142634 -0.962222 1.000000
19.405243 -2.627141 -1.438032 7.000000
17.927069 -11.020182 -1.058648 10.000000
5.893201 -8.488686 -0.156924 56.000000
10.763297 3.182105 -0.962222 1.000000
19.567247 -2.576077 -1.459718 6.000000
17.966862 -10.954111 -1.069666 10.000000
6.051640 -8.652275 -0.171398 46.000000
10.790060 3.233068 -0.961706 1.000000
19.398247 -2.481532 -1.449854 4.000000
18.010519 -10.890379 -1.084614 10.000000
6.048659 -8.580878 -0.179586 33.000000
10.773693 3.271244 -0.957351 4.000000
20.213785 -2.510595 -1.510111 1.000000
18.043325 -10.824386 -1.102719 10.000000
6.023428 -8.482057 -0.192487 32.000000
10.727721 3.302328 -0.954386 25.000000
19.999817 -2.409619 -1.496991 1.000000
18.082211 -10.757785 -1.117408 9.000000
6.087803 -8.509628 -0.202727 135.000000
10.701753 3.337323 -0.947245 240.000000
18.133741 -10.698649 -1.132902 9.000000
6.145136 -8.523577 -0.214603 29.000000
10.704016 3.381126 -0.944590 232.000000
18.189558 -10.641898 -1.145011 8.000000
6.145340 -8.461441 -0.224533 25.000000
10.677629 3.415881 -0.939419 238.000000
18.227743 -10.574756 -1.159724 8.000000
6.202740 -8.474969 -0.236497 34.000000
10.707698 3.468814 -0.943177 226.000000
18.237698 -10.495614 -1.176438 8.000000
6.184649 -8.388655 -0.247430 21.000000
10.696292 3.504354 -0.941212 226.000000
18.457905 -10.541016 -1.206989 13.000000
6.146726 -8.279593 -0.255617 9.000000
19.342789 17.619104 -1.990275 7.000000
10.677410 3.547763 -0.932941 223.000000
18.946827 -10.719599 -1.251384 15.000000
6.163306 -8.235664 -0.267565 117.000000
19.466709 17.862970 -1.986561 9.000000
10.703375 3.595846 -0.936246 217.000000
27.397537 -2.594654 -2.098233 8.000000
19.464834 -10.927623 -1.294924 37.000000
19.358437 17.894754 -1.959058 10.000000
10.695150 3.636761 -0.932716 55.000000
19.992432 -11.127645 -1.343329 28.000000
6.122201 -8.065702 -0.282846 126.000000
19.227749 17.898821 -1.929094 11.000000
10.724617 3.690688 -0.930481 8.000000
29.680269 -2.586248 -2.281965 2.000000
20.517544 -11.321622 -1.388127 23.000000
6.051342 -7.911963 -0.288670 18.000000
19.126860 17.936207 -1.902551 10.000000
10.775900 3.756784 -0.932221 1.000000
21.148386 -11.559220 -1.452985 24.000000
6.105900 -7.920091 -0.300302 185.000000
18.967697 17.918055 -1.874927 9.000000
10.773243 3.795971 -0.927054 1.000000
21.703623 -11.769396 -1.501417 21.000000
6.192907 -7.972349 -0.315487 228.000000
18.859718 17.947317 -1.847908 11.000000
10.731396 3.825499 -0.920651 2.000000
6.245162 -7.981950 -0.325581 25.000000
18.870581 18.089914 -1.832531 7.000000
10.744229 3.878756 -0.921073 1.000000
6.227755 -7.899869 -0.333707 139.000000
18.794109 18.142923 -1.808337 7.000000
10.791791 3.938559 -0.922288 1.000000
6.287984 -0.406626 -0.488164 7.000000
6.251964 -7.873890 -0.344070 63.000000
18.953911 18.431873 -1.807020 7.000000
10.785696 3.985471 -0.917067 1.000000
6.194958 -0.376729 -0.480826 7.000000
6.255619 -7.819470 -0.351441 27.000000
19.311422 18.917744 -1.824002 7.000000
10.777389 4.023070 -0.913449 1.000000
6.151422 -0.351457 -0.478425 9.000000
6.370423 -7.906240 -0.366984 27.000000
19.779285 19.518648 -1.850578 7.000000
10.795661 4.075034 -0.910178 1.000000
6.182536 -0.330505 -0.480748 8.000000
6.411667 -7.898000 -0.380135 255.000000
19.605862 19.476261 -1.816163 8.000000
10.808890 4.125352 -0.908499 1.000000
6.508944 -7.966549 -0.393407 37.000000
19.496563 19.516991 -1.793625 8.000000
10.853136 4.192230 -0.907495 1.000000
6.686728 -8.117422 -0.413210 23.000000
19.380318 19.543362 -1.765390 6.000000
10.908983 4.255428 -0.911284 1.000000
6.625426 -7.986035 -0.418580 13.000000
19.246832 19.551559 -1.730900 6.000000
10.990996 4.333901 -0.915307 1.000000
6.681071 -3.280256 -0.504796 1.000000
6.571114 -7.861753 -0.422282 107.000000
18.991236 19.433880 -1.690502 6.000000
6.783758 -3.296943 -0.514196 1.000000
6.625339 -7.867843 -0.434700 245.000000
18.910402 19.486780 -1.665565 5.000000
6.713800 -7.916641 -0.451394 86.000000
18.798185 19.500116 -1.637643 7.000000
6.681377 -7.825653 -0.456463 174.000000
18.554964 19.403095 -1.604416 7.000000
6.613327 -7.685988 -0.460434 9.000000
18.464062 19.450262 -1.579224 7.000000
6.644458 -7.665164 -0.469514 31.000000
18.332308 19.446970 -1.540989 7.000000
6.664278 -7.634025 -0.479664 25.000000
18.152491 19.398174 -1.513232 6.000000
6.665550 -7.579228 -0.486581 36.000000
18.027779 19.393410 -1.485008 6.000000
6.613514 -3.009771 -0.523395 9.000000
17.872982 19.375549 -1.450685 6.000000
6.647943 -2.993284 -0.530281 10.000000
17.799364 19.424597 -1.426870 7.000000
6.697604 -2.991775 -0.536106 10.000000
17.604532 19.367491 -1.394566 7.000000
6.749310 -2.985247 -0.543251 22.000000
7.005302 -7.742049 -0.541706 9.000000
17.437420 19.318701 -1.359333 7.000000
6.814754 -2.984378 -0.551551 9.000000
17.303953 19.285572 -1.335246 6.000000
6.857314 -2.973110 -0.559357 8.000000
17.167646 19.275318 -1.303069 6.000000
17.071230 19.302303 -1.278314 7.000000
6.072153 2.817312 -0.464561 1.000000
7.100235 -7.624734 -0.582497 35.000000
16.905560 19.270309 -1.244781 7.000000
7.031234 -2.957103 -0.582907 1.000000
6.991169 -7.452655 -0.580251 58.000000
16.852114 19.338373 -1.223125 7.000000
6.909251 -7.316553 -0.580245 34.000000
16.657877 19.250738 -1.187178 6.000000
6.258320 0.170438 -0.492723 1.000000
7.149045 -2.945164 -0.597655 1.000000
7.009130 -7.365459 -0.596937 122.000000
16.526043 19.240450 -1.160620 7.000000
7.265720 -2.975446 -0.609644 1.000000
6.874330 -7.176002 -0.592129 40.000000
16.391376 19.225786 -1.129592 7.000000
7.272687 -2.944264 -0.613365 1.000000
6.861115 -7.104892 -0.597180 109.000000
16.298979 19.253130 -1.105792 7.000000
7.300718 -2.927472 -0.617669 1.000000
7.238137 -7.440541 -0.638528 23.000000
16.154835 19.238941 -1.074887 6.000000
7.371970 -2.936644 -0.625919 1.000000
7.253196 -7.404135 -0.646653 31.000000
16.056505 19.244282 -1.050451 4.000000
7.403627 -2.923832 -0.630664 4.000000
7.206281 -7.302508 -0.649068 1.000000
15.738012 19.003721 -1.008281 1.000000
