VERSION .7
FIELDS x y z intensity
SIZE 4 4 4 4
TYPE F F F F
COUNT 1 1 1 1
WIDTH 1237
HEIGHT 1
VIEWPOINT 0 0 0 1 0 0 0
POINTS 1237
DATA ascii
12.971808 2.533214 -1.293594 1.000000
11.618054 -2.667293 -1.423520 7.000000
5.363750 -4.056572 -0.779298 8.000000
20.931421 33.957108 -0.633606 1.000000
11.565178 -2.701942 -1.409893 7.000000
5.384834 -4.103630 -0.779752 9.000000
20.963564 33.718716 -0.679176 7.000000
11.536111 -2.739780 -1.405466 11.000000
5.401923 -4.148038 -0.777197 8.000000
20.999001 33.501247 -0.717759 9.000000
13.992362 2.570604 -1.397431 1.000000
11.526468 -2.782158 -1.401327 28.000000
5.402935 -4.180383 -0.773503 7.000000
21.135752 33.485191 -0.760315 10.000000
14.241420 2.562436 -1.423907 1.000000
11.516175 -2.826513 -1.397188 27.000000
8.223895 -6.372212 -1.176159 17.000000
21.298233 33.470188 -0.796375 10.000000
14.662107 2.582686 -1.467636 5.000000
11.492227 -2.865334 -1.387164 30.000000
8.158048 -6.369181 -1.162755 26.000000
21.495424 33.521160 -0.841087 5.000000
11.486695 -2.908714 -1.385678 27.000000
8.096387 -6.368941 -1.148184 30.000000
20.073763 3.373604 -2.017375 9.000000
11.489822 -2.958637 -1.383279 20.000000
8.062087 -6.389932 -1.137546 16.000000
20.041000 3.299800 -2.009392 9.000000
11.475086 -2.997592 -1.378560 19.000000
7.985166 -6.376756 -1.119151 14.000000
20.033674 30.521568 -0.892263 8.000000
20.106653 3.234963 -2.018362 9.000000
11.483691 -3.044846 -1.376722 9.000000
7.927643 -6.378546 -1.105373 17.000000
20.012730 30.258879 -0.924635 16.000000
20.122591 3.161909 -2.025965 8.000000
11.482509 -3.089620 -1.373722 13.000000
7.897085 -6.401783 -1.097196 17.000000
29.765779 44.648781 -1.423910 206.000000
8.424509 1.290636 -0.849186 4.000000
11.505027 -3.143103 -1.369413 7.000000
7.816549 -6.384114 -1.080342 15.000000
30.048655 44.733974 -1.495850 4.000000
8.433957 1.260463 -0.851170 8.000000
11.493890 -3.185377 -1.365250 9.000000
7.763108 -6.388042 -1.067311 10.000000
23.993345 35.451351 -1.225630 10.000000
8.428820 1.228130 -0.848690 6.000000
11.530418 -3.241055 -1.366755 6.000000
7.714818 -6.393601 -1.053124 10.000000
24.018173 35.209328 -1.264969 11.000000
11.513571 -3.284072 -1.362009 2.000000
7.661496 -6.396923 -1.040233 12.000000
24.049585 34.992363 -1.304687 10.000000
11.507139 -3.327893 -1.354212 4.000000
7.627272 -6.415937 -1.029981 10.000000
24.239491 34.993217 -1.352643 11.000000
5.870695 0.764554 -0.594052 7.000000
11.528693 -3.379965 -1.353950 141.000000
7.600594 -6.441213 -1.020773 9.000000
24.257711 34.759686 -1.391315 10.000000
5.819063 0.736150 -0.589585 7.000000
11.507154 -3.419500 -1.348640 8.000000
7.577609 -6.469602 -1.012079 15.000000
24.320707 34.592033 -1.424937 10.000000
4.640807 2.780767 -0.401094 1.000000
5.782445 0.708970 -0.584568 9.000000
11.527693 -3.473830 -1.348345 1.000000
7.532015 -6.478555 -0.998644 10.000000
5.789639 0.688323 -0.588120 10.000000
11.537864 -3.527479 -1.346916 1.000000
7.553865 -6.545671 -0.997667 9.000000
23.668484 33.157501 -1.472450 10.000000
4.711999 2.776688 -0.415077 1.000000
5.767312 0.664241 -0.586624 9.000000
11.517056 -3.562922 -1.341598 1.000000
7.575456 -6.613150 -0.994851 7.000000
23.362938 32.477074 -1.487979 1.000000
5.764661 0.642536 -0.587134 9.000000
11.542303 -3.617139 -1.341800 1.000000
7.581580 -6.667618 -0.991741 2.000000
23.302256 32.155346 -1.518601 5.000000
5.742146 0.618727 -0.585624 7.000000
11.566892 -3.673679 -1.339856 1.000000
5.734584 0.595647 -0.584615 6.000000
11.582181 -3.725322 -1.338901 1.000000
14.000163 19.031052 -0.948916 3.000000
5.736628 0.574614 -0.585621 4.000000
11.616151 -3.783284 -1.340106 1.000000
9.247331 -8.311733 -1.184093 26.000000
14.033192 18.937107 -0.971392 5.000000
5.738796 0.553594 -0.584615 2.000000
11.645577 -3.840136 -1.336452 4.000000
9.154837 -8.289460 -1.165258 29.000000
5.715716 0.530231 -0.585099 1.000000
7.845128 -2.620376 -0.899998 4.000000
9.091890 -8.293311 -1.152440 29.000000
14.215026 18.898266 -1.028344 7.000000
5.677896 0.506739 -0.581042 1.000000
7.882858 -2.665134 -0.902502 3.000000
9.076981 -8.340866 -1.141396 9.000000
14.392158 18.988480 -1.061115 7.000000
5.674827 0.483511 -0.581529 1.000000
16.475471 -15.251113 -2.058986 7.000000
14.469792 18.953112 -1.086976 7.000000
5.671502 0.462296 -0.582015 1.000000
8.032967 -2.781664 -0.914493 1.000000
16.412514 -15.299562 -2.038036 7.000000
14.642001 19.033634 -1.119866 7.000000
8.055861 -2.822701 -0.915257 4.000000
16.394178 -15.395159 -2.019009 7.000000
14.747514 19.032951 -1.143906 7.000000
7.966053 -2.825622 -0.898819 1.000000
7.612285 -7.201097 -0.931510 10.000000
14.779551 18.930578 -1.166209 7.000000
5.601848 0.395650 -0.573403 1.000000
14.971340 19.038853 -1.201516 7.000000
5.632937 0.377102 -0.577436 1.000000
15.064733 19.027420 -1.225173 7.000000
5.748520 0.362674 -0.589137 1.000000
7.337420 -7.095570 -0.880441 1.000000
15.223806 19.077360 -1.266311 7.000000
5.610481 0.333324 -0.577835 1.000000
7.220464 -7.031410 -0.858715 35.000000
15.295671 19.037582 -1.288400 7.000000
5.591801 0.311651 -0.575790 1.000000
7.166723 -7.030437 -0.846559 19.000000
15.411425 19.045115 -1.318272 7.000000
5.682210 0.295803 -0.585987 1.000000
7.176872 -7.092196 -0.841955 26.000000
15.552803 19.076418 -1.350226 6.000000
5.594082 0.269682 -0.574812 1.000000
7.119564 -7.087329 -0.829447 30.000000
15.707585 19.115925 -1.378939 7.000000
5.570189 0.248070 -0.572260 1.000000
7.120027 -7.137445 -0.821770 17.000000
15.846806 19.141888 -1.406746 7.000000
5.660414 0.231304 -0.582437 1.000000
7.245114 -7.316275 -0.830252 20.000000
15.925222 19.107264 -1.434208 7.000000
5.586705 0.206808 -0.574767 1.000000
7.271167 -7.396611 -0.827229 6.000000
16.103275 19.170744 -1.474295 7.000000
5.631962 0.187815 -0.581336 1.000000
7.268978 -7.448799 -0.819113 19.000000
16.255993 19.222755 -1.508888 6.000000
5.657470 0.167910 -0.583902 1.000000
7.175974 -2.943081 -0.778259 1.000000
7.045690 -7.270588 -0.787917 160.000000
16.335125 19.166580 -1.535859 7.000000
5.663121 0.147305 -0.583426 1.000000
7.032224 -2.914281 -0.759796 1.000000
7.040300 -7.318511 -0.779611 219.000000
16.410887 19.113129 -1.558453 7.000000
5.563995 0.123350 -0.575124 1.000000
6.883939 -2.882438 -0.743596 1.000000
7.089649 -7.424080 -0.779073 32.000000
16.554964 19.158821 -1.584157 7.000000
5.674013 0.104984 -0.584450 1.000000
6.988489 -2.956366 -0.749367 1.000000
6.954368 -7.333500 -0.758146 25.000000
16.653276 19.130413 -1.617955 6.000000
5.654263 0.083889 -0.584376 3.000000
6.883551 -7.312314 -0.742767 30.000000
16.810982 19.169250 -1.653250 7.000000
5.649559 0.063109 -0.583862 2.000000
6.880540 -2.970349 -0.732183 1.000000
6.915024 -7.399903 -0.740199 30.000000
16.886545 19.120361 -1.680936 6.000000
5.679601 0.041634 -0.586945 1.000000
6.869957 -2.995701 -0.728259 2.000000
6.926989 -7.464773 -0.733544 30.000000
17.048235 19.147972 -1.716332 7.000000
5.970400 2.684457 -0.615335 1.000000
5.729449 0.021000 -0.592085 1.000000
6.895186 -3.038265 -0.728182 1.000000
6.903393 -7.494247 -0.725011 20.000000
17.187193 19.182365 -1.746824 7.000000
5.649911 0.001972 -0.583862 2.000000
17.326527 19.209320 -1.777182 7.000000
5.659726 -0.018768 -0.585877 2.000000
16.925741 18.627256 -1.759956 7.000000
5.664701 -0.038559 -0.585404 2.000000
7.145180 -3.224671 -0.750681 1.000000
16.726995 18.279917 -1.754374 7.000000
5.669495 -0.059373 -0.585917 2.000000
6.921693 -7.730624 -0.698304 50.000000
16.684673 18.100014 -1.764557 7.000000
5.654292 -0.081915 -0.584376 1.000000
7.044269 -3.256401 -0.732220 1.000000
6.838794 -7.691895 -0.681819 34.000000
16.648043 17.927973 -1.775183 9.000000
5.668872 -0.102909 -0.585917 4.000000
6.692093 -7.582682 -0.661096 52.000000
16.736490 17.897522 -1.803739 10.000000
5.673450 -0.122804 -0.586431 3.000000
6.687725 -7.633948 -0.652751 82.000000
16.851734 17.888882 -1.839272 10.000000
5.682650 -0.145828 -0.589444 5.000000
7.076000 -3.355393 -0.727861 1.000000
16.919508 17.829443 -1.861096 10.000000
5.731790 -0.168113 -0.594601 5.000000
7.001627 -3.362134 -0.716424 1.000000
17.080172 17.873379 -1.897933 9.000000
5.696406 -0.185983 -0.590991 6.000000
17.196035 17.863083 -1.929641 10.000000
5.705693 -0.208221 -0.591026 6.000000
6.198580 -3.033971 -0.630493 1.000000
17.253508 17.791807 -1.946167 8.000000
5.734708 -0.230330 -0.594115 7.000000
6.202373 -3.061364 -0.625822 1.000000
17.181335 17.587934 -1.956651 7.000000
6.860055 2.700865 -0.743680 1.000000
5.733737 -0.253348 -0.594115 8.000000
6.128561 -3.054253 -0.614734 8.000000
6.729919 -8.023249 -0.612985 243.000000
17.150547 17.434254 -1.967681 7.000000
6.956670 2.712292 -0.757124 1.000000
5.762728 -0.274788 -0.596197 8.000000
6.069204 -3.051165 -0.606259 29.000000
6.659354 -7.998481 -0.598288 255.000000
16.953049 17.107615 -1.967433 7.000000
6.896455 2.659738 -0.754719 1.000000
5.776375 -0.296662 -0.599758 10.000000
6.049192 -3.068930 -0.604186 28.000000
6.506238 -7.873081 -0.579967 30.000000
16.838396 16.867809 -1.967879 7.000000
5.775457 -0.317843 -0.597739 18.000000
6.011584 -3.077607 -0.597989 20.000000
6.479160 -7.896285 -0.567489 31.000000
16.726147 16.638796 -1.972838 7.000000
5.784288 -0.339598 -0.597755 9.000000
5.995126 -3.099617 -0.592836 28.000000
6.434784 -7.901081 -0.555431 36.000000
16.636896 16.429132 -1.975743 7.000000
5.777769 -0.361482 -0.599263 9.000000
5.970842 -3.114849 -0.586822 8.000000
6.448218 -7.974263 -0.551810 38.000000
16.549902 16.223845 -1.978708 6.000000
5.801323 -0.384306 -0.600822 10.000000
6.391179 -7.963243 -0.538699 35.000000
16.350470 15.911244 -1.975958 6.000000
5.834605 -0.407995 -0.604420 9.000000
6.320126 -7.931270 -0.524392 23.000000
16.014246 15.475586 -1.948367 6.000000
5.887449 -0.434414 -0.611104 9.000000
6.285100 -7.946904 -0.515034 36.000000
15.940235 15.291478 -1.951956 12.000000
6.300884 -8.024271 -0.506123 19.000000
16.088457 15.320829 -1.986665 10.000000
6.462085 -8.291953 -0.510474 19.000000
16.121523 15.240037 -2.003353 8.000000
6.222543 -8.042323 -0.483093 34.000000
16.081585 15.091055 -2.010908 6.000000
10.813324 3.765598 -1.219634 1.000000
8.459641 -0.714837 -0.877334 1.000000
6.071554 -7.906887 -0.466642 20.000000
10.750829 3.699709 -1.221083 1.000000
8.481757 -0.749517 -0.878418 1.000000
6.153224 -8.071414 -0.464431 34.000000
10.740380 3.652141 -1.222373 1.000000
8.478646 -0.780570 -0.881390 1.000000
6.075623 -8.030499 -0.451986 22.000000
10.702082 3.593333 -1.220422 1.000000
8.431627 -0.807418 -0.872322 1.000000
6.308875 -8.399580 -0.458658 35.000000
10.704729 3.550617 -1.229190 4.000000
22.182245 -2.206262 -2.299690 32.000000
6.340978 -8.507074 -0.453979 243.000000
10.731842 3.516001 -1.230815 1.000000
22.332321 -2.307821 -2.312191 36.000000
6.067857 -8.200239 -0.425770 180.000000
10.711143 3.465800 -1.230953 1.000000
22.106115 -2.366364 -2.289653 24.000000
5.996625 -8.166402 -0.412241 255.000000
10.700085 3.416891 -1.234117 1.000000
22.097691 -2.447416 -2.285773 7.000000
6.003649 -8.236077 -0.404008 34.000000
10.749630 3.389345 -1.246354 1.000000
22.301010 -2.556652 -2.303843 7.000000
10.718860 3.336500 -1.245327 4.000000
20.386089 -2.405637 -2.103211 6.000000
10.730600 3.297064 -1.249246 1.000000
6.302054 -8.841681 -0.396239 56.000000
10.746740 3.258964 -1.255679 1.000000
19.908569 -2.497388 -2.059318 5.000000
6.140039 -8.681523 -0.375042 14.000000
10.705968 3.201763 -1.257369 1.000000
19.899191 -2.573860 -2.055816 5.000000
6.121332 -8.719475 -0.368310 21.000000
10.736271 3.168002 -1.263513 1.000000
19.524416 -2.598177 -2.021542 7.000000
10.731984 3.128088 -1.265732 1.000000
6.056577 -8.753335 -0.345672 27.000000
10.720154 3.078005 -1.266813 8.000000
5.975085 -8.706818 -0.330012 13.000000
10.750160 3.041989 -1.276870 1.000000
15.670023 -2.263669 -1.616601 3.000000
5.870162 -8.621487 -0.316849 22.000000
10.717745 2.990432 -1.275645 9.000000
15.267716 -2.262709 -1.578664 4.000000
5.831818 -8.629772 -0.305487 10.000000
4.286140 3.505667 -0.603489 3.000000
10.660724 2.932449 -1.275391 46.000000
14.910439 -2.265640 -1.539910 5.000000
6.407370 -4.115038 -0.552529 1.000000
5.886577 -8.779998 -0.300806 75.000000
4.290833 3.483336 -0.607229 1.000000
10.729002 2.906964 -1.286147 1.000000
14.725097 -2.292725 -1.521626 2.000000
6.485400 -4.197199 -0.555096 5.000000
5.703779 -8.571889 -0.282202 27.000000
4.280020 3.448610 -0.607790 3.000000
10.743948 2.868786 -1.290603 1.000000
14.588734 -2.328902 -1.505843 2.000000
6.503712 -4.242952 -0.552542 2.000000
5.576299 -8.440864 -0.266676 35.000000
4.272645 3.416917 -0.611727 4.000000
10.739108 2.825367 -1.296627 9.000000
14.177803 -2.316623 -1.461760 1.000000
6.467443 -4.253165 -0.548065 3.000000
5.593326 -8.537739 -0.256578 28.000000
4.331505 3.438035 -0.622255 1.000000
10.768183 2.790858 -1.302829 1.000000
13.987439 -2.338185 -1.445508 2.000000
5.528190 -8.502915 -0.246094 27.000000
10.797403 2.754230 -1.310990 1.000000
13.773088 -2.354277 -1.421775 1.000000
9.885513 -6.562946 -0.833895 11.000000
5.501322 -8.526573 -0.235590 50.000000
10.802165 2.713316 -1.314294 6.000000
13.411626 -2.345528 -1.380579 1.000000
9.849439 -6.591135 -0.824570 12.000000
5.532119 -8.643685 -0.229303 16.000000
10.850153 2.683132 -1.322883 1.000000
13.392908 -2.392876 -1.381945 2.000000
9.800757 -6.610694 -0.816298 11.000000
5.842421 -9.199082 -0.230174 19.000000
10.878772 2.645925 -1.333051 1.000000
13.007470 -2.373240 -1.340731 2.000000
9.768682 -6.641282 -0.807363 12.000000
5.854068 -9.292505 -0.222385 10.000000
10.974854 2.626727 -1.347631 1.000000
12.680396 -2.363910 -1.307944 5.000000
9.754133 -6.681295 -0.799791 9.000000
5.784618 -9.253730 -0.209540 14.000000
11.051371 2.602252 -1.361876 1.000000
12.593233 -2.395455 -1.302110 3.000000
9.754441 -6.734165 -0.797678 3.000000
5.699674 -9.189052 -0.198184 19.000000
11.098610 2.572520 -1.370617 1.000000
12.307068 -2.383336 -1.271121 1.000000
9.744799 -6.775334 -0.790399 7.000000
11.208663 2.554776 -1.391185 1.000000
12.122562 -2.393736 -1.252963 1.000000
9.787303 -6.863331 -0.789789 1.000000
5.540753 -9.070090 -0.174389 6.000000
11.290771 2.525856 -1.406253 1.000000
12.097587 -2.441499 -1.253603 1.000000
17.565022 -12.413730 -1.409764 7.000000
5.184839 -8.561187 -0.153737 4.000000
11.569994 2.545945 -1.448308 1.000000
11.967815 -2.456640 -1.238839 1.000000
17.536058 -12.489887 -1.403557 6.000000
12.152034 -20.216387 -0.337601 30.000000
11.845799 2.561152 -1.483794 1.000000
11.846739 -2.477071 -1.227237 1.000000
17.464964 -12.531371 -1.382523 7.000000
12.107144 -20.301865 -0.317689 35.000000
11.960883 2.540182 -1.505699 1.000000
11.779612 -2.508132 -1.216981 1.000000
17.423351 -12.598506 -1.375338 7.000000
12.112764 -20.473410 -0.290642 33.000000
12.207811 2.543674 -1.542171 1.000000
11.745379 -2.548025 -1.216565 1.000000
17.474426 -12.733229 -1.371678 7.000000
11.984638 -20.427320 -0.268692 59.000000
12.473634 2.551395 -1.583585 1.000000
11.750534 -2.594275 -1.218075 1.000000
17.408352 -12.773678 -1.362242 8.000000
11.845469 -20.352554 -0.246611 29.000000
11.715640 -2.631640 -1.226037 5.000000
17.333521 -12.816769 -1.356275 7.000000
11.756958 -20.363647 -0.225724 13.000000
12.648723 2.538945 -1.641217 1.000000
11.689025 -2.627805 -1.242318 3.000000
17.377491 -12.853973 -1.397770 7.000000
11.743260 -20.348125 -0.254235 19.000000
12.532146 2.563364 -1.629568 1.000000
11.726864 -2.591195 -1.253797 1.000000
17.439785 -12.801426 -1.414164 7.000000
11.831625 -20.336933 -0.287466 28.000000
12.274583 2.559823 -1.597343 1.000000
11.701407 -2.540625 -1.258523 1.000000
17.442430 -12.709914 -1.441038 7.000000
11.937737 -20.355520 -0.321270 63.000000
12.018215 2.552358 -1.560830 1.000000
11.773651 -2.509011 -1.271620 1.000000
17.451488 -12.618851 -1.456834 8.000000
12.074658 -20.425268 -0.352029 27.000000
12.022523 2.599361 -1.569161 1.000000
11.825696 -2.474825 -1.284783 1.000000
17.512583 -12.565538 -1.480756 8.000000
12.080059 -20.264488 -0.382967 31.000000
4.373857 3.247128 -0.682375 1.000000
11.504374 2.533611 -1.498613 1.000000
11.877856 -2.440334 -1.295890 1.000000
17.506315 -12.468702 -1.499152 6.000000
5.162470 -8.591793 -0.174960 7.000000
4.299674 3.214227 -0.670558 1.000000
11.302292 2.528433 -1.473373 1.000000
11.978870 -2.415364 -1.310251 1.000000
9.748503 -6.894664 -0.843321 1.000000
5.200085 -8.586360 -0.187486 8.000000
4.245004 3.213967 -0.658476 1.000000
11.369428 2.591419 -1.483469 1.000000
12.074750 -2.388675 -1.326291 1.000000
9.758917 -6.843426 -0.856475 4.000000
4.383490 3.344163 -0.677946 1.000000
11.026250 2.557775 -1.437955 1.000000
12.239360 -2.374657 -1.345608 1.000000
9.704486 -6.754846 -0.857921 8.000000
4.245663 3.263703 -0.654681 3.000000
11.075644 2.607968 -1.445516 1.000000
12.520930 -2.379437 -1.384552 6.000000
9.689169 -6.696597 -0.866999 14.000000
6.028543 -9.719256 -0.257547 28.000000
10.955089 2.624018 -1.427091 1.000000
12.753629 -2.375259 -1.416184 6.000000
9.703007 -6.648763 -0.876163 18.000000
6.025167 -9.638539 -0.269858 25.000000
11.065435 2.697463 -1.438825 1.000000
12.835106 -2.341792 -1.428878 1.000000
9.726801 -6.612810 -0.884374 21.000000
6.053266 -9.608704 -0.283496 17.000000
10.843610 2.685531 -1.411252 1.000000
13.244559 -2.366371 -1.475861 2.000000
6.003560 -9.456448 -0.291358 52.000000
10.863036 2.730622 -1.415012 1.000000
13.418421 -2.349130 -1.501531 3.000000
5.496397 -8.587871 -0.279462 39.000000
10.790945 2.754589 -1.402978 1.000000
13.794066 -2.362819 -1.545059 4.000000
5.480128 -8.496978 -0.287721 33.000000
10.757003 2.787960 -1.397914 1.000000
13.978007 -2.341624 -1.574706 3.000000
5.520424 -8.494215 -0.302436 63.000000
10.779518 2.842034 -1.396446 1.000000
14.242046 -2.327120 -1.605936 3.000000
5.653906 -8.633496 -0.318913 29.000000
10.741276 2.870080 -1.392717 1.000000
14.504968 -2.318126 -1.637256 3.000000
5.660515 -8.574848 -0.330076 31.000000
10.692338 2.901036 -1.383878 3.000000
14.851854 -2.317772 -1.678097 4.000000
5.706790 -8.579659 -0.343628 15.000000
10.701232 2.945601 -1.382482 3.000000
14.962534 -2.278900 -1.697672 4.000000
5.739282 -8.563534 -0.354591 36.000000
10.661692 2.976798 -1.378774 1.000000
15.230977 -2.262698 -1.729899 1.000000
5.789927 -8.571007 -0.370236 32.000000
10.660194 3.020550 -1.376143 1.000000
15.573642 -2.252520 -1.770603 2.000000
5.923611 -8.703253 -0.387879 15.000000
10.659051 3.062474 -1.373504 1.000000
6.176950 -9.007712 -0.413860 27.000000
10.648214 3.101655 -1.369633 1.000000
19.536085 -2.679585 -2.232752 7.000000
10.621859 3.140289 -1.363928 1.000000
19.505993 -2.602655 -2.231686 8.000000
6.343472 -9.110085 -0.445864 37.000000
10.653847 3.190228 -1.367487 1.000000
19.554873 -2.532794 -2.239635 7.000000
6.351964 -9.054717 -0.457772 38.000000
10.599797 3.216424 -1.358129 1.000000
19.360771 -2.435536 -2.226717 8.000000
10.631084 3.268517 -1.359723 1.000000
19.250839 -2.350065 -2.216497 7.000000
6.465240 -9.077331 -0.486574 49.000000
10.661555 3.322746 -1.361285 1.000000
19.288935 -2.279582 -2.223293 7.000000
6.499498 -9.058347 -0.498468 170.000000
10.616400 3.351413 -1.355107 1.000000
19.188198 -2.196397 -2.214154 7.000000
10.661228 3.408584 -1.358450 1.000000
19.224586 -2.129207 -2.227699 9.000000
6.081207 -8.348595 -0.485278 9.000000
10.629623 3.443521 -1.352140 1.000000
19.236814 -2.059218 -2.231648 9.000000
5.994780 -8.169867 -0.486738 16.000000
10.669488 3.499697 -1.352868 1.000000
19.096354 -1.970048 -2.214459 8.000000
6.116368 -8.271834 -0.506744 5.000000
10.657036 3.538928 -1.348949 1.000000
19.014093 -1.891156 -2.207481 9.000000
10.691720 3.594007 -1.349006 1.000000
19.173786 -1.836094 -2.228631 7.000000
6.079580 -8.041562 -0.530091 22.000000
6.141955 -8.062469 -0.543593 137.000000
6.254690 -8.151271 -0.565437 33.000000
5.832843 -3.149861 -0.641804 1.000000
6.313269 -8.168415 -0.578996 32.000000
14.582108 13.910640 -1.979571 6.000000
5.799881 -3.104658 -0.643875 8.000000
6.416399 -8.239261 -0.596652 30.000000
14.692610 14.114340 -1.983299 5.000000
5.657859 -0.392659 -0.662231 10.000000
6.398521 -8.157405 -0.603231 35.000000
14.606255 14.134686 -1.960718 6.000000
5.634482 -0.370291 -0.659331 15.000000
5.843801 -3.073271 -0.654377 24.000000
6.508448 -8.235212 -0.621774 28.000000
14.729961 14.359317 -1.969882 6.000000
5.590970 -0.344897 -0.657045 14.000000
5.872370 -3.060871 -0.659817 30.000000
6.449645 -8.102509 -0.626149 37.000000
14.948618 14.679711 -1.984166 6.000000
5.572422 -0.322280 -0.654715 21.000000
5.896399 -3.045965 -0.665938 24.000000
6.478954 -8.078384 -0.635186 45.000000
15.019560 14.857905 -1.985917 6.000000
5.558347 -0.301029 -0.655883 22.000000
5.946856 -3.044470 -0.676261 8.000000
6.428229 -7.958061 -0.640032 37.000000
15.159534 15.101437 -1.988778 6.000000
5.549624 -0.282103 -0.652773 24.000000
6.469525 -7.949403 -0.652014 31.000000
15.185891 15.238992 -1.984402 9.000000
5.545478 -0.260548 -0.654127 27.000000
6.490399 -7.918433 -0.663888 31.000000
15.103373 15.267698 -1.958240 9.000000
5.531483 -0.237641 -0.653338 25.000000
6.290197 -7.617066 -0.650939 240.000000
15.090374 15.366802 -1.944894 10.000000
5.517355 -0.218706 -0.651581 24.000000
6.313117 -7.590698 -0.660950 81.000000
15.122272 15.512610 -1.933451 8.000000
5.513260 -0.195418 -0.650995 28.000000
6.147021 -3.006075 -0.715573 1.000000
6.212294 -7.414029 -0.657720 10.000000
15.266658 15.770484 -1.939632 6.000000
5.508801 -0.176971 -0.651371 24.000000
15.375819 16.000181 -1.937521 6.000000
5.504450 -0.156638 -0.650784 27.000000
15.462881 16.209276 -1.932329 6.000000
5.495083 -0.135257 -0.649610 25.000000
6.406352 -7.482344 -0.699161 7.000000
15.527274 16.390955 -1.927666 6.000000
5.485386 -0.114902 -0.650352 29.000000
6.482111 -7.514899 -0.714864 214.000000
15.775653 16.775879 -1.941833 6.000000
5.485998 -0.094801 -0.648436 24.000000
7.249825 -3.416146 -0.856488 1.000000
6.486220 -7.464173 -0.722705 46.000000
15.816983 16.943842 -1.938256 6.000000
5.481130 -0.073666 -0.649763 25.000000
7.333968 -3.423003 -0.869227 1.000000
6.449257 -7.369522 -0.727745 123.000000
15.769693 17.017799 -1.915627 6.000000
5.481363 -0.053576 -0.649763 29.000000
7.260317 -3.356275 -0.863271 1.000000
6.624092 -7.513557 -0.754910 8.000000
16.062262 17.455343 -1.937716 7.000000
5.481523 -0.033485 -0.649763 28.000000
6.941120 -7.817972 -0.797100 10.000000
16.103388 17.616928 -1.920363 8.000000
5.481493 -0.014351 -0.650720 25.000000
6.850266 -7.664298 -0.792767 22.000000
16.067104 17.713335 -1.898930 14.000000
5.476656 0.005735 -0.649175 29.000000
6.924449 -7.690380 -0.808987 1.000000
16.053429 17.829138 -1.879744 10.000000
5.471633 0.025785 -0.648586 32.000000
15.972041 17.857481 -1.856103 10.000000
5.471728 0.045841 -0.646676 27.000000
6.756485 -7.396702 -0.800754 31.000000
15.857302 17.847958 -1.832870 10.000000
5.466344 0.064879 -0.647997 28.000000
6.787055 -7.380867 -0.813802 23.000000
15.737369 17.850540 -1.797674 23.000000
5.461300 0.086746 -0.645502 25.000000
6.941336 -2.963595 -0.847924 1.000000
6.791053 -7.328537 -0.821433 21.000000
15.650084 17.883244 -1.770153 18.000000
5.460721 0.106758 -0.647409 28.000000
6.896824 -2.914751 -0.845146 2.000000
6.861579 -7.350423 -0.835535 31.000000
15.529895 17.871401 -1.738675 9.000000
5.460270 0.127725 -0.647409 30.000000
6.985106 -2.921933 -0.857323 1.000000
6.915176 -7.353620 -0.849418 30.000000
15.559513 18.025869 -1.727782 7.000000
5.464780 0.145964 -0.647997 28.000000
7.071281 -7.472444 -0.874748 125.000000
15.608146 18.223206 -1.715683 7.000000
5.464263 0.167903 -0.647043 25.000000
6.973546 -2.855795 -0.863907 1.000000
7.179670 -7.526234 -0.895383 25.000000
15.817005 18.604645 -1.720425 7.000000
5.458841 0.188719 -0.644549 31.000000
7.206554 -7.499189 -0.906276 245.000000
16.049234 19.005156 -1.726353 8.000000
5.458185 0.206820 -0.644549 27.000000
7.039832 -2.822861 -0.874898 1.000000
7.138615 -7.376778 -0.903515 29.000000
15.964718 19.039503 -1.698257 9.000000
5.467087 0.227227 -0.647631 29.000000
7.081505 -7.264294 -0.903618 32.000000
15.857287 19.052784 -1.676861 9.000000
5.456367 0.247772 -0.645502 27.000000
7.062168 -7.191534 -0.906647 19.000000
15.763374 19.074974 -1.643593 8.000000
5.460381 0.268012 -0.646089 28.000000
7.071415 -7.153346 -0.913633 30.000000
15.643812 19.072218 -1.612460 7.000000
5.469392 0.288553 -0.646307 32.000000
7.150860 -7.178370 -0.931029 35.000000
15.502578 19.035156 -1.578926 7.000000
5.463285 0.309271 -0.645721 27.000000
7.123530 -7.098708 -0.934698 23.000000
15.389273 19.051714 -1.553703 7.000000
5.462112 0.331207 -0.644766 27.000000
7.290481 -7.212013 -0.962157 30.000000
15.239936 18.988567 -1.514777 7.000000
5.456029 0.349001 -0.644181 31.000000
15.118357 18.979168 -1.484090 7.000000
5.474466 0.371292 -0.646521 29.000000
15.052972 19.033033 -1.458679 7.000000
5.473181 0.391362 -0.645564 31.000000
14.947064 19.042156 -1.429730 6.000000
5.467093 0.411073 -0.642109 29.000000
8.062518 -2.931330 -1.026005 1.000000
14.810844 19.004829 -1.397718 7.000000
5.470202 0.432436 -0.644606 31.000000
7.984773 -2.866827 -1.020647 1.000000
14.692964 18.996765 -1.372128 7.000000
5.468692 0.452491 -0.643648 32.000000
7.985861 -2.832648 -1.023889 1.000000
14.563724 18.966101 -1.336925 7.000000
5.476892 0.473387 -0.644813 30.000000
7.981799 -2.798315 -1.025042 1.000000
14.446534 18.956923 -1.307501 7.000000
5.480092 0.494870 -0.644435 31.000000
7.953975 -2.755866 -1.024637 11.000000
7.072673 -6.602301 -0.981084 8.000000
14.338920 18.952574 -1.278780 7.000000
5.478353 0.514963 -0.643475 31.000000
7.926119 -2.713717 -1.022729 1.000000
7.085249 -6.565608 -0.988001 10.000000
14.222320 18.942350 -1.245543 7.000000
5.491592 0.536520 -0.642328 34.000000
8.123415 -2.749624 -1.048461 1.000000
7.086666 -6.518806 -0.993351 11.000000
14.109136 18.928858 -1.216620 7.000000
5.494433 0.558104 -0.642906 36.000000
8.066853 -2.697566 -1.045905 1.000000
7.103930 -6.491328 -1.001236 10.000000
13.966497 18.874638 -1.185342 8.000000
5.507056 0.579787 -0.645607 28.000000
8.128932 -2.682093 -1.057099 1.000000
7.114542 -6.448811 -1.007546 10.000000
13.874426 18.894651 -1.154687 10.000000
5.520041 0.601618 -0.644437 27.000000
7.154698 -6.439859 -1.020236 11.000000
13.741312 18.850954 -1.128672 9.000000
5.522955 0.621451 -0.644043 21.000000
7.182895 -6.422249 -1.028017 10.000000
13.666959 18.894045 -1.103770 9.000000
5.525685 0.642276 -0.643648 25.000000
7.224303 -6.411782 -1.039099 11.000000
13.549371 18.869839 -1.067080 8.000000
4.808263 2.867438 -0.492747 1.000000
5.543020 0.664890 -0.645947 19.000000
7.269588 -6.404495 -1.049072 11.000000
13.417380 18.824369 -1.037596 9.000000
5.540538 0.686183 -0.644972 25.000000
7.303406 -6.386897 -1.060847 14.000000
13.328724 18.845749 -1.011855 8.000000
5.567412 0.712214 -0.647436 18.000000
7.373193 -6.395875 -1.077591 11.000000
13.214666 18.823511 -0.984048 9.000000
5.589499 0.735872 -0.649316 17.000000
11.526583 -3.477885 -1.516716 1.000000
7.424051 -6.396971 -1.087112 21.000000
13.180974 18.915583 -0.958233 6.000000
5.641289 0.761730 -0.654616 10.000000
11.544098 -3.434865 -1.521545 1.000000
7.480710 -6.398167 -1.100664 14.000000
13.001406 18.804451 -0.922205 6.000000
5.667908 0.789512 -0.655047 9.000000
11.528052 -3.384147 -1.517785 1.000000
7.539548 -6.396265 -1.116019 20.000000
11.534593 -3.340196 -1.525543 1.000000
7.578815 -6.386477 -1.129202 14.000000
11.532513 -3.291652 -1.527839 1.000000
7.628390 -6.380586 -1.138372 10.000000
20.380987 30.159252 -1.347453 1.000000
11.496756 -3.235923 -1.521520 1.000000
7.700639 -6.393194 -1.154498 14.000000
20.293060 30.256262 -1.310413 6.000000
11.512804 -3.194947 -1.526323 1.000000
7.738570 -6.376916 -1.165541 16.000000
20.202042 30.349024 -1.266770 9.000000
11.524473 -3.150577 -1.530493 1.000000
7.798081 -6.373569 -1.177768 12.000000
20.074459 30.375252 -1.226907 15.000000
11.511483 -3.101726 -1.531478 1.000000
7.876039 -6.393839 -1.197103 10.000000
19.999147 30.492161 -1.190574 9.000000
11.517998 -3.056093 -1.535001 5.000000
7.914068 -6.376731 -1.208317 10.000000
19.945475 30.666447 -1.143249 8.000000
11.499817 -3.006197 -1.535317 106.000000
7.975666 -6.378294 -1.219567 16.000000
19.784670 30.641039 -1.101619 4.000000
11.491550 -2.959082 -1.532755 255.000000
8.021482 -6.366871 -1.232062 12.000000
21.359995 33.361195 -1.148018 7.000000
11.516727 -2.918458 -1.538824 253.000000
21.303988 33.505051 -1.109047 10.000000
14.856049 2.622196 -1.689465 5.000000
11.521491 -2.874766 -1.546472 250.000000
21.106991 33.465500 -1.063706 10.000000
14.309092 2.582348 -1.618102 2.000000
11.531950 -2.832519 -1.546472 233.000000
5.253698 -4.051738 -0.819329 8.000000
20.943085 33.463932 -1.006168 10.000000
14.123871 2.602409 -1.595688 1.000000
11.552118 -2.790483 -1.549838 244.000000
5.252410 -4.020131 -0.820341 9.000000
20.916349 33.682091 -0.968980 10.000000
11.557445 -2.746978 -1.549191 231.000000
5.223078 -3.967406 -0.819295 9.000000
20.836048 33.815594 -0.915233 1.000000
11.552425 -2.701090 -1.551393 38.000000
5.221394 -3.936031 -0.820240 9.000000
13.032290 2.552110 -1.461415 1.000000
11.624994 -2.671022 -1.563985 1.000000
5.175629 -3.871865 -0.816546 9.000000
19.407509 32.007771 -0.777551 6.000000
12.823514 2.560064 -1.434426 1.000000
11.639542 -2.629488 -1.564635 3.000000
5.165431 -3.834789 -0.817277 9.000000
21.612736 35.927006 -0.826998 117.000000
12.619471 2.567460 -1.410370 2.000000
11.634232 -2.581378 -1.568925 1.000000
5.171554 -3.808620 -0.821622 9.000000
21.505629 36.033119 -0.776421 90.000000
12.338560 2.552947 -1.377689 1.000000
11.706042 -2.552330 -1.581591 1.000000
5.132964 -3.751261 -0.817813 9.000000
21.800457 36.818546 -0.739408 8.000000
12.208011 2.574857 -1.355392 1.000000
11.759212 -2.518810 -1.585382 1.000000
5.130042 -3.720359 -0.820792 10.000000
12.116331 2.601940 -1.341886 1.000000
11.792508 -2.478623 -1.592856 1.000000
5.119147 -3.683902 -0.820241 9.000000
11.897209 2.604889 -1.316615 1.000000
11.845206 -2.444401 -1.598753 1.000000
5.136182 -3.667662 -0.825292 9.000000
11.428382 2.541983 -1.257390 1.000000
11.912529 -2.410643 -1.608736 1.000000
5.126300 -3.647113 -0.823797 9.000000
11.317375 2.560860 -1.244152 1.000000
11.960180 -2.374688 -1.613985 1.000000
5.110696 -3.607872 -0.824712 10.000000
11.274386 2.596680 -1.232344 1.000000
12.193305 -2.372347 -1.641998 1.000000
5.111469 -3.580419 -0.824930 9.000000
11.144596 2.609838 -1.211114 1.000000
12.318207 -2.349824 -1.662100 1.000000
5.099545 -3.544276 -0.826419 9.000000
11.082564 2.638195 -1.197374 1.000000
12.731426 -2.380322 -1.714367 4.000000
5.108679 -3.521610 -0.829008 9.000000
46.206078 83.323677 -0.665174 12.000000
10.986427 2.657896 -1.182048 4.000000
12.750225 -2.333204 -1.715679 4.000000
5.108922 -3.494224 -0.830262 9.000000
46.155293 83.197853 -0.614415 1.000000
10.997293 2.660525 -1.171240 1.000000
12.732478 -2.329956 -1.699501 3.000000
5.115530 -3.513178 -0.822510 9.000000
46.525749 83.179832 -0.682018 1.000000
11.080402 2.635637 -1.174987 1.000000
12.637168 -2.362699 -1.676566 2.000000
5.137292 -3.553252 -0.820135 10.000000
11.172516 2.614319 -1.181707 2.000000
12.492359 -2.387565 -1.649584 4.000000
5.139721 -3.585519 -0.818363 10.000000
47.195599 82.978081 -0.883062 1.000000
11.249882 2.588969 -1.188878 1.000000
12.154226 -2.364744 -1.599369 1.000000
5.143469 -3.616232 -0.814369 9.000000
47.449734 82.751404 -0.965658 1.000000
11.356356 2.567597 -1.203187 1.000000
12.090988 -2.405047 -1.590172 1.000000
5.159198 -3.655620 -0.812244 10.000000
11.414035 2.536701 -1.210367 1.000000
11.899320 -2.407970 -1.557390 1.000000
5.166521 -3.689327 -0.809889 10.000000
11.593316 2.531991 -1.228386 1.000000
11.889823 -2.455772 -1.555271 1.000000
5.174241 -3.740024 -0.805405 9.000000
12.054318 2.586422 -1.280569 1.000000
11.808906 -2.482070 -1.541529 1.000000
5.172982 -3.768056 -0.802815 9.000000
21.800205 36.803471 -0.619699 9.000000
12.156404 2.559540 -1.292552 1.000000
11.771414 -2.519275 -1.531424 1.000000
5.179698 -3.802084 -0.800320 9.000000
12.204664 2.523022 -1.296691 1.000000
11.698282 -2.554916 -1.519042 1.000000
5.222252 -3.862853 -0.802170 9.000000
21.625397 35.933853 -0.695443 100.000000
12.594218 2.555456 -1.334808 1.000000
11.666306 -2.588494 -1.509639 1.000000
5.224422 -3.894165 -0.800072 9.000000
19.370516 31.921623 -0.664794 7.000000
12.876173 2.563566 -1.368319 1.000000
11.657254 -2.631352 -1.505467 1.000000
5.266454 -3.955603 -0.800557 10.000000
13.168781 2.569294 -1.400722 1.000000
11.633326 -2.672936 -1.497343 5.000000
5.268197 -3.987198 -0.798358 9.000000
11.585309 -2.706645 -1.488211 16.000000
5.289627 -4.033995 -0.797951 9.000000
20.964064 33.732647 -0.831938 9.000000
11.545894 -2.746361 -1.480345 29.000000
5.318551 -4.086970 -0.799819 9.000000
21.041487 33.595085 -0.864960 10.000000
13.938921 2.560786 -1.487057 1.000000
11.541813 -2.787994 -1.474747 28.000000
5.355345 -4.146552 -0.799241 9.000000
21.134121 33.482609 -0.905442 10.000000
14.222470 2.556464 -1.518799 3.000000
11.536835 -2.831583 -1.471217 43.000000
21.293661 33.463001 -0.955502 9.000000
14.740798 2.593895 -1.575766 3.000000
11.502802 -2.867971 -1.464006 28.000000
8.135763 -6.356355 -1.209188 17.000000
21.574373 33.644276 -1.004701 5.000000
20.552280 3.538914 -2.195602 94.000000
11.510423 -2.921137 -1.462312 23.000000
8.093889 -6.371550 -1.195494 22.000000
20.562767 3.470549 -2.206521 136.000000
11.510777 -2.961891 -1.459385 9.000000
8.043893 -6.380084 -1.184292 26.000000
19.966496 30.651924 -0.996254 5.000000
20.920954 3.440936 -2.239648 35.000000
11.499532 -3.008267 -1.453162 8.000000
7.970969 -6.369977 -1.166159 10.000000
20.017933 30.497585 -1.031734 9.000000
20.877863 3.362782 -2.237562 7.000000
11.503843 -3.052338 -1.450828 7.000000
7.956098 -6.406017 -1.158381 16.000000
29.618921 44.783264 -1.574780 51.000000
20.811075 3.273814 -2.232821 6.000000
11.517031 -3.101065 -1.449689 3.000000
7.875314 -6.388690 -1.142850 10.000000
29.773455 44.660290 -1.639918 156.000000
20.777933 3.190605 -2.235416 7.000000
11.496500 -3.140773 -1.444323 7.000000
7.791055 -6.367827 -1.125111 18.000000
23.953701 35.660309 -1.357532 5.000000
20.647814 3.089521 -2.216439 7.000000
11.499674 -3.189142 -1.437796 1.000000
7.741714 -6.374971 -1.110720 10.000000
23.970787 35.418018 -1.396317 7.000000
20.772829 3.023023 -2.232244 7.000000
11.511154 -3.242144 -1.436613 1.000000
7.686359 -6.381339 -1.095856 14.000000
23.986084 35.188663 -1.427608 6.000000
11.510368 -3.283159 -1.433627 4.000000
7.631417 -6.378592 -1.084005 16.000000
24.142509 35.127567 -1.488463 1.000000
5.804661 0.778632 -0.625895 5.000000
11.497677 -3.327331 -1.433627 5.000000
7.597301 -6.397521 -1.073713 15.000000
24.207075 34.972496 -1.515016 1.000000
5.758069 0.750908 -0.621596 7.000000
11.510183 -3.376719 -1.428226 3.000000
7.552884 -6.405312 -1.061847 10.000000
5.736014 0.726661 -0.619944 9.000000
11.507726 -3.421856 -1.425218 6.000000
7.484696 -6.394794 -1.046860 12.000000
5.714197 0.701615 -0.616274 9.000000
11.533616 -3.475616 -1.425729 1.000000
7.446960 -6.409921 -1.034456 17.000000
5.706535 0.679453 -0.618219 10.000000
11.525645 -3.521544 -1.420006 1.000000
7.386390 -6.405064 -1.022396 10.000000
13.436018 18.822701 -0.932887 1.000000
5.718758 0.659660 -0.620293 9.000000
11.530864 -3.573810 -1.418133 1.000000
7.363534 -6.432678 -1.013864 16.000000
13.562782 18.853771 -0.957186 6.000000
5.691600 0.635398 -0.616079 9.000000
11.548323 -3.621239 -1.413184 3.000000
7.351901 -6.470179 -1.005155 9.000000
13.685912 18.899401 -0.982078 6.000000
5.669071 0.610853 -0.615396 9.000000
11.548532 -3.670067 -1.414924 6.000000
7.339957 -6.507561 -0.998127 9.000000
13.793005 18.894142 -1.013182 7.000000
5.666221 0.589545 -0.615854 8.000000
11.586410 -3.733378 -1.414929 18.000000
7.329388 -6.550928 -0.989858 7.000000
13.926062 18.944172 -1.038893 9.000000
5.658557 0.567792 -0.613786 8.000000
7.356215 -6.618918 -0.989462 9.000000
14.009283 18.918646 -1.064870 10.000000
5.645651 0.545603 -0.613167 8.000000
9.122120 -8.265633 -1.217843 21.000000
14.149545 18.962339 -1.095070 7.000000
5.637804 0.523003 -0.612092 8.000000
9.077844 -8.286305 -1.205149 26.000000
14.250726 18.959501 -1.130962 7.000000
5.624509 0.500985 -0.613436 8.000000
9.088478 -8.357284 -1.199742 1.000000
14.325428 18.914150 -1.156285 7.000000
5.606390 0.478666 -0.612258 8.000000
7.905117 -2.706526 -0.954956 4.000000
14.475557 18.974390 -1.183927 7.000000
5.593536 0.455941 -0.608677 8.000000
8.074314 -2.797560 -0.969073 1.000000
14.580762 18.967724 -1.211954 7.000000
5.555207 0.432327 -0.607281 8.000000
7.983816 -2.800586 -0.959495 1.000000
14.688897 18.970974 -1.240621 7.000000
5.556716 0.413911 -0.606309 8.000000
7.992699 -2.836644 -0.957309 1.000000
14.822019 18.998642 -1.271278 7.000000
5.528582 0.389505 -0.603064 8.000000
14.995386 19.083136 -1.305914 6.000000
5.510094 0.366946 -0.601864 8.000000
15.030282 18.983906 -1.328316 7.000000
5.526284 0.347684 -0.603489 9.000000
15.160795 19.012007 -1.363777 7.000000
5.497322 0.327564 -0.603122 9.000000
7.299500 -7.115826 -0.915171 27.000000
15.317320 19.064528 -1.388690 6.000000
5.493683 0.304259 -0.602578 8.000000
7.207656 -7.075530 -0.897862 10.000000
15.442511 19.083529 -1.419784 7.000000
5.489803 0.285787 -0.601074 8.000000
7.355990 -7.274278 -0.906918 15.000000
15.542945 19.064327 -1.448430 7.000000
5.485849 0.265424 -0.600531 8.000000
7.199153 -7.171563 -0.883668 36.000000
15.703444 19.124491 -1.483162 6.000000
5.476896 0.243915 -0.599444 9.000000
7.150106 -7.172604 -0.870031 23.000000
15.765903 19.057703 -1.512783 6.000000
5.477517 0.221915 -0.602314 9.000000
7.159237 -7.234604 -0.867205 15.000000
15.946480 19.139559 -1.545512 7.000000
5.473465 0.203573 -0.599856 9.000000
7.199646 -7.328971 -0.864512 203.000000
16.021891 19.087378 -1.572229 7.000000
5.479175 0.182720 -0.600401 10.000000
7.176791 -2.914193 -0.827797 1.000000
7.208152 -7.391627 -0.857893 1.000000
16.193834 19.156033 -1.604508 7.000000
5.449999 0.161752 -0.597135 9.000000
7.042268 -2.889680 -0.809466 1.000000
16.308128 19.148439 -1.635316 6.000000
5.475343 0.140508 -0.600812 10.000000
6.976774 -2.892728 -0.800485 1.000000
7.253726 -7.550915 -0.849800 243.000000
16.354069 19.067144 -1.664061 7.000000
5.475569 0.122346 -0.602724 9.000000
6.860774 -2.874146 -0.787066 1.000000
7.046695 -7.384258 -0.821237 36.000000
16.530523 19.130537 -1.697032 7.000000
5.476208 0.101324 -0.600812 10.000000
6.968752 -7.356379 -0.804611 34.000000
16.677763 19.158541 -1.736103 7.000000
5.476333 0.081249 -0.602724 9.000000
6.899452 -2.951409 -0.783428 1.000000
6.909451 -7.344962 -0.790094 22.000000
16.746820 19.102814 -1.758614 7.000000
5.476593 0.061177 -0.602724 9.000000
6.902660 -2.982758 -0.781049 4.000000
6.903365 -7.392599 -0.783611 20.000000
16.511740 18.695976 -1.752968 7.000000
5.481758 0.040184 -0.603271 10.000000
6.951313 -3.034065 -0.783793 1.000000
6.914059 -7.458667 -0.777209 27.000000
16.602541 18.660498 -1.772859 7.000000
5.487049 0.020111 -0.601903 9.000000
6.905321 -7.501594 -0.770217 31.000000
16.170263 18.047384 -1.749719 7.000000
5.481905 0.000000 -0.603271 9.000000
16.178686 17.936749 -1.769613 8.000000
5.496680 -0.018228 -0.605871 9.000000
16.263622 17.904852 -1.793280 9.000000
5.516553 -0.039476 -0.607100 9.000000
7.163791 -3.233071 -0.798345 1.000000
7.062209 -7.840625 -0.765652 10.000000
16.348763 17.879097 -1.817380 10.000000
5.511403 -0.059641 -0.606553 8.000000
7.089029 -3.242618 -0.786334 1.000000
6.923547 -7.738128 -0.744288 15.000000
16.432619 17.826578 -1.844266 13.000000
6.428236 2.753818 -0.717749 1.000000
5.516116 -0.079913 -0.607100 9.000000
6.852596 -7.715552 -0.728835 28.000000
16.581381 17.862438 -1.883904 15.000000
6.428550 2.726110 -0.722822 1.000000
5.535450 -0.100487 -0.611220 9.000000
6.624708 -7.511614 -0.700355 54.000000
16.669216 17.825581 -1.912160 9.000000
6.396878 2.685060 -0.721821 1.000000
5.540205 -0.121855 -0.609834 8.000000
6.554898 -7.487599 -0.685400 84.000000
16.788813 17.834557 -1.936290 9.000000
6.342265 2.634837 -0.715776 1.000000
5.579468 -0.143180 -0.614210 9.000000
6.558722 -7.544946 -0.676279 42.000000
16.745766 17.652523 -1.953409 7.000000
5.573724 -0.163477 -0.615609 8.000000
16.637012 17.409641 -1.954418 7.000000
5.592923 -0.185536 -0.617804 8.000000
16.589823 17.245399 -1.963167 7.000000
5.602247 -0.206404 -0.617923 8.000000
16.446890 16.971874 -1.963797 7.000000
5.651191 -0.226975 -0.623401 9.000000
16.264721 16.667080 -1.955551 6.000000
5.680198 -0.251976 -0.624703 8.000000
6.159651 -3.072431 -0.660371 1.000000
6.536349 -7.798006 -0.636598 255.000000
16.149628 16.428244 -1.958757 6.000000
5.669294 -0.270332 -0.624602 8.000000
6.175435 -3.108622 -0.658409 1.000000
6.549500 -7.872123 -0.633507 176.000000
16.070660 16.222841 -1.969713 6.000000
5.683053 -0.293858 -0.626243 8.000000
6.565513 -7.950458 -0.627032 34.000000
15.912110 15.956608 -1.963597 6.000000
5.686955 -0.313968 -0.626790 8.000000
5.971368 -3.060966 -0.633119 33.000000
6.493828 -7.919797 -0.612058 30.000000
15.637459 15.566659 -1.942053 6.000000
5.685657 -0.334803 -0.627784 9.000000
5.938831 -3.070512 -0.627270 31.000000
6.461875 -7.940003 -0.604613 31.000000
15.535357 15.341350 -1.944752 9.000000
5.709067 -0.359184 -0.630523 9.000000
5.918461 -3.088837 -0.622840 24.000000
6.456475 -7.990176 -0.595920 35.000000
15.645361 15.347838 -1.971420 20.000000
5.732750 -0.379764 -0.632259 10.000000
5.907483 -3.110711 -0.618180 22.000000
6.358885 -7.928675 -0.577133 35.000000
15.672633 15.267604 -1.987379 10.000000
5.756039 -0.403511 -0.634993 9.000000
5.892477 -3.129129 -0.614225 9.000000
6.284835 -7.892634 -0.564076 59.000000
15.762774 15.243216 -2.014866 8.000000
5.789328 -0.427173 -0.637809 9.000000
6.411009 -8.111921 -0.567205 37.000000
15.597926 14.973559 -2.009601 6.000000
5.832321 -0.451845 -0.642724 8.000000
6.259733 -7.977596 -0.545631 47.000000
15.438547 14.712210 -2.004634 6.000000
5.984223 -0.486736 -0.658604 6.000000
6.381124 -8.193963 -0.547919 27.000000
15.393711 14.562199 -2.006794 6.000000
7.861203 -4.286067 -0.806974 1.000000
6.374209 -8.244288 -0.538850 152.000000
7.938722 -4.362545 -0.814818 1.000000
6.088937 -7.935257 -0.506688 34.000000
20.595322 -1.819969 -2.271648 5.000000
7.910107 -4.384644 -0.807160 1.000000
6.134096 -8.052153 -0.503926 217.000000
10.732900 3.651687 -1.287691 1.000000
20.573730 -1.897703 -2.266404 5.000000
10.651594 3.578450 -1.286212 1.000000
20.486691 -1.965427 -2.264865 7.000000
10.635923 3.529856 -1.286712 1.000000
20.519306 -2.044482 -2.265641 8.000000
10.643642 3.489162 -1.290052 5.000000
20.606003 -2.129423 -2.272401 9.000000
10.655284 3.449780 -1.299826 1.000000
20.469185 -2.194752 -2.258226 8.000000
10.634310 3.399978 -1.299688 5.000000
20.550314 -2.279668 -2.264431 8.000000
10.647287 3.359120 -1.299688 1.000000
20.631098 -2.365208 -2.270605 7.000000
10.653699 3.318258 -1.308848 8.000000
20.379622 -2.415694 -2.247557 7.000000
10.665352 3.279053 -1.312743 6.000000
20.080790 -2.447825 -2.211910 5.000000
6.541451 -9.184332 -0.456823 53.000000
10.639410 3.226416 -1.311950 6.000000
20.136177 -2.529510 -2.215433 5.000000
10.645527 3.185712 -1.319122 9.000000
20.299231 -2.629205 -2.230852 6.000000
10.642406 3.142324 -1.321228 1.000000
20.274673 -2.701617 -2.229227 7.000000
10.643652 3.100326 -1.325850 1.000000
20.323345 -2.783952 -2.239308 7.000000
6.185996 -8.953732 -0.395251 19.000000
10.683213 3.067398 -1.337173 3.000000
6.149245 -8.967310 -0.385400 19.000000
10.679606 3.024037 -1.339255 6.000000
15.574549 -2.258202 -1.709630 3.000000
6.113786 -8.986039 -0.371944 37.000000
4.290699 3.535721 -0.626580 1.000000
10.675824 2.980744 -1.341328 8.000000
15.261836 -2.264560 -1.678843 5.000000
5.805700 -8.597590 -0.345961 34.000000
10.634094 2.925124 -1.338570 33.000000
14.983441 -2.279409 -1.646450 3.000000
5.713155 -8.527768 -0.331546 37.000000
4.349036 3.533106 -0.642378 1.000000
10.701323 2.901469 -1.353540 1.000000
14.793140 -2.308609 -1.623857 4.000000
5.788691 -8.706085 -0.326732 33.000000
10.725812 2.865948 -1.359233 1.000000
14.533967 -2.322761 -1.598930 3.000000
5.601552 -8.488750 -0.307179 34.000000
4.316890 3.452300 -0.644449 1.000000
10.745153 2.828963 -1.366267 1.000000
14.226387 -2.327111 -1.563475 2.000000
5.641717 -8.618164 -0.302115 30.000000
10.765080 2.790054 -1.371369 3.000000
13.996877 -2.342274 -1.541691 1.000000
5.530084 -8.512330 -0.287088 26.000000
10.783921 2.752796 -1.380363 1.000000
13.802125 -2.364199 -1.516283 1.000000
6.316324 -4.223623 -0.573990 1.000000
5.470732 -8.485662 -0.273198 29.000000
10.822342 2.720392 -1.387951 1.000000
13.411187 -2.347864 -1.476675 1.000000
6.276406 -4.230302 -0.565126 8.000000
5.466650 -8.547961 -0.265696 164.000000
10.890034 2.692994 -1.399273 1.000000
13.241267 -2.368168 -1.456536 1.000000
9.782121 -6.603093 -0.881194 21.000000
6.004722 -9.461927 -0.281708 26.000000
10.966365 2.669256 -1.415817 1.000000
12.904453 -2.359099 -1.420472 4.000000
9.729376 -6.619526 -0.872426 22.000000
6.057020 -9.618385 -0.275810 22.000000
11.086311 2.655449 -1.436100 1.000000
12.788457 -2.386365 -1.406360 6.000000
9.709411 -6.658133 -0.868686 18.000000
6.011308 -9.623841 -0.261462 22.000000
4.300070 3.265114 -0.664854 1.000000
11.004196 2.591144 -1.428172 1.000000
12.604063 -2.399794 -1.384775 6.000000
9.722483 -6.719621 -0.861685 9.000000
6.014686 -9.704477 -0.251119 27.000000
4.280781 3.223457 -0.666513 1.000000
11.152780 2.583025 -1.454338 1.000000
12.234065 -2.375845 -1.345072 1.000000
9.703306 -6.756540 -0.857921 5.000000
4.390403 3.283246 -0.685769 1.000000
12.136851 -2.405363 -1.337574 1.000000
9.711623 -6.815319 -0.852533 7.000000
4.495193 3.349393 -0.705198 1.000000
11.301286 2.528208 -1.481458 1.000000
11.952989 -2.414488 -1.313971 1.000000
9.784666 -6.920241 -0.854858 1.000000
5.191876 -8.579564 -0.190800 7.000000
4.315402 3.190898 -0.680863 1.000000
11.522576 2.533403 -1.517611 1.000000
11.919489 -2.453224 -1.313417 1.000000
17.610331 -12.552055 -1.531193 7.000000
5.185156 -8.636375 -0.181107 4.000000
11.885283 2.565347 -1.570546 1.000000
11.832138 -2.482641 -1.304832 1.000000
17.475519 -12.552811 -1.515913 6.000000
12.109579 -20.322073 -0.408795 36.000000
11.971683 2.538109 -1.585066 1.000000
11.764401 -2.513480 -1.300493 1.000000
17.450663 -12.632173 -1.498871 7.000000
12.057096 -20.411821 -0.384833 19.000000
12.198527 2.539519 -1.620491 1.000000
11.750252 -2.555525 -1.299956 1.000000
17.416756 -12.705173 -1.492387 8.000000
11.915195 -20.333344 -0.357882 31.000000
12.765697 2.606493 -1.703745 1.000000
11.759545 -2.604875 -1.304208 1.000000
17.360870 -12.757493 -1.480071 7.000000
11.818165 -20.338287 -0.332566 25.000000
11.682504 -2.628481 -1.300852 1.000000
17.362307 -12.856812 -1.480412 8.000000
11.747240 -20.379662 -0.312038 36.000000
11.689967 -2.630161 -1.322847 1.000000
17.334339 -12.840788 -1.508484 8.000000
11.755563 -20.385876 -0.345029 36.000000
11.684068 -2.583878 -1.329556 1.000000
17.373322 -12.775985 -1.538247 8.000000
11.833935 -20.357246 -0.378127 20.000000
12.260556 2.552432 -1.675431 1.000000
11.721913 -2.547219 -1.339149 1.000000
17.390522 -12.690688 -1.558303 8.000000
11.894570 -20.298147 -0.406549 32.000000
12.066892 2.558294 -1.650237 1.000000
11.744831 -2.507155 -1.349198 1.000000
17.484657 -12.652132 -1.581108 7.000000
12.019451 -20.339983 -0.441265 31.000000
11.940441 2.579433 -1.636456 1.000000
11.820460 -2.482344 -1.363337 1.000000
17.482023 -12.566735 -1.607518 8.000000
12.092609 -20.301651 -0.474353 24.000000
11.495833 2.527523 -1.572599 1.000000
11.969650 -2.467904 -1.388134 1.000000
17.547342 -12.516397 -1.624427 6.000000
5.187372 -8.640066 -0.216376 8.000000
11.447354 2.562983 -1.567302 1.000000
11.954453 -2.416955 -1.387441 1.000000
9.774523 -6.918187 -0.915125 8.000000
5.209615 -8.608878 -0.226592 1.000000
12.064604 -2.393233 -1.407896 1.000000
9.687690 -6.806097 -0.917238 9.000000
5.247273 -8.603165 -0.241000 3.000000
4.254057 3.246594 -0.684580 1.000000
11.095373 2.569729 -1.519626 1.000000
12.194466 -2.372573 -1.428617 1.000000
9.671019 -6.741578 -0.923664 22.000000
5.989105 -9.742770 -0.287488 10.000000
4.277894 3.289667 -0.686522 7.000000
11.090249 2.613450 -1.520287 1.000000
12.398001 -2.365045 -1.453668 1.000000
6.144866 -4.223249 -0.595984 4.000000
6.014052 -9.703454 -0.300933 25.000000
4.258344 3.299540 -0.681500 168.000000
11.085932 2.655359 -1.516969 1.000000
12.625694 -2.358273 -1.488379 6.000000
6.159784 -4.200345 -0.603792 2.000000
6.046954 -9.688433 -0.315018 31.000000
