VERSION .7
FIELDS x y z intensity
SIZE 4 4 4 4
TYPE F F F F
COUNT 1 1 1 1
WIDTH 1236
HEIGHT 1
VIEWPOINT 0 0 0 1 0 0 0
POINTS 1236
DATA ascii
5.290889 -3.740615 -0.768062 8.000000
11.521330 2.558437 -1.065757 1.000000
11.917321 -2.411613 -1.406831 1.000000
5.318019 -3.789107 -0.769389 8.000000
11.651894 2.542654 -1.081162 1.000000
11.952665 -2.464402 -1.407743 1.000000
5.291505 -3.819163 -0.760832 7.000000
11.851467 2.538571 -1.098768 1.000000
11.778987 -2.473634 -1.381961 1.000000
5.318282 -3.868214 -0.759736 5.000000
21.851717 36.875751 -0.299252 11.000000
12.133383 2.552482 -1.126212 1.000000
11.808733 -2.527262 -1.382308 1.000000
5.296482 -3.882120 -0.754004 4.000000
12.357225 2.552311 -1.146113 1.000000
11.717113 -2.552602 -1.370549 1.000000
5.326807 -3.934441 -0.753344 1.000000
12.590789 2.552472 -1.169160 1.000000
11.689208 -2.591435 -1.359920 1.000000
5.400560 -4.019592 -0.759902 1.000000
25.340324 41.743134 -0.485821 15.000000
12.854013 2.556822 -1.192725 1.000000
11.636248 -2.626610 -1.348595 1.000000
5.370524 -4.027908 -0.750629 1.000000
25.576395 41.785976 -0.538717 12.000000
13.155906 2.566782 -1.226933 1.000000
11.655596 -2.675911 -1.351965 4.000000
5.498867 -4.155744 -0.765820 2.000000
20.912853 33.900486 -0.486664 1.000000
13.239236 2.530309 -1.231417 1.000000
11.632109 -2.715439 -1.341941 1.000000
5.488082 -4.179285 -0.760352 9.000000
20.951588 33.699451 -0.526386 9.000000
13.810805 2.587117 -1.288635 1.000000
11.612156 -2.757840 -1.338742 6.000000
21.024260 33.541546 -0.559672 10.000000
11.592764 -2.798160 -1.333464 7.000000
8.280359 -6.362933 -1.141824 20.000000
21.167589 33.509708 -0.601885 10.000000
11.578055 -2.839558 -1.328748 9.000000
8.245975 -6.384717 -1.131093 24.000000
21.238380 33.363274 -0.648914 9.000000
14.868186 2.613636 -1.389799 6.000000
11.568243 -2.882143 -1.322505 4.000000
8.145055 -6.354462 -1.109493 12.000000
14.892625 2.561697 -1.388537 1.000000
11.571990 -2.930313 -1.319993 8.000000
8.099166 -6.366551 -1.095502 15.000000
19.835529 3.337126 -1.858865 8.000000
11.551992 -2.970346 -1.314730 3.000000
8.056737 -6.381113 -1.087477 20.000000
19.832247 3.261873 -1.864500 8.000000
11.560706 -3.017803 -1.312751 3.000000
7.983504 -6.370867 -1.071725 12.000000
20.013535 30.490883 -0.744883 7.000000
19.882601 3.202475 -1.864680 7.000000
11.554722 -3.063679 -1.304951 6.000000
7.953219 -6.394553 -1.059995 19.000000
20.052769 30.296429 -0.780071 9.000000
19.757795 3.097521 -1.855263 6.000000
11.577233 -3.115108 -1.306657 1.000000
7.907257 -6.405456 -1.048015 13.000000
8.395668 1.284718 -0.789403 14.000000
11.556587 -3.155022 -1.301392 2.000000
7.841903 -6.400259 -1.035315 10.000000
23.851540 35.481461 -1.007533 1.000000
8.410304 1.255428 -0.788845 21.000000
11.555399 -3.200253 -1.294102 6.000000
7.812799 -6.422074 -1.021942 12.000000
24.053129 35.512970 -1.055749 11.000000
8.404860 1.223140 -0.789403 10.000000
11.548247 -3.246066 -1.290451 6.000000
7.805082 -6.463812 -1.016878 10.000000
24.092316 35.291542 -1.096560 11.000000
11.560610 -3.295308 -1.288929 9.000000
7.808759 -6.515254 -1.011498 9.000000
24.166542 35.136253 -1.139037 11.000000
6.069236 0.811965 -0.572354 1.000000
11.553660 -3.339162 -1.285264 8.000000
7.800736 -6.557204 -1.004585 7.000000
24.279812 35.038361 -1.183278 13.000000
5.968402 0.776219 -0.563633 6.000000
11.546547 -3.383010 -1.281595 10.000000
7.796304 -6.602395 -0.998122 1.000000
24.433100 34.984978 -1.229214 11.000000
5.916782 0.747463 -0.559545 7.000000
11.538666 -3.428864 -1.277923 25.000000
7.746210 -6.608877 -0.985834 1.000000
24.513390 34.866089 -1.272407 11.000000
4.698282 2.815206 -0.375316 1.000000
5.864782 0.721144 -0.555439 9.000000
11.559774 -3.481298 -1.277404 1.000000
16.826345 -14.462725 -2.132529 7.000000
5.877541 0.697733 -0.557408 9.000000
11.599893 -3.539803 -1.276841 1.000000
16.736998 -14.492931 -2.108426 7.000000
23.265131 32.568394 -1.278801 5.000000
4.899826 2.885067 -0.397612 1.000000
5.860181 0.673900 -0.556562 8.000000
11.596766 -3.585363 -1.273651 1.000000
16.678192 -14.549314 -2.080440 7.000000
23.287392 32.360138 -1.315602 10.000000
11.630793 -3.644869 -1.274615 1.000000
16.708384 -14.683841 -2.071324 7.000000
23.323378 32.184490 -1.353268 10.000000
11.622518 -3.689112 -1.270878 1.000000
16.669289 -14.752929 -2.057174 6.000000
23.440626 32.109791 -1.395241 8.000000
11.609339 -3.731822 -1.266622 1.000000
16.597589 -14.798309 -2.039350 7.000000
23.666981 32.171593 -1.436583 10.000000
11.676821 -3.800790 -1.266831 1.000000
9.231905 -8.292045 -1.124950 31.000000
11.672469 -3.846745 -1.265712 1.000000
9.165105 -8.292938 -1.111807 32.000000
20.505165 27.439760 -1.309955 8.000000
11.686338 -3.901124 -1.264485 1.000000
9.087654 -8.283638 -1.093108 32.000000
20.485317 27.234350 -1.338956 9.000000
11.743275 -3.968027 -1.265652 1.000000
9.079945 -8.337746 -1.085007 11.000000
20.521162 27.055235 -1.369806 8.000000
11.794962 -4.033719 -1.268411 1.000000
16.495047 -15.258545 -1.954033 6.000000
20.599110 26.981537 -1.404951 8.000000
11.851449 -4.101616 -1.267248 1.000000
16.446569 -15.320583 -1.934852 7.000000
14.577724 18.950077 -1.014603 5.000000
7.618138 -7.148906 -0.890126 10.000000
14.750320 19.036573 -1.043039 7.000000
7.632275 -7.214961 -0.885631 9.000000
14.828536 18.993322 -1.068922 6.000000
7.909784 -2.836786 -0.840222 1.000000
7.581078 -7.219363 -0.873555 1.000000
15.051626 19.140951 -1.101473 7.000000
7.882173 -2.856419 -0.832379 1.000000
15.142546 19.111988 -1.132846 7.000000
8.076305 -2.963503 -0.852614 1.000000
15.230224 19.085402 -1.160040 7.000000
7.211350 -7.017630 -0.811364 38.000000
15.352500 19.094660 -1.189732 6.000000
7.189643 -7.047997 -0.802980 28.000000
15.437258 19.063427 -1.212594 7.000000
7.185538 -7.095805 -0.796553 26.000000
15.601137 19.108448 -1.249646 7.000000
7.168284 -7.128360 -0.788518 46.000000
15.717455 19.127935 -1.275804 6.000000
7.139071 -7.151542 -0.779311 37.000000
15.815255 19.103777 -1.304092 7.000000
7.285338 -7.351760 -0.787312 69.000000
15.964529 19.140837 -1.328057 7.000000
7.241340 -7.361127 -0.776405 36.000000
16.084934 19.148907 -1.358769 7.000000
5.710495 0.190434 -0.549157 1.000000
7.059277 -7.226336 -0.750719 44.000000
16.270184 19.225920 -1.394910 6.000000
7.012547 -7.231335 -0.736190 37.000000
16.345791 19.179094 -1.426528 6.000000
6.944904 -2.876673 -0.703958 1.000000
7.003644 -7.275321 -0.730962 21.000000
16.418411 19.121893 -1.448805 6.000000
7.168636 -3.000176 -0.726378 1.000000
6.960141 -7.283372 -0.720366 36.000000
16.604856 19.203007 -1.486008 7.000000
6.818837 -2.883195 -0.685483 1.000000
6.921457 -7.293694 -0.708410 37.000000
16.723272 19.197283 -1.517053 7.000000
7.074118 -3.021746 -0.708193 1.000000
6.939561 -7.366660 -0.704147 24.000000
16.917740 19.277407 -1.550737 6.000000
6.945404 -2.994038 -0.693635 1.000000
6.926643 -7.407153 -0.694915 31.000000
17.013586 19.250662 -1.580357 5.000000
5.955507 2.702791 -0.571036 1.000000
6.901709 -3.008113 -0.686496 4.000000
6.931707 -7.464629 -0.689102 22.000000
17.119608 19.228134 -1.606202 7.000000
6.959218 -3.063579 -0.690653 1.000000
17.242285 19.237093 -1.634350 6.000000
17.415159 19.294037 -1.671671 7.000000
17.524649 19.272848 -1.707349 7.000000
17.678402 19.306118 -1.738696 7.000000
6.922952 -7.726601 -0.654518 35.000000
17.737911 19.242598 -1.761203 7.000000
6.821360 -7.664202 -0.638324 98.000000
17.946178 19.312387 -1.801905 7.000000
6.666781 -7.548688 -0.615980 31.000000
17.988327 19.222744 -1.827089 7.000000
17.191975 18.237301 -1.761380 7.000000
7.222914 -8.297305 -0.651636 10.000000
17.233381 18.147505 -1.785135 7.000000
17.189001 17.980978 -1.796171 7.000000
17.246443 17.902935 -1.816785 13.000000
6.212027 -3.037865 -0.587966 9.000000
17.363621 17.905355 -1.844747 12.000000
6.175383 -3.045362 -0.581819 23.000000
6.604023 -7.812040 -0.564750 192.000000
17.489304 17.890696 -1.885583 10.000000
6.984099 2.751109 -0.710887 1.000000
6.145451 -3.061331 -0.577739 14.000000
6.618756 -7.885131 -0.559349 31.000000
17.617918 17.909355 -1.911013 9.000000
7.081541 2.760978 -0.722497 1.000000
6.122356 -3.075209 -0.570502 16.000000
6.628114 -7.949666 -0.551495 185.000000
17.696056 17.857395 -1.938858 10.000000
7.031834 2.709130 -0.720292 1.000000
6.102420 -3.093256 -0.566090 9.000000
6.511970 -7.871620 -0.533614 23.000000
17.767231 17.798267 -1.961574 9.000000
7.013222 2.672481 -0.723987 1.000000
5.888414 -0.324059 -0.572003 4.000000
6.077908 -3.108884 -0.562470 2.000000
6.445285 -7.849411 -0.523394 38.000000
17.699862 17.601282 -1.977686 7.000000
7.120409 2.683480 -0.738053 1.000000
5.862446 -0.344186 -0.568565 9.000000
6.423124 -7.881144 -0.513262 28.000000
17.635069 17.402687 -1.980372 7.000000
6.924777 2.580806 -0.719394 1.000000
5.885980 -0.367220 -0.570974 8.000000
6.377061 -7.880638 -0.501133 28.000000
17.310392 16.969353 -1.963130 7.000000
5.904490 -0.391141 -0.571869 9.000000
6.364097 -7.923832 -0.491725 31.000000
17.264095 16.800327 -1.972045 7.000000
5.947699 -0.415904 -0.576197 9.000000
6.386485 -8.008808 -0.486652 31.000000
17.126253 16.538631 -1.974133 7.000000
6.030512 -0.443911 -0.584374 8.000000
6.338803 -8.009059 -0.474533 58.000000
17.115032 16.418463 -1.987393 7.000000
10.710037 3.860074 -1.126284 7.000000
6.493140 -8.263173 -0.479053 23.000000
17.058378 16.244474 -1.994590 7.000000
10.728244 3.822266 -1.132739 1.000000
6.521531 -8.362210 -0.470423 22.000000
16.598339 15.690783 -1.962169 6.000000
10.760578 3.789398 -1.138701 1.000000
8.438054 -0.681874 -0.818123 1.000000
10.725164 3.736997 -1.143647 1.000000
8.544561 -0.719009 -0.831698 3.000000
6.084302 -7.912047 -0.425306 39.000000
10.716180 3.685693 -1.145098 5.000000
8.477304 -0.747632 -0.823937 1.000000
6.105655 -8.003221 -0.418383 21.000000
10.733757 3.647799 -1.151536 1.000000
8.489645 -0.777100 -0.825383 1.000000
6.097651 -8.053772 -0.409259 236.000000
10.750759 3.611765 -1.156001 1.000000
8.447108 -0.805925 -0.820047 6.000000
6.366895 -8.470667 -0.420049 56.000000
10.741180 3.560627 -1.157416 1.000000
6.294243 -8.438227 -0.406253 255.000000
10.789968 3.537130 -1.169413 1.000000
22.788536 -2.342907 -2.209888 5.000000
6.151895 -8.301682 -0.389716 162.000000
10.783349 3.491242 -1.173299 1.000000
22.616102 -2.408980 -2.198015 5.000000
6.009322 -8.177708 -0.370346 160.000000
10.711610 3.420571 -1.167957 1.000000
21.400757 -2.362665 -2.069386 3.000000
6.107593 -8.372531 -0.367334 27.000000
10.717963 3.381417 -1.175287 2.000000
10.750247 3.344213 -1.179332 4.000000
20.433828 -2.407655 -1.977541 7.000000
10.732366 3.299656 -1.180126 5.000000
19.708466 -2.395458 -1.908178 4.000000
6.075306 -8.514121 -0.341492 177.000000
10.754251 3.259192 -1.189017 1.000000
19.408510 -2.431219 -1.876541 5.000000
6.063016 -8.566274 -0.329813 98.000000
10.736584 3.212961 -1.189772 1.000000
19.349997 -2.499390 -1.868361 24.000000
5.985886 -8.517055 -0.318059 81.000000
10.729520 3.163975 -1.195471 1.000000
19.251574 -2.558449 -1.863172 170.000000
6.446088 -3.971866 -0.529452 1.000000
5.904739 -8.470545 -0.304650 23.000000
10.758645 3.133822 -1.201508 1.000000
19.212799 -2.624994 -1.856922 191.000000
6.516541 -4.048304 -0.531072 1.000000
6.046118 -8.731703 -0.304082 17.000000
10.774432 3.095625 -1.205954 5.000000
19.188585 -2.693365 -1.852111 175.000000
6.455468 -4.043230 -0.521956 1.000000
10.752353 3.044636 -1.206111 10.000000
6.144333 -9.010633 -0.289397 23.000000
10.762625 3.004979 -1.213913 9.000000
6.004974 -8.875982 -0.275006 60.000000
4.335724 3.543697 -0.583609 1.000000
10.726264 2.948464 -1.212396 208.000000
15.013601 -2.278635 -1.454176 4.000000
18.001425 -11.472589 -1.440285 8.000000
5.664682 -8.442662 -0.248475 34.000000
4.328899 3.511732 -0.586855 2.000000
10.730777 2.911465 -1.215735 6.000000
14.769325 -2.296972 -1.428689 1.000000
17.989267 -11.557774 -1.431446 10.000000
5.616096 -8.427352 -0.236893 30.000000
4.240649 3.414446 -0.577995 1.000000
10.784267 2.881568 -1.228420 1.000000
14.391995 -2.294920 -1.390464 1.000000
17.922495 -11.607898 -1.414535 9.000000
5.615397 -8.500046 -0.229406 37.000000
4.287773 3.426562 -0.586578 1.000000
10.813567 2.846975 -1.234511 6.000000
14.408529 -2.351741 -1.387743 3.000000
17.893185 -11.682228 -1.400608 9.000000
5.550190 -8.465446 -0.217342 23.000000
4.298629 3.411940 -0.592325 4.000000
10.770178 2.793381 -1.236244 4.000000
13.875066 -2.311933 -1.339571 1.000000
17.838079 -11.730803 -1.391848 10.000000
5.554912 -8.534235 -0.209744 33.000000
10.813628 2.762390 -1.244005 1.000000
13.679453 -2.335814 -1.319136 1.000000
9.962326 -6.608933 -0.771010 8.000000
5.595728 -8.662932 -0.201622 22.000000
10.843222 2.725641 -1.248172 1.000000
13.469945 -2.348459 -1.302124 1.000000
9.901149 -6.620737 -0.759799 11.000000
5.838043 -9.107666 -0.200164 16.000000
10.886052 2.694026 -1.259884 2.000000
9.844042 -6.634891 -0.751037 8.000000
5.780608 -9.091234 -0.186169 26.000000
10.905081 2.656356 -1.264919 1.000000
13.021639 -2.368781 -1.258100 1.000000
9.831733 -6.671609 -0.745447 9.000000
5.668891 -8.984649 -0.174307 15.000000
11.005675 2.638166 -1.283459 1.000000
12.723919 -2.362833 -1.232443 1.000000
9.813428 -6.716879 -0.739847 4.000000
5.653491 -9.029932 -0.165502 18.000000
11.053753 2.604850 -1.293913 1.000000
12.333310 -2.341552 -1.191088 1.000000
9.797278 -6.758689 -0.734236 5.000000
5.635751 -9.082455 -0.152987 23.000000
11.149893 2.584407 -1.308096 1.000000
12.295536 -2.378877 -1.190440 1.000000
9.852998 -6.845462 -0.733803 1.000000
5.641340 -9.155539 -0.146409 1.000000
11.269788 2.568708 -1.329224 1.000000
12.149796 -2.396911 -1.179353 1.000000
17.616276 -12.335049 -1.304031 7.000000
5.628666 -9.210386 -0.137534 5.000000
11.312817 2.532861 -1.339293 1.000000
12.073012 -2.427769 -1.168419 1.000000
17.546848 -12.382527 -1.294718 8.000000
12.274077 -20.242981 -0.272710 9.000000
11.592737 2.550950 -1.379714 1.000000
12.014641 -2.464066 -1.165836 1.000000
17.522598 -12.461869 -1.277459 6.000000
12.208613 -20.294468 -0.252158 25.000000
11.732839 2.536730 -1.397396 1.000000
11.918221 -2.489846 -1.153070 1.000000
17.511812 -12.546475 -1.272312 7.000000
12.171137 -20.392988 -0.227980 28.000000
11.941197 2.533823 -1.425362 1.000000
11.835789 -2.517934 -1.148111 1.000000
17.470650 -12.614141 -1.253802 7.000000
12.149904 -20.528009 -0.204008 27.000000
12.217056 2.545601 -1.463790 1.000000
11.772966 -2.549707 -1.142915 1.000000
17.416578 -12.672472 -1.245703 8.000000
12.065601 -20.548883 -0.182999 24.000000
12.385328 2.533333 -1.496251 1.000000
11.724459 -2.584226 -1.141233 1.000000
17.390318 -12.751109 -1.243383 7.000000
11.885664 -20.405228 -0.160741 36.000000
11.723775 -2.631318 -1.146373 3.000000
17.415907 -12.868287 -1.244784 7.000000
11.765837 -20.370813 -0.143705 29.000000
12.566554 2.520170 -1.548730 1.000000
11.697128 -2.625338 -1.169109 2.000000
17.420273 -12.876214 -1.275606 7.000000
11.750735 -20.344669 -0.172226 25.000000
12.434941 2.543481 -1.535949 1.000000
11.749605 -2.591919 -1.181877 1.000000
17.401690 -12.764116 -1.297270 7.000000
11.919679 -20.471838 -0.202597 43.000000
12.211721 2.544489 -1.509519 1.000000
11.768551 -2.550901 -1.184957 1.000000
17.467422 -12.714129 -1.321396 7.000000
12.049142 -20.529055 -0.232663 45.000000
11.959086 2.539801 -1.479485 1.000000
11.791200 -2.510599 -1.199051 1.000000
17.453934 -12.611343 -1.339673 7.000000
12.054358 -20.374691 -0.264447 54.000000
11.760234 2.542652 -1.458158 1.000000
11.872754 -2.482510 -1.212825 1.000000
17.507002 -12.552279 -1.362853 7.000000
12.066308 -20.233389 -0.296056 34.000000
11.542384 2.539870 -1.432292 1.000000
11.978827 -2.458900 -1.227043 1.000000
17.527325 -12.469839 -1.383485 7.000000
12.140220 -20.188753 -0.320726 27.000000
11.275837 2.526648 -1.400410 1.000000
12.045648 -2.426641 -1.239467 1.000000
17.561403 -12.401982 -1.405358 7.000000
5.198220 -8.576523 -0.150543 6.000000
11.247379 2.563601 -1.395990 1.000000
12.176245 -2.404336 -1.258511 1.000000
5.618939 -9.198078 -0.176850 3.000000
11.117018 2.576787 -1.380973 1.000000
12.238262 -2.370012 -1.268411 1.000000
9.769034 -6.792185 -0.798623 6.000000
5.485788 -8.910050 -0.182639 14.000000
11.064028 2.609309 -1.371599 1.000000
12.695795 -2.410372 -1.321743 6.000000
9.763483 -6.737891 -0.804561 6.000000
5.672229 -9.141242 -0.202809 11.000000
10.953478 2.625654 -1.355089 4.000000
12.767657 -2.375566 -1.332890 1.000000
9.750369 -6.676217 -0.813891 17.000000
5.904425 -9.438056 -0.221536 11.000000
10.885903 2.651685 -1.347923 5.000000
12.995776 -2.368763 -1.362779 1.000000
9.770058 -6.637232 -0.823855 22.000000
5.870536 -9.311438 -0.232497 14.000000
10.837092 2.683917 -1.343145 2.000000
9.789581 -6.598186 -0.833810 17.000000
5.894804 -9.277984 -0.245610 16.000000
10.813193 2.720099 -1.337461 7.000000
13.561447 -2.366852 -1.425051 1.000000
9.836818 -6.580204 -0.846252 8.000000
5.568535 -8.697239 -0.241570 111.000000
10.774517 2.752399 -1.331947 5.000000
13.701404 -2.339563 -1.448656 1.000000
5.478207 -8.487494 -0.250413 38.000000
4.228761 3.398796 -0.614302 1.000000
10.749902 2.790124 -1.326287 8.000000
13.945080 -2.328602 -1.476002 2.000000
5.499479 -8.455525 -0.260605 30.000000
4.158769 3.367704 -0.601194 1.000000
10.749206 2.832036 -1.327473 1.000000
14.320837 -2.337428 -1.522538 1.000000
5.602755 -8.548875 -0.276579 36.000000
4.300648 3.508773 -0.620617 5.000000
10.729160 2.868850 -1.326287 4.000000
14.614266 -2.327748 -1.555384 2.000000
5.551211 -8.402888 -0.284826 27.000000
4.280497 3.518543 -0.614670 1.000000
10.689763 2.902341 -1.318863 25.000000
14.720699 -2.289409 -1.568437 5.000000
5.729859 -8.607824 -0.305093 39.000000
4.298606 3.559909 -0.614210 1.000000
10.645989 2.932394 -1.310871 52.000000
14.905153 -2.262176 -1.595177 5.000000
5.720716 -8.529394 -0.313783 32.000000
10.659520 2.978197 -1.309954 11.000000
15.295924 -2.269618 -1.638913 1.000000
5.782508 -8.553586 -0.328077 26.000000
10.668390 3.020861 -1.310370 11.000000
5.916190 -8.685830 -0.346792 22.000000
10.657686 3.060069 -1.306499 6.000000
20.746300 -2.919394 -2.238984 7.000000
10.655289 3.105733 -1.303795 8.000000
20.914093 -2.864874 -2.259670 7.000000
10.681382 3.157887 -1.308462 1.000000
20.693407 -2.750063 -2.238301 7.000000
6.427530 -9.223937 -0.410280 24.000000
10.636872 3.187168 -1.300503 3.000000
20.106831 -2.593581 -2.177340 7.000000
6.450825 -9.188820 -0.421490 23.000000
10.635273 3.229215 -1.295847 6.000000
20.075106 -2.521838 -2.180131 5.000000
10.651847 3.276936 -1.299321 4.000000
19.971188 -2.427390 -2.171322 4.000000
10.625395 3.313511 -1.293699 1.000000
20.462547 -2.418281 -2.227498 7.000000
10.613609 3.352569 -1.289813 1.000000
20.620279 -2.349384 -2.247242 7.000000
5.912767 -8.171169 -0.424495 29.000000
10.649200 3.406787 -1.289715 1.000000
20.612743 -2.279310 -2.249247 8.000000
5.985127 -8.210668 -0.438289 8.000000
10.641192 3.449322 -1.286383 5.000000
20.585188 -2.199922 -2.256313 7.000000
5.969082 -8.128894 -0.447378 20.000000
10.652505 3.496186 -1.285326 4.000000
20.385818 -2.099478 -2.233561 7.000000
6.010486 -8.122706 -0.457083 15.000000
10.664639 3.539386 -1.286212 3.000000
20.442450 -2.029618 -2.242563 9.000000
6.208554 -8.329414 -0.484468 58.000000
10.652019 3.578593 -1.282290 1.000000
20.365248 -1.946602 -2.236910 8.000000
6.157749 -8.198372 -0.488916 255.000000
10.629428 3.616482 -1.275277 1.000000
20.391657 -1.873730 -2.242658 7.000000
6.098636 -8.060917 -0.492595 145.000000
20.452379 -1.800143 -2.255812 7.000000
6.106630 -8.010296 -0.501440 26.000000
6.038995 -0.484825 -0.666716 4.000000
6.170727 -8.036037 -0.515034 59.000000
15.222091 14.409922 -1.988767 6.000000
5.817623 -0.445599 -0.643122 5.000000
6.373973 -8.238040 -0.540410 35.000000
15.346696 14.634905 -1.997105 6.000000
5.809266 -0.422529 -0.643043 7.000000
6.408419 -8.223089 -0.553666 33.000000
15.441905 14.834144 -1.990167 6.000000
5.766153 -0.398152 -0.638105 9.000000
6.430557 -8.192355 -0.564042 38.000000
15.521056 15.019953 -1.988440 6.000000
5.737708 -0.375064 -0.635817 9.000000
6.457074 -8.164349 -0.574672 104.000000
15.541765 15.150695 -1.982913 10.000000
5.689282 -0.349965 -0.632311 8.000000
5.908595 -3.074509 -0.626097 9.000000
6.276758 -7.879670 -0.566756 51.000000
15.585076 15.294039 -1.975686 15.000000
5.685565 -0.328823 -0.631760 9.000000
5.922791 -3.056980 -0.631218 28.000000
6.508314 -8.109191 -0.595900 33.000000
15.499372 15.327202 -1.949256 12.000000
5.676697 -0.307439 -0.631649 9.000000
5.961313 -3.046620 -0.637552 33.000000
6.445120 -7.973277 -0.600130 31.000000
15.477418 15.407342 -1.941384 8.000000
5.657884 -0.286616 -0.629441 9.000000
6.001960 -3.042334 -0.646743 10.000000
6.480204 -7.956851 -0.611461 28.000000
15.739044 15.783058 -1.954000 6.000000
5.614204 -0.261813 -0.625452 8.000000
6.061790 -3.044787 -0.654373 4.000000
6.558172 -7.995423 -0.627048 32.000000
15.808206 15.969046 -1.954033 6.000000
5.585120 -0.239945 -0.624086 8.000000
6.076850 -3.024510 -0.660777 1.000000
6.606156 -7.993989 -0.637914 125.000000
15.915769 16.201660 -1.951043 6.000000
5.571066 -0.218888 -0.622422 8.000000
6.186835 -3.048325 -0.675046 1.000000
16.096266 16.494457 -1.959604 6.000000
7.249567 2.918717 -0.839328 1.000000
5.537104 -0.196263 -0.618538 8.000000
16.138771 16.671379 -1.948439 6.000000
5.547611 -0.176279 -0.620617 9.000000
16.267626 16.916380 -1.950133 7.000000
5.518363 -0.157034 -0.617283 9.000000
16.472061 17.261137 -1.961608 7.000000
5.508821 -0.133671 -0.618095 10.000000
16.468588 17.384628 -1.939318 7.000000
5.494586 -0.113176 -0.614505 10.000000
16.534500 17.570545 -1.941215 7.000000
5.499684 -0.095037 -0.616981 10.000000
6.493871 -7.467711 -0.685075 118.000000
16.559752 17.720919 -1.921610 9.000000
5.480349 -0.073655 -0.612838 10.000000
6.490007 -7.410865 -0.688845 129.000000
16.553680 17.845085 -1.902834 14.000000
5.475614 -0.053519 -0.612282 23.000000
7.034489 -3.214702 -0.795162 1.000000
6.595835 -7.476243 -0.707657 255.000000
16.438629 17.851847 -1.875812 10.000000
5.475559 -0.033449 -0.614194 10.000000
7.094564 -3.213759 -0.804866 1.000000
6.848066 -7.705033 -0.740725 20.000000
16.303551 17.835903 -1.846633 10.000000
5.485477 -0.012446 -0.616266 10.000000
7.043486 -3.156606 -0.801712 1.000000
6.904243 -7.713844 -0.756599 9.000000
16.209183 17.857441 -1.813360 9.000000
5.475872 0.005734 -0.612282 21.000000
6.962808 -7.727556 -0.767505 6.000000
16.114429 17.884331 -1.793180 16.000000
5.876018 2.651889 -0.655970 1.000000
5.465663 0.025757 -0.613079 13.000000
6.789382 -7.479771 -0.757771 5.000000
16.006187 17.876814 -1.762111 8.000000
5.875831 2.677770 -0.651348 1.000000
5.465745 0.045791 -0.611171 22.000000
6.882367 -7.529233 -0.772374 70.000000
16.070980 18.082102 -1.751060 7.000000
5.852727 2.693192 -0.646469 1.000000
5.465529 0.066777 -0.611171 17.000000
6.931660 -2.986679 -0.799958 1.000000
6.848579 -7.437346 -0.776166 30.000000
16.025599 18.164688 -1.727860 7.000000
5.941700 2.761827 -0.656308 1.000000
5.450129 0.086569 -0.611407 21.000000
6.896442 -2.941582 -0.798614 3.000000
6.888703 -7.426112 -0.790073 23.000000
16.443129 18.769611 -1.753669 7.000000
5.792222 2.718208 -0.637509 1.000000
5.439840 0.106350 -0.610292 28.000000
6.934271 -2.927725 -0.805733 1.000000
6.917512 -7.405157 -0.799305 25.000000
16.610886 19.101904 -1.756816 7.000000
5.449561 0.126523 -0.609504 29.000000
6.930463 -7.364724 -0.806558 32.000000
16.493135 19.100740 -1.724851 7.000000
5.444068 0.147312 -0.608949 24.000000
6.913550 -2.859446 -0.807472 1.000000
6.994639 -7.378545 -0.819803 182.000000
16.365555 19.094021 -1.696769 7.000000
5.418552 0.166498 -0.607117 36.000000
6.978532 -2.856415 -0.820491 1.000000
7.157297 -7.497539 -0.848542 15.000000
16.254766 19.106041 -1.661748 7.000000
5.447914 0.187389 -0.608553 24.000000
7.113211 -2.881147 -0.836434 1.000000
16.101969 19.060856 -1.631050 7.000000
5.446942 0.208298 -0.610456 27.000000
7.156111 -2.866587 -0.844263 1.000000
7.176248 -7.407901 -0.864266 222.000000
15.985001 19.063692 -1.600106 7.000000
5.441178 0.228053 -0.609899 26.000000
7.156307 -7.335901 -0.867781 70.000000
15.830022 19.013273 -1.565213 7.000000
5.465231 0.249131 -0.611727 24.000000
7.130129 -7.255672 -0.872107 74.000000
15.786831 19.089783 -1.545490 7.000000
5.454401 0.267719 -0.610616 28.000000
7.118580 -7.196031 -0.876669 24.000000
15.625635 19.050058 -1.511284 7.000000
5.458352 0.289881 -0.610217 18.000000
7.125655 -7.145582 -0.884649 24.000000
15.537807 19.078413 -1.487669 7.000000
5.457253 0.309885 -0.610217 19.000000
7.192354 -7.162290 -0.898747 22.000000
15.378256 19.017696 -1.444469 7.000000
5.451274 0.330549 -0.607756 10.000000
7.338415 -7.254365 -0.922746 30.000000
15.271894 19.028385 -1.415382 6.000000
5.469757 0.351796 -0.610925 10.000000
7.421126 -7.282544 -0.940760 21.000000
15.122151 18.977133 -1.386389 6.000000
5.468560 0.369932 -0.610925 16.000000
7.465011 -7.272092 -0.952108 1.000000
14.991451 18.955246 -1.355378 7.000000
5.467349 0.391904 -0.608055 10.000000
14.873868 18.935293 -1.325124 6.000000
5.475965 0.411740 -0.608199 10.000000
14.777344 18.961843 -1.297752 7.000000
5.479373 0.432198 -0.608749 10.000000
7.548516 -7.195895 -0.982144 1.000000
14.669112 18.959089 -1.268876 7.000000
5.487605 0.455020 -0.608889 9.000000
7.837597 -2.778518 -0.953316 1.000000
7.505647 -7.102702 -0.980451 1.000000
14.585667 18.980959 -1.241959 7.000000
5.495885 0.475029 -0.609988 10.000000
8.016175 -2.808795 -0.976783 1.000000
16.362593 -15.381627 -2.150522 7.000000
14.419607 18.914740 -1.209022 7.000000
5.509063 0.496517 -0.610671 9.000000
8.072866 -2.795481 -0.986968 1.000000
16.383207 -15.282934 -2.173130 7.000000
14.347928 18.964479 -1.183866 7.000000
5.527105 0.518572 -0.611897 9.000000
7.895232 -2.700064 -0.966928 1.000000
16.485180 -15.265445 -2.199013 7.000000
14.195520 18.899788 -1.147779 7.000000
5.530019 0.540274 -0.612445 9.000000
9.077549 -8.344310 -1.217660 26.000000
14.126863 18.952642 -1.123025 7.000000
5.547886 0.562555 -0.613663 8.000000
9.066855 -8.273374 -1.222967 10.000000
13.981211 18.894524 -1.087903 9.000000
5.590380 0.587573 -0.617604 8.000000
13.898222 18.913216 -1.069900 10.000000
5.627824 0.612371 -0.620985 8.000000
7.814754 -2.543692 -0.966885 11.000000
13.785669 18.897942 -1.041762 9.000000
5.650234 0.636771 -0.622719 8.000000
7.866248 -2.528605 -0.975027 1.000000
7.273286 -6.491656 -0.998860 10.000000
13.669919 18.891191 -1.005867 8.000000
5.647970 0.657489 -0.621726 8.000000
11.571343 -3.672869 -1.436895 1.000000
7.274301 -6.444817 -1.000891 17.000000
13.575739 18.892639 -0.979135 6.000000
5.689936 0.683520 -0.626617 9.000000
11.570035 -3.625829 -1.439364 1.000000
7.311030 -6.431946 -1.011438 10.000000
13.460978 18.871593 -0.951287 5.000000
5.672919 0.702578 -0.621994 9.000000
11.530207 -3.569195 -1.434987 1.000000
7.327907 -6.403811 -1.019414 15.000000
13.447126 18.999088 -0.930808 2.000000
4.598788 2.787320 -0.433612 1.000000
5.690009 0.726888 -0.623156 9.000000
11.524487 -3.516792 -1.441038 1.000000
7.379180 -6.396556 -1.031583 10.000000
5.717247 0.749645 -0.625390 9.000000
11.531333 -3.477123 -1.440444 1.000000
7.441111 -6.407147 -1.045930 16.000000
24.210119 34.717304 -1.588981 7.000000
5.748784 0.777266 -0.628151 8.000000
11.531036 -3.424407 -1.442862 1.000000
7.500096 -6.405687 -1.059304 15.000000
24.228487 35.016487 -1.561388 1.000000
5.795101 0.806199 -0.632513 8.000000
11.523728 -3.376325 -1.446768 1.000000
7.541774 -6.393627 -1.070602 10.000000
24.027815 34.986843 -1.511813 1.000000
5.890639 0.841509 -0.642222 6.000000
11.521234 -3.329790 -1.449160 1.000000
7.602471 -6.397341 -1.084656 12.000000
23.932037 35.109375 -1.454089 1.000000
11.508675 -3.282676 -1.448250 7.000000
7.634648 -6.381292 -1.091494 13.000000
24.008396 35.500278 -1.421694 2.000000
11.506694 -3.232219 -1.452706 3.000000
7.713029 -6.394389 -1.107871 13.000000
23.832233 35.506248 -1.373764 6.000000
11.516859 -3.193908 -1.456878 7.000000
7.767966 -6.396589 -1.121598 13.000000
29.762924 44.678284 -1.668333 160.000000
11.523760 -3.148221 -1.460443 8.000000
7.798293 -6.373742 -1.131495 14.000000
20.030062 30.308073 -1.084560 11.000000
11.530182 -3.104606 -1.461920 6.000000
7.869358 -6.379306 -1.147035 12.000000
20.026278 30.533525 -1.045470 9.000000
20.768328 3.345139 -2.240674 7.000000
11.498065 -3.050805 -1.458528 10.000000
7.918997 -6.371590 -1.159843 9.000000
19.996405 30.721285 -1.017489 4.000000
20.564987 3.389763 -2.216382 101.000000
11.519052 -3.009077 -1.461823 12.000000
7.986013 -6.382000 -1.173783 18.000000
20.548058 3.468066 -2.204943 117.000000
11.510777 -2.961891 -1.459385 27.000000
8.030386 -6.364806 -1.183788 12.000000
21.427700 33.441227 -1.005351 8.000000
20.510712 3.539129 -2.202312 92.000000
11.515756 -2.918212 -1.467070 34.000000
8.097299 -6.374234 -1.201466 10.000000
21.284660 33.474655 -0.955622 10.000000
14.774171 2.605085 -1.579430 1.000000
11.502306 -2.867847 -1.468144 55.000000
5.366802 -4.164419 -0.800399 6.000000
21.087769 33.435020 -0.903956 10.000000
11.541654 -2.832766 -1.471831 28.000000
5.350004 -4.120058 -0.801611 8.000000
20.958241 33.488148 -0.855120 6.000000
14.226829 2.618813 -1.515317 1.000000
11.527343 -2.784499 -1.472898 36.000000
5.325066 -4.069848 -0.801566 8.000000
20.960352 33.752949 -0.818383 10.000000
13.719381 2.577427 -1.454876 1.000000
11.547354 -2.742450 -1.476202 21.000000
5.290636 -4.015811 -0.799079 8.000000
25.741661 41.777092 -0.942210 5.000000
13.446342 2.577190 -1.424498 1.000000
11.615308 -2.713654 -1.483608 1.000000
5.293089 -3.987181 -0.800757 9.000000
25.448097 41.641628 -0.885922 30.000000
13.076102 2.555950 -1.381557 1.000000
11.643505 -2.675275 -1.494417 3.000000
5.264175 -3.933810 -0.798747 9.000000
25.271952 41.679680 -0.833790 15.000000
12.842516 2.559196 -1.355549 1.000000
11.624653 -2.623993 -1.490694 1.000000
5.262051 -3.902247 -0.802051 9.000000
12.555696 2.552203 -1.317259 1.000000
11.692061 -2.594208 -1.500231 1.000000
5.228016 -3.847388 -0.798158 9.000000
12.220157 2.530673 -1.280820 1.000000
11.730062 -2.557567 -1.508151 1.000000
5.197437 -3.795597 -0.797063 9.000000
21.827215 36.863735 -0.575778 7.000000
12.094429 2.550900 -1.264254 1.000000
11.768902 -2.518737 -1.511890 1.000000
5.206845 -3.773283 -0.800938 9.000000
12.056033 2.588992 -1.259049 1.000000
11.768086 -2.473490 -1.512743 1.000000
5.199931 -3.739282 -0.803437 9.000000
11.561344 2.527123 -1.199999 1.000000
11.917874 -2.457229 -1.535088 1.000000
5.188914 -3.702583 -0.804153 9.000000
11.455938 2.546014 -1.183766 1.000000
11.917339 -2.411617 -1.531715 1.000000
5.175040 -3.679069 -0.802133 9.000000
11.334431 2.566799 -1.168168 1.000000
12.032617 -2.389070 -1.549745 1.000000
5.167879 -3.645537 -0.802311 9.000000
11.233621 2.587291 -1.150619 1.000000
12.173439 -2.368482 -1.564501 1.000000
5.176682 -3.623406 -0.806093 10.000000
11.190348 2.620552 -1.145137 1.000000
12.381278 -2.361855 -1.594559 1.000000
5.186136 -3.600433 -0.808766 10.000000
46.338295 82.810768 -0.447180 1.000000
11.090395 2.635969 -1.127760 3.000000
12.697318 -2.373945 -1.631839 3.000000
5.154024 -3.550215 -0.805055 10.000000
11.008867 2.659258 -1.112470 5.000000
12.755136 -2.334102 -1.638105 5.000000
5.162559 -3.528264 -0.807691 10.000000
46.153614 83.160606 -0.265597 9.000000
10.990644 2.654856 -1.098675 1.000000
12.806176 -2.343443 -1.626196 4.000000
5.166000 -3.542534 -0.801320 10.000000
11.074132 2.630062 -1.097983 1.000000
12.579399 -2.349626 -1.587141 5.000000
5.190509 -3.587381 -0.799322 10.000000
11.146326 2.604087 -1.108220 1.000000
12.400494 -2.365521 -1.558992 1.000000
5.206505 -3.626707 -0.797076 10.000000
11.247952 2.584390 -1.117374 1.000000
12.163328 -2.366515 -1.525864 1.000000
5.206040 -3.654795 -0.792285 10.000000
11.378901 2.570607 -1.127384 1.000000
12.042974 -2.391127 -1.505381 1.000000
5.216188 -3.693267 -0.790416 9.000000
11.465593 2.546060 -1.139180 1.000000
11.878982 -2.403854 -1.481679 1.000000
5.223262 -3.727093 -0.789005 10.000000
11.640212 2.537977 -1.159750 1.000000
11.851404 -2.443524 -1.472916 1.000000
5.226739 -3.775193 -0.783665 10.000000
11.832472 -2.487023 -1.469598 1.000000
5.253553 -3.823939 -0.784027 9.000000
21.819052 36.835289 -0.463294 8.000000
11.949615 2.518179 -1.190948 1.000000
11.726703 -2.509706 -1.453346 1.000000
5.268184 -3.864206 -0.781379 10.000000
12.218133 2.523583 -1.214492 1.000000
11.678722 -2.548509 -1.440189 1.000000
5.298562 -3.916438 -0.781011 10.000000
12.544339 2.540776 -1.250448 1.000000
11.689385 -2.593615 -1.440491 1.000000
5.296555 -3.945055 -0.778166 9.000000
25.324102 41.732826 -0.673114 15.000000
12.737937 2.536044 -1.271190 1.000000
11.637194 -2.626823 -1.426788 1.000000
5.290545 -3.970810 -0.773564 8.000000
25.490112 41.677677 -0.724826 20.000000
13.117878 2.561739 -1.312871 1.000000
11.589020 -2.660627 -1.419963 7.000000
5.343727 -4.041429 -0.778759 9.000000
25.682173 41.664265 -0.785958 10.000000
11.589352 -2.707590 -1.412840 8.000000
5.384834 -4.103630 -0.779752 9.000000
20.968842 33.727207 -0.679347 10.000000
11.530561 -2.742714 -1.402809 9.000000
5.429396 -4.169134 -0.782360 9.000000
21.043095 33.597652 -0.712745 10.000000
11.531296 -2.783324 -1.401914 30.000000
5.438192 -4.207663 -0.779766 7.000000
21.079718 33.396416 -0.758299 10.000000
14.182651 2.551862 -1.418031 1.000000
11.511353 -2.825329 -1.396603 31.000000
8.239605 -6.384385 -1.178406 20.000000
21.292789 33.461632 -0.803097 10.000000
14.656701 2.581734 -1.472340 6.000000
11.486938 -2.864015 -1.390715 32.000000
8.161804 -6.372114 -1.165121 18.000000
11.485913 -2.912783 -1.383610 28.000000
8.096387 -6.368941 -1.148184 33.000000
20.092905 3.384034 -2.012235 8.000000
11.490338 -2.956631 -1.383279 23.000000
8.050559 -6.380794 -1.134104 13.000000
20.045216 3.300494 -2.016976 9.000000
11.470281 -2.996337 -1.377982 23.000000
7.981129 -6.373532 -1.120390 11.000000
19.981562 30.442173 -0.889942 9.000000
20.180338 3.246818 -2.025759 9.000000
11.493293 -3.047391 -1.377873 10.000000
7.931515 -6.381662 -1.105913 12.000000
20.048031 30.289272 -0.932121 16.000000
20.073441 3.154186 -2.021016 7.000000
11.482971 -3.089745 -1.369572 10.000000
7.873916 -6.383000 -1.093977 11.000000
8.404839 1.287622 -0.847203 7.000000
11.476276 -3.135248 -1.365991 15.000000
7.816549 -6.384114 -1.080342 19.000000
23.883970 35.556499 -1.188966 1.000000
8.419195 1.258257 -0.849680 7.000000
11.498676 -3.186704 -1.365818 8.000000
7.766948 -6.391202 -1.067839 13.000000
23.962410 35.405640 -1.231517 11.000000
8.453143 1.231673 -0.854151 5.000000
11.516071 -3.237022 -1.365055 5.000000
7.728872 -6.407524 -1.056967 13.000000
23.998337 35.180248 -1.271363 11.000000
8.437750 1.197865 -0.853649 2.000000
11.484905 -3.275896 -1.358618 4.000000
7.653722 -6.390431 -1.040937 11.000000
24.097708 35.062382 -1.307297 11.000000
11.497594 -3.325133 -1.353088 1.000000
7.615854 -6.406332 -1.028439 10.000000
24.262255 35.026081 -1.353914 11.000000
5.870489 0.764527 -0.596119 7.000000
11.547309 -3.385422 -1.360390 255.000000
7.596799 -6.437997 -1.020264 14.000000
24.226252 34.714607 -1.389511 10.000000
5.809192 0.734902 -0.588585 7.000000
11.502390 -3.418085 -1.348082 10.000000
7.573827 -6.466373 -1.011574 10.000000
24.277309 34.530308 -1.437145 10.000000
4.747614 2.844766 -0.412268 1.000000
5.791993 0.711167 -0.587603 9.000000
11.512968 -3.469393 -1.350873 1.000000
7.550741 -6.494662 -1.002882 9.000000
24.397043 34.431690 -1.480996 1.000000
5.784699 0.687736 -0.587618 10.000000
11.514883 -3.516058 -1.348345 1.000000
7.553865 -6.545671 -0.997667 8.000000
5.772254 0.664810 -0.587126 22.000000
11.588267 -3.584952 -1.349893 1.000000
7.590450 -6.626239 -0.996820 6.000000
5.769606 0.643087 -0.587637 10.000000
11.613435 -3.639430 -1.350069 1.000000
7.570370 -6.657759 -0.990274 1.000000
5.752038 0.619793 -0.586633 7.000000
11.614257 -3.688722 -1.345343 1.000000
5.729636 0.595133 -0.584111 6.000000
11.582181 -3.725322 -1.338901 1.000000
13.908291 18.906166 -0.946792 1.000000
5.731678 0.574118 -0.585116 5.000000
11.583071 -3.772510 -1.336290 1.000000
9.228667 -8.294958 -1.183889 24.000000
14.039040 18.944998 -0.975919 6.000000
5.768301 0.556440 -0.589664 1.000000
7.850111 -2.588579 -0.902343 1.000000
9.147305 -8.282641 -1.166473 28.000000
14.149608 18.948622 -1.003579 6.000000
5.661142 0.526165 -0.579521 1.000000
7.859272 -2.625100 -0.901621 6.000000
9.084682 -8.286736 -1.149361 26.000000
14.272078 18.974113 -1.032471 7.000000
5.697714 0.508507 -0.583071 1.000000
7.878149 -2.663542 -0.901963 3.000000
9.073315 -8.337497 -1.140935 10.000000
14.365002 18.952652 -1.059113 6.000000
5.630221 0.479711 -0.576958 1.000000
16.486433 -15.261261 -2.060355 7.000000
14.494040 18.984873 -1.088798 7.000000
5.612011 0.457447 -0.575910 1.000000
16.446001 -15.336145 -2.046484 7.000000
14.584142 18.958420 -1.115440 6.000000
7.985484 -2.798041 -0.907261 1.000000
16.397293 -15.398084 -2.027308 7.000000
14.802454 19.103857 -1.152395 7.000000
5.615041 0.417270 -0.576892 1.000000
7.979812 -2.830503 -0.903361 1.000000
7.666317 -7.252210 -0.941835 10.000000
14.886990 19.068193 -1.178919 7.000000
5.681173 0.399259 -0.583517 1.000000
8.292587 -2.975709 -0.936887 1.000000
7.636906 -7.277612 -0.928503 1.000000
14.955776 19.019060 -1.204500 7.000000
5.593164 0.372478 -0.575323 1.000000
15.182746 19.162727 -1.242782 7.000000
5.693835 0.357228 -0.585532 1.000000
15.214462 19.065651 -1.265534 7.000000
5.610481 0.333324 -0.577835 1.000000
7.259509 -7.069432 -0.866922 33.000000
15.302315 19.032242 -1.288400 7.000000
15.468490 19.101995 -1.318280 6.000000
5.558336 0.287409 -0.571239 1.000000
7.191048 -7.106206 -0.843618 14.000000
15.572085 19.086462 -1.351322 7.000000
5.628657 0.271348 -0.580353 1.000000
7.158411 -7.126000 -0.833973 74.000000
15.735957 19.150454 -1.385769 6.000000
5.669364 0.252487 -0.584450 1.000000
7.116507 -7.133917 -0.821364 29.000000
15.770091 19.049221 -1.408597 6.000000
5.565791 0.227437 -0.574666 1.000000
7.178384 -7.248889 -0.824397 23.000000
15.947289 19.140532 -1.440858 7.000000
5.611319 0.208700 -0.579284 1.000000
7.299018 -7.424942 -0.832226 9.000000
16.025984 19.092257 -1.467829 6.000000
5.671729 0.189142 -0.585441 1.000000
7.247891 -7.427190 -0.820382 14.000000
16.194759 19.150347 -1.503205 7.000000
5.722098 0.169828 -0.590572 1.000000
7.111409 -2.916601 -0.772611 1.000000
7.101195 -7.327865 -0.794124 78.000000
16.286566 19.109602 -1.531294 7.000000
5.618171 0.146136 -0.580778 1.000000
7.050363 -2.921798 -0.764446 1.000000
7.047213 -7.325696 -0.780376 76.000000
16.430391 19.135845 -1.560305 7.000000
5.603774 0.124232 -0.579236 1.000000
6.920894 -2.897912 -0.744942 1.000000
7.058659 -7.391629 -0.775667 30.000000
16.554602 19.158401 -1.592995 7.000000
5.703644 0.105532 -0.589515 1.000000
7.130549 -3.016463 -0.764600 1.000000
6.957798 -7.337117 -0.758519 29.000000
16.574648 19.040089 -1.610316 7.000000
5.654233 0.085863 -0.584376 3.000000
6.916785 -7.342482 -0.747847 14.000000
16.873365 19.233612 -1.663540 7.000000
5.644586 0.063053 -0.583348 1.000000
6.866599 -2.964331 -0.733335 1.000000
6.928643 -7.414477 -0.741656 30.000000
16.955902 19.198895 -1.687840 7.000000
5.659707 0.041489 -0.584890 1.000000
6.883408 -3.001566 -0.732331 1.000000
6.933774 -7.472084 -0.734262 33.000000
17.104429 19.211088 -1.726499 6.000000
6.024212 2.709916 -0.623256 1.000000
5.709349 0.020926 -0.592022 1.000000
6.910065 -7.501490 -0.727501 33.000000
17.223608 19.223007 -1.755051 7.000000
5.644938 0.000000 -0.583348 1.000000
17.302933 19.183161 -1.779292 7.000000
5.644805 -0.018719 -0.584333 2.000000
16.892200 18.590342 -1.756468 7.000000
5.654747 -0.039478 -0.584376 2.000000
16.710367 18.261744 -1.748288 7.000000
5.669474 -0.061352 -0.585917 1.000000
7.033179 -3.220041 -0.733922 1.000000
6.911709 -7.719474 -0.697297 35.000000
16.637140 18.048449 -1.763836 7.000000
5.703816 -0.082633 -0.591506 3.000000
16.674767 17.956753 -1.786632 8.000000
5.673676 -0.101015 -0.588412 3.000000
7.032633 -3.282360 -0.728156 1.000000
6.701921 -7.593818 -0.663842 81.000000
16.715050 17.862089 -1.809342 9.000000
5.663258 -0.124562 -0.587381 2.000000
6.789575 -7.750208 -0.664498 31.000000
16.810707 17.845329 -1.834794 10.000000
5.682650 -0.145828 -0.589444 4.000000
16.946962 17.858374 -1.864116 18.000000
5.731790 -0.168113 -0.594601 4.000000
17.042053 17.833490 -1.898029 10.000000
5.726230 -0.186957 -0.594085 4.000000
17.199493 17.866674 -1.930029 8.000000
5.725500 -0.210945 -0.593085 5.000000
17.260448 17.798965 -1.946950 10.000000
5.729739 -0.230130 -0.593600 7.000000
17.174543 17.587124 -1.960544 7.000000
5.733618 -0.251338 -0.596118 7.000000
6.118923 -3.050782 -0.616226 8.000000
6.733058 -8.026992 -0.615106 165.000000
17.181519 17.465738 -1.979842 7.000000
5.757553 -0.274541 -0.597695 8.000000
6.076847 -3.057664 -0.609523 9.000000
6.671995 -8.013663 -0.603076 177.000000
16.970589 17.125313 -1.969469 7.000000
5.771617 -0.296417 -0.597225 10.000000
6.049192 -3.068930 -0.604186 28.000000
6.523580 -7.891260 -0.579598 26.000000
16.901766 16.931290 -1.975285 7.000000
5.775249 -0.317831 -0.599758 10.000000
6.007150 -3.075337 -0.597548 32.000000
6.501265 -7.923224 -0.571219 24.000000
16.690823 16.603659 -1.968671 7.000000
5.779114 -0.339294 -0.599263 9.000000
5.999551 -3.101905 -0.593274 10.000000
6.463097 -7.935845 -0.559667 31.000000
16.661711 16.453638 -1.978690 7.000000
5.782733 -0.361792 -0.599778 10.000000
5.966425 -3.112545 -0.586388 8.000000
6.501587 -8.040262 -0.556377 31.000000
16.481813 16.157099 -1.978683 6.000000
5.796360 -0.383978 -0.600308 10.000000
6.388053 -7.959349 -0.538436 37.000000
16.411160 15.970304 -1.983292 6.000000
5.834394 -0.407981 -0.606462 9.000000
6.298286 -7.903863 -0.524348 34.000000
16.046484 15.506740 -1.952289 6.000000
5.897369 -0.435145 -0.612134 9.000000
6.322327 -7.993975 -0.516301 31.000000
15.986960 15.336302 -1.957677 10.000000
6.291576 -8.012419 -0.507158 27.000000
16.092062 15.324264 -1.987110 9.000000
6.462030 -8.291883 -0.512309 24.000000
16.132124 15.250059 -2.008577 13.000000
6.360022 -8.220008 -0.495585 104.000000
10.751884 3.744203 -1.216724 1.000000
8.474508 -0.716093 -0.878876 1.000000
6.101974 -7.946501 -0.468980 27.000000
10.779035 3.709415 -1.224287 1.000000
8.506222 -0.751678 -0.883964 1.000000
6.119865 -8.027657 -0.463678 34.000000
10.735673 3.650540 -1.221838 1.000000
8.498730 -0.779428 -0.883449 1.000000
6.099780 -8.062428 -0.452015 80.000000
10.706388 3.594779 -1.224902 1.000000
8.465981 -0.810708 -0.878876 1.000000
6.320827 -8.415492 -0.461367 27.000000
10.709853 3.552316 -1.225793 1.000000
22.330719 -2.221030 -2.315083 29.000000
6.361875 -8.535110 -0.455475 197.000000
10.722394 3.512906 -1.229731 1.000000
22.239124 -2.290344 -2.302459 95.000000
6.061914 -8.192207 -0.425353 255.000000
10.701277 3.462607 -1.233792 1.000000
22.171230 -2.365507 -2.296312 39.000000
5.981725 -8.140154 -0.411022 9.000000
10.708546 3.421652 -1.239133 7.000000
22.157072 -2.446164 -2.299690 7.000000
5.968292 -8.187573 -0.403400 31.000000
10.721190 3.380378 -1.243057 1.000000
22.291220 -2.547646 -2.310654 7.000000
10.704624 3.332069 -1.243673 6.000000
20.370541 -2.403802 -2.108842 6.000000
10.701682 3.288179 -1.249836 1.000000
20.021276 -2.437024 -2.070039 5.000000
6.389019 -8.963690 -0.403630 26.000000
10.708280 3.247300 -1.255140 1.000000
19.893763 -2.495531 -2.057787 6.000000
10.705968 3.201763 -1.257369 1.000000
19.887712 -2.579433 -2.061797 4.000000
10.745802 3.170815 -1.264634 1.000000
19.411016 -2.583086 -2.009801 7.000000
10.751731 3.129772 -1.271891 5.000000
19.352486 -2.647520 -2.001287 10.000000
6.198465 -8.965086 -0.353948 18.000000
10.714952 3.076511 -1.270140 5.000000
6.129019 -8.934471 -0.340493 15.000000
10.721479 3.033873 -1.273464 1.000000
15.644849 -2.260032 -1.619580 1.000000
5.884225 -8.642142 -0.317608 16.000000
10.726885 2.992982 -1.280671 4.000000
15.292318 -2.266356 -1.581208 4.000000
5.775821 -8.546909 -0.304355 27.000000
4.282293 3.502520 -0.602948 1.000000
10.646356 2.928497 -1.273672 65.000000
14.949246 -2.271537 -1.549252 5.000000
5.652783 -8.431288 -0.288859 69.000000
4.252245 3.452011 -0.601768 2.000000
10.724207 2.905664 -1.285572 7.000000
14.695607 -2.288134 -1.518579 5.000000
5.645633 -8.484505 -0.279325 29.000000
4.252767 3.426651 -0.605850 2.000000
10.733915 2.866107 -1.293329 1.000000
14.490493 -2.313220 -1.495703 3.000000
6.491020 -4.234672 -0.554182 7.000000
5.580359 -8.450217 -0.265172 31.000000
4.284287 3.426227 -0.613394 6.000000
10.734306 2.824104 -1.296047 1.000000
14.216572 -2.322958 -1.470838 3.000000
6.429938 -4.228501 -0.544887 3.000000
5.549476 -8.470804 -0.256335 37.000000
4.311877 3.422455 -0.621381 3.000000
10.762935 2.789497 -1.306129 2.000000
13.967813 -2.334904 -1.443480 1.000000
5.520016 -8.490344 -0.245730 22.000000
10.754099 2.743184 -1.305732 1.000000
13.758378 -2.351763 -1.420256 1.000000
9.889668 -6.565705 -0.834246 10.000000
5.521486 -8.561104 -0.238296 79.000000
10.826243 2.719365 -1.317224 3.000000
13.367050 -2.337732 -1.380776 1.000000
9.849199 -6.590975 -0.828707 10.000000
5.825837 -9.102605 -0.241478 22.000000
10.835243 2.679445 -1.325017 1.000000
13.206828 -2.359629 -1.362744 1.000000
9.809029 -6.616273 -0.816987 17.000000
5.839697 -9.194795 -0.233871 17.000000
10.925632 2.661362 -1.342888 1.000000
12.954004 -2.358813 -1.339778 2.000000
9.762513 -6.632106 -0.810801 21.000000
5.798617 -9.197365 -0.223954 9.000000
10.955082 2.621995 -1.349191 1.000000
12.636383 -2.355705 -1.303404 4.000000
9.753902 -6.681137 -0.803918 8.000000
5.771939 -9.226281 -0.208964 9.000000
11.046537 2.601114 -1.361280 1.000000
12.529705 -2.383371 -1.295542 1.000000
9.758547 -6.736999 -0.798014 1.000000
5.662783 -9.129575 -0.196901 7.000000
11.142568 2.578610 -1.379984 1.000000
12.315566 -2.389442 -1.276509 1.000000
9.746415 -6.781507 -0.792804 1.000000
5.582236 -9.073795 -0.184096 25.000000
11.233278 2.556262 -1.398209 1.000000
12.185163 -2.410517 -1.259520 1.000000
9.795246 -6.868902 -0.794624 1.000000
5.600116 -9.174462 -0.174482 7.000000
11.294733 2.530882 -1.406856 1.000000
12.044797 -2.426469 -1.248045 1.000000
17.516171 -12.370039 -1.409256 7.000000
5.213740 -8.602130 -0.154504 4.000000
11.551493 2.537647 -1.445881 1.000000
11.928620 -2.448594 -1.236929 1.000000
17.523867 -12.481204 -1.402582 6.000000
12.147518 -20.224861 -0.341791 22.000000
4.325328 3.173784 -0.657767 1.000000
11.802141 2.551713 -1.478326 1.000000
11.861766 -2.480213 -1.224521 1.000000
17.489288 -12.548824 -1.384448 6.000000
12.058547 -20.220375 -0.308195 26.000000
4.500842 3.277259 -0.688546 1.000000
12.004571 2.549461 -1.511198 1.000000
11.803940 -2.513312 -1.219494 1.000000
17.467831 -12.630668 -1.378849 7.000000
12.061849 -20.387350 -0.289421 56.000000
12.261248 2.554809 -1.548921 1.000000
11.740517 -2.546970 -1.216061 1.000000
17.418362 -12.683070 -1.366929 6.000000
12.042829 -20.526503 -0.269997 59.000000
12.463369 2.549296 -1.586791 1.000000
11.750118 -2.594183 -1.222276 1.000000
17.371904 -12.756266 -1.355961 7.000000
11.883172 -20.417336 -0.251519 39.000000
11.739905 -2.637091 -1.228576 1.000000
17.345558 -12.825670 -1.357217 6.000000
11.758382 -20.374327 -0.229926 29.000000
12.687627 2.546754 -1.646266 1.000000
11.703582 -2.631078 -1.243865 1.000000
17.385515 -12.859908 -1.398415 7.000000
11.760755 -20.378437 -0.254614 25.000000
11.736575 -2.593341 -1.254835 1.000000
17.415253 -12.783419 -1.419748 7.000000
11.851740 -20.371506 -0.287955 35.000000
4.239606 3.075734 -0.666331 1.000000
12.235740 2.551722 -1.592288 1.000000
11.720845 -2.544845 -1.260613 1.000000
17.466623 -12.727543 -1.443037 7.000000
12.000967 -20.463335 -0.322972 30.000000
4.308673 3.150009 -0.676156 1.000000
12.027385 2.554306 -1.566382 1.000000
11.763925 -2.506938 -1.270570 1.000000
17.451283 -12.618702 -1.460593 7.000000
12.067026 -20.412357 -0.351806 38.000000
4.289395 3.160104 -0.672110 1.000000
11.978892 2.589928 -1.563466 1.000000
11.835429 -2.476862 -1.285840 1.000000
17.516426 -12.568296 -1.484862 7.000000
12.100540 -20.298843 -0.383616 31.000000
4.305949 3.196714 -0.673682 1.000000
11.571672 2.548432 -1.511583 1.000000
11.931425 -2.451340 -1.301735 1.000000
17.518074 -12.477077 -1.507703 7.000000
5.165045 -8.596078 -0.175048 6.000000
4.315569 3.226109 -0.673037 2.000000
11.239367 2.514356 -1.465170 1.000000
12.017408 -2.423135 -1.318795 1.000000
9.785151 -6.920583 -0.846491 1.000000
5.244092 -8.659024 -0.190840 14.000000
4.339952 3.285854 -0.673204 1.000000
