VERSION .7
FIELDS x y z intensity
SIZE 4 4 4 4
TYPE F F F F
COUNT 1 1 1 1
WIDTH 1234
HEIGHT 1
VIEWPOINT 0 0 0 1 0 0 0
POINTS 1234
DATA ascii
17.758135 -11.369906 1.507776 11.000000
5.963343 -8.965365 0.769936 25.000000
17.805004 -11.308120 1.489726 20.000000
6.000600 -8.953444 0.759362 50.000000
32.676952 26.936804 0.384351 7.000000
95.465790 26.744350 3.825950 1.000000
17.804787 -11.216613 1.475186 17.000000
5.924852 -8.770741 0.736422 78.000000
95.159828 27.035181 3.834925 1.000000
17.827997 -11.144496 1.455440 10.000000
5.913762 -8.688783 0.720210 81.000000
17.882088 -11.087364 1.445459 21.000000
6.067267 -8.844453 0.725549 39.000000
91.526985 77.154823 1.274523 13.000000
17.900080 -11.012202 1.432742 17.000000
5.895652 -8.527117 0.694014 21.000000
90.983932 77.269249 1.333404 10.000000
94.098015 27.837378 3.855510 1.000000
17.932653 -10.941843 1.417397 12.000000
5.997086 -8.609424 0.691376 37.000000
93.754776 28.109945 3.879861 12.000000
17.964735 -10.871261 1.405729 12.000000
5.985943 -8.526622 0.677354 68.000000
58.025021 49.997555 0.949190 16.000000
93.617371 28.407442 3.895154 24.000000
17.994646 -10.803727 1.394071 11.000000
5.994437 -8.472517 0.665702 70.000000
28.041744 24.324806 0.479472 21.000000
94.190742 28.958858 3.923400 2.000000
18.022301 -10.730661 1.374774 10.000000
6.033000 -8.464202 0.657592 53.000000
93.523933 29.165277 3.934721 23.000000
18.079311 -10.675046 1.365089 18.000000
6.102228 -8.495276 0.650742 55.000000
79.040115 -8.907678 4.628061 1.000000
18.065414 -10.581969 1.350234 15.000000
6.097003 -8.425775 0.639756 32.000000
57.710316 51.219608 1.131331 1.000000
97.560959 31.191971 4.149663 17.000000
78.763870 -8.598225 4.596226 1.000000
18.104687 -10.516039 1.339271 23.000000
6.281080 -8.613510 0.646417 35.000000
57.474659 51.370228 1.184048 1.000000
96.147041 31.128792 4.129685 13.000000
18.152361 -10.454940 1.328941 24.000000
6.268608 -8.530554 0.632639 54.000000
57.544933 51.777328 1.243082 4.000000
95.890678 31.397486 4.140762 26.000000
18.163549 -10.377118 1.312438 19.000000
6.224494 -8.408852 0.614227 12.000000
57.246696 51.889931 1.294695 15.000000
95.354729 31.646378 4.158201 20.000000
18.358372 -10.399360 1.312662 14.000000
6.264481 -8.398326 0.607792 27.000000
57.266243 52.327934 1.340506 4.000000
94.897957 31.862953 4.143107 23.000000
18.797274 -10.557167 1.329937 9.000000
6.367520 -8.471499 0.605493 37.000000
57.073479 52.500141 1.380678 18.000000
94.298424 32.010002 4.156366 18.000000
19.314405 -10.759093 1.348366 10.000000
6.436605 -8.501462 0.598035 17.000000
57.015625 52.834026 1.438238 12.000000
19.795588 -10.932260 1.367268 10.000000
6.570928 -8.613094 0.599991 20.000000
56.903397 53.100422 1.480841 17.000000
93.092567 32.363617 4.148026 27.000000
20.330849 -11.130815 1.389230 10.000000
6.719911 -8.744910 0.601150 21.000000
56.729477 53.328449 1.535768 1.000000
92.627945 32.583111 4.166953 4.000000
20.966759 -11.384021 1.417422 9.000000
6.526040 -8.428497 0.571710 128.000000
56.561886 53.562763 1.590941 5.000000
91.872169 32.678078 4.172160 27.000000
21.505779 -11.584512 1.442700 10.000000
6.557132 -8.404834 0.564268 156.000000
56.668201 54.058777 1.654193 9.000000
91.256874 32.836506 4.183571 23.000000
6.722477 -8.555028 0.566402 23.000000
56.526505 54.320717 1.710614 16.000000
22.809336 -12.071824 1.492534 9.000000
6.323300 -7.986606 0.519604 38.000000
56.490135 54.666328 1.770185 11.000000
89.876541 33.085941 4.198288 19.000000
23.528303 -12.347397 1.522792 10.000000
6.414980 -8.041663 0.519312 25.000000
90.111626 33.530117 4.214711 25.000000
24.287107 -12.621526 1.554233 16.000000
6.280702 -7.817204 0.495702 40.000000
30.425558 29.878242 1.012384 30.000000
90.257904 33.961678 4.261074 32.000000
6.259252 -7.732291 0.484807 34.000000
30.375746 30.048813 1.044231 11.000000
90.556267 34.453365 4.314980 31.000000
6.243623 -7.655438 0.472780 37.000000
30.780212 30.662251 1.084571 11.000000
90.583229 34.844219 4.322320 34.000000
26.321859 -13.330744 1.628927 33.000000
6.353043 -7.734321 0.468513 31.000000
30.515232 30.621935 1.116932 7.000000
26.428967 -13.251953 1.627075 29.000000
6.477036 -7.826609 0.470207 19.000000
30.465649 30.797115 1.141939 6.000000
90.864120 35.737381 4.433778 23.000000
83.123932 -3.614734 4.608042 18.000000
6.528328 -7.829984 0.462929 58.000000
30.450056 31.007847 1.175968 1.000000
91.026833 36.150383 4.481803 28.000000
30.299984 -14.935724 1.817694 9.000000
6.485211 -7.723297 0.449139 9.000000
91.145744 36.584927 4.562941 27.000000
83.731133 -3.070282 4.625768 5.000000
31.400717 -15.335510 1.861993 8.000000
26.078762 26.939407 1.080061 9.000000
91.273354 37.025158 4.610549 30.000000
32.483040 -15.702916 1.909790 4.000000
6.658751 -7.812948 0.441023 24.000000
25.892878 26.944304 1.096028 9.000000
91.434731 37.462833 4.625278 31.000000
25.748569 26.991455 1.120166 9.000000
91.442215 37.857906 4.684580 29.000000
6.613686 -7.648524 0.416723 32.000000
25.632893 27.058685 1.151792 9.000000
91.586998 38.311672 4.733892 35.000000
6.609001 -7.586725 0.409395 29.000000
25.652813 27.279282 1.183340 8.000000
91.637650 38.728107 4.778622 32.000000
38.267868 -17.836470 2.146185 11.000000
6.795129 -7.742906 0.411961 30.000000
91.656532 39.113735 4.821564 27.000000
38.463711 -17.748297 2.138506 18.000000
6.772722 -7.663251 0.400039 28.000000
91.514801 39.488258 4.874719 20.000000
38.661232 -17.667854 2.123560 13.000000
7.073385 -7.944574 0.408638 34.000000
18.434744 20.033594 0.912650 6.000000
92.111374 40.108528 4.913554 20.000000
38.899288 -17.604586 2.118137 24.000000
6.909238 -7.703176 0.386670 58.000000
18.455013 20.203735 0.941221 7.000000
92.286736 40.587914 4.966088 27.000000
39.150990 -17.570518 2.113810 16.000000
6.859232 -7.593926 0.375232 25.000000
18.336756 20.222626 0.958044 7.000000
92.402275 41.024250 5.033046 22.000000
39.269032 -17.467276 2.102005 9.000000
6.908082 -7.597209 0.369346 27.000000
92.574013 41.468540 5.085360 23.000000
39.530319 -17.410229 2.089892 16.000000
7.044104 -7.689984 0.365996 31.000000
92.315132 41.759491 5.114970 26.000000
39.774544 -17.327492 2.083930 11.000000
7.289297 -7.899335 0.369716 25.000000
92.522377 42.262424 5.188397 25.000000
39.960842 -17.251213 2.075454 21.000000
40.164169 -17.172913 2.059965 27.000000
6.930162 -7.408325 0.334754 25.000000
40.411480 -17.103735 2.054069 21.000000
15.833242 -16.790083 0.741386 26.000000
119.755913 2.508529 6.529107 10.000000
40.619354 -16.999773 2.030342 11.000000
15.950187 -16.790373 0.723745 10.000000
55.113792 26.134598 3.196680 3.000000
119.776886 2.906367 6.530739 10.000000
40.846867 -16.936033 2.023428 23.000000
15.984862 -16.709677 0.706509 23.000000
119.456589 3.315859 6.513867 10.000000
41.054245 -16.854317 2.015251 9.000000
7.619815 -7.912629 0.329867 8.000000
41.292244 -16.775436 2.008312 8.000000
7.564684 -7.792530 0.316637 10.000000
49.036980 58.130249 3.240669 1.000000
30.119772 -12.095860 1.445519 9.000000
7.607325 -7.779201 0.309624 19.000000
28.659126 34.203083 1.940472 12.000000
29.979168 -11.924100 1.425581 116.000000
7.596006 -7.713577 0.300502 40.000000
28.484980 34.261627 1.976531 15.000000
94.164207 46.764008 5.767629 31.000000
29.922922 -11.768857 1.409502 35.000000
28.411671 34.404896 2.010563 12.000000
93.895737 47.060486 5.816872 26.000000
30.143318 -11.740269 1.418042 9.000000
7.797490 -7.802936 0.290788 9.000000
28.296919 34.522877 2.050418 12.000000
93.959839 47.503700 5.886377 29.000000
30.279833 -11.665804 1.411094 24.000000
16.067247 -15.961039 0.581181 23.000000
28.289055 34.760067 2.082143 12.000000
30.183258 -11.501727 1.382028 37.000000
27.928305 34.574867 2.096002 12.000000
30.377924 -11.454632 1.377749 31.000000
27.684420 34.531094 2.133635 12.000000
8.114585 -7.888334 0.264721 231.000000
27.892702 35.040821 2.182607 10.000000
94.802086 49.666721 6.133505 33.000000
30.658829 -11.304560 1.363840 59.000000
8.201159 -7.914236 0.256646 255.000000
27.982691 35.419525 2.239279 12.000000
94.722473 50.068333 6.196471 26.000000
30.700499 -11.192276 1.352434 9.000000
27.814520 35.460426 2.275141 7.000000
21.066977 27.061724 1.755319 8.000000
92.586029 6.977829 5.126022 1.000000
30.578335 -10.900484 1.320880 9.000000
20.865961 27.007141 1.776668 8.000000
95.751244 51.945415 6.452796 16.000000
92.685913 7.294540 5.149140 1.000000
30.844690 -10.868182 1.319221 13.000000
20.770611 27.078569 1.806450 8.000000
95.566719 52.256233 6.509236 30.000000
92.424713 7.614934 5.136145 1.000000
31.276358 -10.891581 1.324388 8.000000
20.655333 27.133640 1.828936 8.000000
95.554649 52.727245 6.579504 15.000000
31.009428 -10.671350 1.299955 7.000000
20.605938 27.275608 1.863321 8.000000
68.277122 38.002556 4.751909 1.000000
31.266134 -10.631683 1.303301 7.000000
27.090548 36.120594 2.500608 11.000000
68.331024 38.361263 4.806598 1.000000
37.075890 -12.463009 1.543652 8.000000
8.438972 -7.684260 0.195235 19.000000
27.085096 36.390438 2.544168 13.000000
26.884693 36.398968 2.585396 13.000000
96.559944 9.706052 5.459726 1.000000
8.026410 -7.201685 0.169403 9.000000
26.753178 36.486729 2.624595 10.000000
67.965103 39.129032 4.947767 20.000000
96.349007 10.041687 5.466804 1.000000
26.656086 36.635139 2.667897 13.000000
67.338860 39.050674 4.952006 28.000000
96.028641 10.364223 5.450746 1.000000
7.869403 -6.957365 0.150339 10.000000
67.162880 39.278275 4.990523 11.000000
83.901909 9.336974 4.778925 26.000000
46.049614 -14.572424 1.830185 9.000000
9.066896 -7.965463 0.166417 20.000000
66.959435 39.520874 5.028035 6.000000
9.072499 -7.906084 0.157533 21.000000
27.460371 38.611946 2.906244 9.000000
66.606133 39.595013 5.037982 14.000000
105.564728 12.513091 6.036365 13.000000
9.083587 -7.862902 0.153078 17.000000
23.136427 32.773685 2.495858 10.000000
105.219788 12.863446 6.037858 15.000000
9.116254 -7.832914 0.140555 23.000000
9.094423 -7.750916 0.131394 136.000000
21.833492 31.390892 2.439188 9.000000
65.706795 40.028934 5.123809 6.000000
9.104863 -7.707836 0.124928 92.000000
22.184742 32.158615 2.526440 9.000000
65.152748 40.019566 5.145627 8.000000
9.115300 -7.656781 0.118433 19.000000
9.139523 -7.620170 0.110076 22.000000
63.872879 39.896706 5.147278 10.000000
9.152040 -7.573917 0.101598 24.000000
21.098406 31.279671 2.532489 8.000000
63.733704 40.104195 5.186366 18.000000
9.150108 -7.521335 0.095097 29.000000
21.406891 31.977230 2.616633 9.000000
63.759342 40.447296 5.266689 15.000000
9.154419 -7.468823 0.086608 27.000000
63.455742 40.566036 5.292904 7.000000
44.878944 -12.252236 1.632691 5.000000
9.166213 -7.422653 0.082344 26.000000
62.864101 40.513153 5.295259 8.000000
44.928921 -12.089110 1.616626 1.000000
9.185605 -7.382777 0.074047 26.000000
23.340145 35.694668 3.019657 10.000000
61.908516 40.203861 5.265401 1.000000
94.250244 14.995230 5.603064 6.000000
82.136108 -21.777992 2.937668 1.000000
9.189180 -7.330376 0.067704 32.000000
61.691673 40.385281 5.298317 9.000000
94.105003 15.325974 5.614429 19.000000
82.263718 -21.489431 2.939396 13.000000
9.204260 -7.287363 0.059421 25.000000
94.299126 15.695678 5.679475 14.000000
82.047218 -21.111944 2.914071 19.000000
9.225740 -7.252123 0.051203 28.000000
20.291090 31.777149 2.775351 9.000000
61.037766 40.584114 5.369848 8.000000
94.013634 16.002502 5.682479 21.000000
9.227189 -7.193522 0.046967 28.000000
21.262545 33.556168 2.952111 9.000000
60.873833 40.797653 5.407123 13.000000
9.245607 -7.153553 0.038765 24.000000
21.145990 33.644341 2.987902 9.000000
60.698990 40.988247 5.455681 22.000000
44.188240 -10.861852 1.549265 10.000000
9.269295 -7.122867 0.032645 28.000000
20.997414 33.681316 3.019166 9.000000
60.447063 41.141499 5.485054 11.000000
83.444092 -20.187250 2.892982 4.000000
9.254083 -7.052274 0.024368 33.000000
20.917660 33.815746 3.059555 8.000000
60.536053 41.527542 5.545559 16.000000
87.425682 16.187609 5.391345 12.000000
83.420769 -19.858246 2.874647 10.000000
9.261479 -7.009485 0.018245 28.000000
20.854456 33.991417 3.110524 9.000000
29.270580 20.230143 2.719088 2.000000
87.188293 16.474400 5.395937 1.000000
83.342651 -19.517153 2.854515 27.000000
9.307102 -6.990510 0.014221 30.000000
19.792892 32.515224 3.015892 15.000000
29.165646 20.315979 2.747441 8.000000
87.396996 16.830009 5.459232 9.000000
83.361580 -19.214891 2.852848 32.000000
9.299006 -6.926217 0.006071 25.000000
19.829626 32.846020 3.066768 8.000000
60.744335 42.628510 5.788296 9.000000
87.153679 17.083076 5.463100 1.000000
83.534271 -18.932531 2.841398 36.000000
9.289765 -6.871555 0.002017 64.000000
19.818464 33.088024 3.116761 9.000000
60.715439 42.941216 5.839677 9.000000
87.034531 17.422812 5.475523 1.000000
36.382679 -8.105827 1.230017 122.000000
17.267408 -12.674895 -0.007477 23.000000
21.131031 35.574570 3.380013 10.000000
60.555141 43.161678 5.878614 9.000000
36.431675 -7.976700 1.230676 255.000000
17.275169 -12.588036 -0.022384 27.000000
21.040640 35.705666 3.421880 10.000000
60.340031 43.326782 5.924565 25.000000
36.407131 -7.831602 1.222363 255.000000
17.304972 -12.512907 -0.033544 24.000000
21.264467 36.389778 3.531798 10.000000
60.350231 43.670235 6.006668 14.000000
86.888954 18.373737 5.571915 20.000000
36.401573 -7.690924 1.214721 254.000000
17.366957 -12.461049 -0.041037 29.000000
19.343426 33.382587 3.266942 7.000000
60.190849 43.875828 6.045268 14.000000
86.873756 18.655840 5.590240 26.000000
36.371010 -7.545316 1.206280 255.000000
17.367682 -12.365394 -0.055816 25.000000
19.962688 34.730206 3.427196 10.000000
60.181984 44.208061 6.126210 11.000000
36.353054 -7.409328 1.204819 201.000000
17.392441 -12.287210 -0.066900 31.000000
19.702749 34.570629 3.446277 12.000000
60.015846 44.409389 6.177516 11.000000
36.605175 -7.321080 1.218800 7.000000
17.457809 -12.237718 -0.074421 25.000000
19.379169 34.280476 3.452139 10.000000
59.864307 44.637737 6.244333 9.000000
84.297661 -16.538544 2.789715 1.000000
17.486103 -12.162212 -0.081786 32.000000
19.789766 35.308254 3.591027 22.000000
59.739731 44.886475 6.314127 8.000000
85.815483 19.733202 5.709699 31.000000
84.214920 -16.201996 2.799977 1.000000
17.489388 -12.069626 -0.089012 31.000000
19.904104 35.804722 3.677672 13.000000
59.832500 45.283806 6.406556 18.000000
85.807671 20.062819 5.760370 32.000000
84.328438 -15.918779 2.846869 1.000000
9.905385 -6.782359 -0.054477 1.000000
19.830643 35.982494 3.739047 6.000000
59.728996 45.550747 6.479340 13.000000
86.481712 20.539059 5.857138 1.000000
9.880539 -6.712286 -0.056289 7.000000
19.432840 35.260685 3.692384 1.000000
59.722660 45.545918 6.571107 4.000000
86.541626 20.553288 5.985943 24.000000
9.859897 -6.698264 -0.045769 5.000000
19.888403 35.791183 3.726358 10.000000
59.763924 45.231903 6.531000 13.000000
86.695900 20.254536 6.038268 18.000000
84.612610 -15.972424 3.021969 5.000000
17.543880 -12.017044 -0.055672 8.000000
19.765072 35.264198 3.650555 10.000000
59.938282 45.035660 6.519650 10.000000
84.458710 -16.264185 3.063672 1.000000
17.485386 -12.066864 -0.044495 32.000000
19.392244 34.317589 3.524872 10.000000
59.965000 44.712818 6.478381 14.000000
17.467678 -12.153922 -0.025998 32.000000
19.531437 34.270046 3.499561 21.000000
60.164371 44.535545 6.430438 10.000000
36.501278 -7.306927 1.351984 7.000000
17.466099 -12.243528 -0.014891 26.000000
19.880436 34.601082 3.512354 10.000000
60.199623 44.221020 6.403707 11.000000
36.360950 -7.417548 1.367241 192.000000
17.417028 -12.304581 0.003722 29.000000
19.197020 33.129921 3.336465 9.000000
60.186359 43.888649 6.359768 16.000000
86.832405 18.646961 6.007880 27.000000
36.377316 -7.559869 1.375383 221.000000
17.375877 -12.371229 0.022337 25.000000
21.228256 36.342365 3.637822 7.000000
60.313168 43.643414 6.316960 13.000000
87.296570 18.412186 6.019643 3.000000
36.388233 -7.701374 1.383354 212.000000
17.379154 -12.469801 0.033599 23.000000
21.135040 35.880177 3.570000 10.000000
60.176811 43.209587 6.233959 24.000000
36.409260 -7.838709 1.404713 204.000000
17.321156 -12.524610 0.048498 22.000000
21.116442 35.564140 3.516782 10.000000
60.502625 43.124249 6.239020 9.000000
36.423485 -7.981569 1.425933 195.000000
17.295298 -12.602702 0.067230 27.000000
19.830595 33.121387 3.241679 9.000000
60.614998 42.870178 6.182169 12.000000
36.442753 -8.125888 1.427844 11.000000
17.289272 -12.695588 0.074874 24.000000
19.934381 33.032566 3.212653 9.000000
60.508236 42.478584 6.143126 1.000000
86.829567 17.003809 5.969828 10.000000
83.465469 -18.932253 3.317791 31.000000
9.284451 -6.870132 0.052412 21.000000
19.802633 32.544014 3.145397 21.000000
29.186153 20.330265 2.936801 10.000000
86.523003 16.630384 5.913828 6.000000
83.413284 -19.242142 3.363389 38.000000
9.295259 -6.930997 0.058687 24.000000
20.748631 33.832172 3.242011 8.000000
60.328999 41.711498 6.004253 10.000000
86.496132 16.296713 5.892439 8.000000
9.285748 -6.977006 0.066897 22.000000
20.878920 33.766293 3.215110 8.000000
60.453568 41.470959 5.988602 18.000000
44.452835 -10.598358 1.819476 156.000000
9.272043 -7.020026 0.073073 27.000000
21.008385 33.712021 3.188994 9.000000
60.587151 41.236843 5.948194 18.000000
87.584671 15.869464 5.958901 9.000000
44.136002 -10.693932 1.831916 147.000000
9.258121 -7.063019 0.083329 24.000000
21.069639 33.535851 3.144830 9.000000
60.573078 40.918613 5.881388 15.000000
87.704422 15.575163 5.947697 24.000000
9.279693 -7.133433 0.091930 31.000000
21.196033 33.477039 3.111441 10.000000
60.793884 40.744072 5.875432 15.000000
87.706223 15.212561 5.959235 29.000000
9.233682 -7.152058 0.097849 23.000000
21.271475 33.325317 3.076795 2.000000
60.967339 40.552635 5.839895 8.000000
9.230969 -7.204244 0.110363 33.000000
61.159706 40.358036 5.805503 14.000000
9.235897 -7.262715 0.116891 33.000000
61.623379 40.340572 5.783703 9.000000
9.201312 -7.290256 0.124988 24.000000
23.287987 35.628475 3.207896 11.000000
9.207019 -7.347236 0.131581 26.000000
63.109760 40.671467 5.816639 12.000000
44.937946 -12.099950 1.966813 8.000000
9.191644 -7.390271 0.139983 23.000000
21.343935 32.149548 2.854158 9.000000
63.411789 40.553532 5.818178 9.000000
9.156628 -7.417537 0.150147 26.000000
63.815144 40.482697 5.801729 8.000000
76.344917 -21.157970 3.389666 24.000000
9.156408 -7.473108 0.158845 21.000000
21.018599 31.173090 2.714782 9.000000
63.767330 40.125351 5.744293 26.000000
76.145493 -21.403532 3.411932 23.000000
9.159784 -7.531968 0.165591 29.000000
63.909550 39.904106 5.704843 26.000000
76.064812 -21.681984 3.453347 23.000000
9.124326 -7.559034 0.173724 23.000000
22.175934 32.387135 2.779172 7.000000
64.739510 40.093285 5.739041 3.000000
9.138659 -7.627564 0.184918 27.000000
22.227867 32.209099 2.736546 9.000000
65.060043 39.978264 5.714841 7.000000
9.129723 -7.677053 0.189470 23.000000
21.831812 31.400166 2.640741 14.000000
65.544205 39.945576 5.717527 13.000000
106.173363 13.732987 7.054472 8.000000
9.098951 -7.705557 0.197715 24.000000
22.986942 32.804379 2.737805 10.000000
65.935966 39.853634 5.698358 13.000000
105.910011 13.323210 7.015131 24.000000
9.116179 -7.777700 0.207076 19.000000
23.111311 32.738106 2.703858 10.000000
66.308159 39.763248 5.677791 3.000000
105.646126 12.896852 6.994473 1.000000
77.053993 -23.484261 3.629726 24.000000
9.102664 -7.823999 0.215801 25.000000
27.417425 38.537315 3.149637 10.000000
66.610306 39.613228 5.650397 16.000000
105.812813 12.523771 6.983746 1.000000
77.160629 -23.826185 3.695333 22.000000
9.073781 -7.857184 0.226276 25.000000
26.215519 36.590458 2.966048 12.000000
67.303116 39.692047 5.655660 4.000000
76.985184 -24.066681 3.719146 8.000000
9.067403 -7.909999 0.235241 10.000000
26.383619 36.528011 2.929685 9.000000
67.108055 39.261929 5.586796 19.000000
84.091965 9.343266 5.530764 3.000000
45.988724 -14.561983 2.215837 20.000000
7.881721 -6.926698 0.210634 10.000000
26.668575 36.638863 2.906685 13.000000
67.148811 38.956127 5.564647 27.000000
95.187187 10.222988 6.274776 1.000000
45.814655 -14.691838 2.243690 14.000000
7.841196 -6.942185 0.217544 16.000000
26.805868 36.571976 2.876629 8.000000
67.847023 39.029526 5.569422 11.000000
95.026596 9.853570 6.245021 1.000000
7.910079 -7.052578 0.227539 9.000000
27.012526 36.558681 2.851861 8.000000
67.920395 38.756821 5.523154 9.000000
95.283813 9.544182 6.259698 1.000000
7.887745 -7.084728 0.236898 9.000000
27.110960 36.438461 2.817649 13.000000
68.194725 38.582718 5.492698 1.000000
8.391638 -7.593075 0.260771 48.000000
20.571009 27.447866 2.097933 5.000000
68.257545 38.304348 5.445771 16.000000
37.169395 -12.516107 1.877016 9.000000
8.289765 -7.556341 0.264341 35.000000
20.573095 27.242020 2.064028 7.000000
68.407852 38.059685 5.419140 1.000000
37.127377 -12.653654 1.890947 9.000000
20.716202 27.223461 2.038400 8.000000
95.486023 52.667637 7.491510 28.000000
31.121996 -10.734394 1.598597 8.000000
20.827730 27.153038 2.009132 8.000000
95.694595 52.347851 7.436111 28.000000
30.869476 -10.774059 1.604804 7.000000
20.936817 27.108627 1.986978 8.000000
95.950615 52.031902 7.383722 1.000000
30.817017 -10.876574 1.615476 7.000000
21.073879 27.080339 1.960509 8.000000
30.781116 -10.990940 1.627132 10.000000
27.654467 35.281727 2.537682 12.000000
94.721420 50.491577 7.204684 29.000000
30.688427 -11.084829 1.635787 9.000000
7.506735 -7.148567 0.289547 20.000000
28.072435 35.545868 2.532342 13.000000
94.803452 50.132305 7.141836 18.000000
30.557142 -11.152099 1.642135 15.000000
27.868172 35.022545 2.463142 12.000000
94.812767 49.651230 7.071179 29.000000
30.668142 -11.326239 1.661866 10.000000
8.296214 -8.014359 0.338322 103.000000
95.023109 49.339497 7.036443 1.000000
30.639910 -11.443604 1.674044 8.000000
8.402719 -8.176995 0.352078 9.000000
30.699352 -11.581952 1.690865 29.000000
16.213272 -15.893847 0.697645 8.000000
27.833542 34.212547 2.311418 12.000000
94.138649 48.007439 6.852092 25.000000
30.344187 -11.587318 1.685220 12.000000
16.054991 -15.854494 0.709098 16.000000
27.868364 34.012138 2.273655 12.000000
93.792923 47.439877 6.760176 26.000000
30.454123 -11.745162 1.704904 28.000000
7.795843 -7.752423 0.353194 8.000000
28.079424 34.014656 2.257532 12.000000
93.928833 47.097588 6.721252 30.000000
30.082066 -11.722460 1.697656 8.000000
16.042799 -16.070824 0.745359 26.000000
28.556400 34.335339 2.246675 12.000000
94.027985 46.716816 6.660851 24.000000
30.154486 -11.878167 1.715533 7.000000
16.148741 -16.295971 0.769085 27.000000
28.683741 34.244595 2.208195 12.000000
7.593952 -7.719572 0.370576 20.000000
48.943260 57.998611 3.698360 9.000000
41.468376 -16.686998 2.413036 17.000000
7.589817 -7.772145 0.381254 19.000000
49.073063 57.721859 3.639141 1.000000
41.205143 -16.765192 2.401447 18.000000
7.517278 -7.751813 0.384628 29.000000
55.033722 26.332321 3.763537 1.000000
41.013348 -16.862627 2.409380 10.000000
7.571797 -7.865513 0.396522 22.000000
54.955715 26.059639 3.719993 6.000000
40.719574 -16.916580 2.418904 20.000000
49.018627 56.409363 3.419692 1.000000
40.507576 -16.994549 2.425200 10.000000
49.174026 56.190823 3.364592 1.000000
40.316898 -17.072001 2.432490 14.000000
49.404697 56.038628 3.300975 1.000000
92.603561 42.671230 6.111237 33.000000
40.137115 -17.186209 2.441074 10.000000
92.321449 42.190125 6.048285 25.000000
39.822498 -17.207983 2.440588 16.000000
6.879514 -7.411017 0.404369 20.000000
92.638489 41.886288 6.004570 25.000000
39.631435 -17.306313 2.455648 20.000000
6.897429 -7.482529 0.414071 31.000000
92.501732 41.416782 5.950325 19.000000
39.457336 -17.402758 2.463898 14.000000
6.920299 -7.562774 0.426066 36.000000
39.196426 -17.459572 2.466613 20.000000
6.942714 -7.643332 0.436389 71.000000
39.002495 -17.512053 2.472641 12.000000
6.863580 -7.606743 0.440164 81.000000
91.783325 39.984741 5.755047 28.000000
38.858501 -17.610645 2.482337 19.000000
6.953447 -7.760637 0.454950 24.000000
91.550652 39.484776 5.696428 35.000000
38.629906 -17.677998 2.479296 18.000000
6.854454 -7.701385 0.455550 16.000000
91.664429 39.136017 5.659640 31.000000
38.431873 -17.758018 2.500405 19.000000
25.680265 27.318026 1.414136 9.000000
91.489647 38.684380 5.605692 28.000000
38.157669 -17.801321 2.501543 9.000000
6.658965 -7.593094 0.463908 120.000000
25.658665 27.085892 1.374605 8.000000
91.513779 38.299809 5.546425 35.000000
84.653587 -1.906276 5.446009 9.000000
6.701677 -7.701250 0.476083 29.000000
25.780199 27.034058 1.343663 9.000000
91.514099 37.906384 5.468620 24.000000
84.663658 -2.187423 5.417409 30.000000
34.746414 -16.513678 2.305811 8.000000
6.601416 -7.642419 0.476246 32.000000
25.900524 26.961679 1.318641 9.000000
91.353920 37.448349 5.416242 26.000000
84.615601 -2.481771 5.414855 30.000000
33.537109 -16.089886 2.249006 7.000000
6.680364 -7.791362 0.492975 56.000000
26.065672 26.935289 1.302364 6.000000
91.613617 37.181808 5.423910 6.000000
84.549187 -2.790013 5.440875 30.000000
31.857685 -15.421191 2.164781 6.000000
6.565435 -7.711633 0.495337 90.000000
91.122673 36.594135 5.318110 32.000000
84.309830 -3.120971 5.396663 11.000000
6.462821 -7.647717 0.494962 84.000000
90.949951 36.138229 5.300264 31.000000
83.783257 -3.365083 5.407692 25.000000
6.533895 -7.789554 0.513262 34.000000
90.778534 35.685429 5.214324 28.000000
83.348518 -3.653650 5.351219 19.000000
28.679951 -14.268060 1.992899 7.000000
6.484122 -7.785248 0.516802 36.000000
90.829788 35.340023 5.176032 1.000000
82.851097 -3.936144 5.320174 1.000000
26.361313 -13.235308 1.845477 19.000000
6.407113 -7.744868 0.519744 38.000000
90.676971 34.898449 5.108985 31.000000
26.289503 -13.320124 1.859348 31.000000
6.318670 -7.700692 0.523790 68.000000
30.365707 30.028399 1.282397 11.000000
90.505295 34.415894 5.057594 24.000000
6.275751 -7.703062 0.529414 19.000000
30.376459 29.840443 1.256350 30.000000
90.209335 33.961380 5.000998 28.000000
6.212650 -7.682946 0.535110 89.000000
89.951553 33.506310 4.913001 25.000000
24.052845 -12.515784 1.739146 10.000000
6.278022 -7.822253 0.548473 29.000000
89.737984 33.052719 4.861218 23.000000
23.392199 -12.281179 1.703882 9.000000
6.390382 -8.019436 0.569708 34.000000
56.861095 54.642250 2.161447 1.000000
90.857948 33.087547 4.915285 21.000000
6.416376 -8.112890 0.583727 21.000000
56.785511 54.189617 2.069113 1.000000
91.479057 32.934486 4.891284 22.000000
6.672990 -8.501209 0.617472 37.000000
56.806980 53.813675 2.008030 11.000000
92.479492 32.930466 4.904247 12.000000
21.296972 -11.476830 1.594144 8.000000
6.557094 -8.413865 0.616933 21.000000
55.977982 52.640415 1.918213 1.000000
92.549362 32.573620 4.867255 22.000000
78.654999 -6.300798 5.075026 6.000000
20.751934 -11.276762 1.568703 10.000000
6.507557 -8.413723 0.624484 28.000000
56.189777 52.452850 1.865174 8.000000
93.131966 32.395535 4.857113 11.000000
78.357025 -6.566051 5.071099 1.000000
20.141029 -11.040602 1.537652 17.000000
6.467291 -8.425293 0.631020 33.000000
56.331264 52.199860 1.809861 1.000000
94.101776 32.346737 4.866658 10.000000
78.178337 -6.839718 5.061124 1.000000
19.628456 -10.853375 1.509411 10.000000
6.461707 -8.479133 0.642695 26.000000
56.308289 51.814415 1.736488 1.000000
94.462471 32.084076 4.844292 27.000000
19.141422 -10.671490 1.478657 18.000000
6.523705 -8.619629 0.657382 25.000000
56.506077 51.615227 1.683287 1.000000
94.958977 31.883442 4.828969 20.000000
78.629982 -7.446568 5.079840 1.000000
18.649296 -10.486907 1.454854 10.000000
6.370358 -8.484520 0.654501 23.000000
56.525391 51.254089 1.624960 1.000000
95.424431 31.651020 4.776358 23.000000
78.401260 -7.687310 5.066682 1.000000
18.260412 -10.352291 1.438369 14.000000
6.327016 -8.491436 0.660663 35.000000
57.449364 51.709488 1.592078 5.000000
95.958252 31.438156 4.779615 26.000000
78.575195 -7.995234 5.093625 1.000000
18.165836 -10.386838 1.437578 20.000000
6.203632 -8.383728 0.656161 32.000000
57.449207 51.329445 1.533043 15.000000
96.440315 31.205145 4.762436 18.000000
18.157238 -10.470413 1.450951 29.000000
6.250776 -8.515629 0.673856 17.000000
57.600338 51.086063 1.478299 16.000000
97.554710 31.171204 4.775965 15.000000
18.115826 -10.530968 1.457920 20.000000
6.266178 -8.602532 0.688237 25.000000
57.658833 50.779469 1.434999 10.000000
93.720764 29.586014 4.548804 1.000000
18.106567 -10.614565 1.471339 32.000000
6.039954 -8.353073 0.673815 67.000000
57.792961 50.522690 1.353306 17.000000
93.549492 29.155334 4.483860 1.000000
18.049702 -10.670312 1.480920 10.000000
6.020586 -8.390888 0.684132 29.000000
28.009306 24.305237 0.634365 26.000000
93.361237 28.721666 4.435593 14.000000
18.011677 -10.732853 1.491898 10.000000
5.983656 -8.404281 0.692475 10.000000
57.988728 49.948650 1.255748 16.000000
94.036110 28.552427 4.428279 11.000000
18.014744 -10.824350 1.499115 17.000000
5.982939 -8.459396 0.700914 38.000000
17.978540 -10.892481 1.510477 16.000000
6.000132 -8.556355 0.716108 12.000000
91.109474 77.321144 1.772901 15.000000
17.939732 -10.954757 1.521484 10.000000
5.981339 -8.593212 0.724785 10.000000
91.446571 77.087036 1.690961 10.000000
17.911974 -11.028140 1.526238 10.000000
5.921170 -8.573617 0.728606 19.000000
95.431206 27.472643 4.301103 1.000000
80.310089 -11.115374 5.242927 1.000000
17.893873 -11.103320 1.539074 10.000000
6.033124 -8.804562 0.755709 28.000000
32.422073 26.936449 0.529721 10.000000
95.374115 27.078070 4.259356 5.000000
79.947708 -11.364009 5.221954 1.000000
17.877413 -11.175386 1.551935 12.000000
5.937789 -8.724085 0.754601 38.000000
32.597939 26.881222 0.508855 15.000000
17.827501 -11.243964 1.562604 12.000000
5.910985 -8.753505 0.764532 73.000000
17.795866 -11.311035 1.574385 16.000000
6.012920 -8.978602 0.791650 25.000000
25.929920 21.065161 0.355693 6.000000
17.774817 -11.389338 1.583615 11.000000
5.996298 -9.025154 0.799515 67.000000
26.104486 21.048624 0.327761 1.000000
96.558128 25.908800 4.155180 1.000000
17.759850 -11.467390 1.589549 16.000000
5.843678 -8.862403 0.790738 31.000000
96.633827 25.549801 4.136905 7.000000
17.712822 -11.529230 1.600240 14.000000
5.764377 -8.812248 0.793613 41.000000
86.812698 22.613012 3.681520 1.000000
17.698805 -11.603846 1.613587 10.000000
5.900457 -9.085906 0.824098 1.000000
87.051704 22.334885 3.641026 4.000000
9.980995 -6.598763 0.914364 1.000000
13.924819 -21.623663 1.974478 8.000000
59.224625 46.337975 0.524991 9.000000
85.435585 21.618528 3.555005 26.000000
86.188828 -14.794462 5.701077 1.000000
9.937910 -6.617743 0.918710 8.000000
15.003983 -23.470098 2.162977 14.000000
59.331074 46.088276 0.458940 1.000000
85.601654 21.295288 3.496648 12.000000
86.302094 -15.139746 5.696845 1.000000
9.903883 -6.650116 0.922107 8.000000
14.974324 -23.623089 2.191407 18.000000
59.622589 45.965328 0.407329 1.000000
85.096169 20.885878 3.457986 6.000000
85.937592 -15.400682 5.661170 1.000000
9.939184 -6.721746 0.933785 1.000000
14.918977 -23.709282 2.214479 29.000000
59.675762 45.658581 0.340973 1.000000
17.765091 -12.109439 1.676961 10.000000
14.769310 -23.654207 2.224097 9.000000
59.679581 45.315685 0.300808 1.000000
85.906105 20.418194 3.407550 16.000000
48.276745 -8.991149 3.184206 1.000000
17.705309 -12.159425 1.690401 9.000000
14.308872 -23.104851 2.191367 9.000000
59.853439 45.102802 0.235446 21.000000
33.175571 7.756829 1.296940 6.000000
48.228214 -9.165133 3.191803 194.000000
17.693169 -12.246762 1.697295 9.000000
13.859647 -22.554987 2.148566 11.000000
60.050529 44.907188 0.170135 21.000000
33.253132 7.646531 1.280976 9.000000
47.910744 -9.286874 3.164470 211.000000
17.682287 -12.330747 1.711728 9.000000
13.682544 -22.450834 2.156949 9.000000
37.184063 27.595186 0.064654 7.000000
33.257214 7.519238 1.262185 8.000000
47.686024 -9.424790 3.143369 192.000000
17.645130 -12.401204 1.712520 9.000000
13.613819 -22.514545 2.172361 9.000000
60.704346 44.706062 0.052632 1.000000
33.650799 7.478691 1.264025 8.000000
47.487057 -9.557821 3.123944 14.000000
17.611027 -12.473917 1.725007 9.000000
13.558416 -22.609663 2.199894 19.000000
61.085796 44.642590 -0.013205 16.000000
34.147266 7.457796 1.263313 5.000000
47.069386 -9.653397 3.115617 204.000000
17.579056 -12.543649 1.733740 9.000000
13.506646 -22.702629 2.222910 14.000000
101.417809 73.549225 -0.131193 10.000000
87.320946 18.735929 3.181143 6.000000
46.775364 -9.771882 3.090130 123.000000
17.512238 -12.593092 1.739269 9.000000
13.493638 -22.871122 2.248554 13.000000
101.495865 73.039673 -0.218245 10.000000
84.569389 17.821566 3.033193 31.000000
46.467499 -9.885448 3.047186 217.000000
17.371065 -12.583797 1.733369 10.000000
13.418157 -22.925665 2.263307 10.000000
61.466900 43.892487 -0.224102 1.000000
17.312750 -12.638564 1.732160 9.000000
13.375753 -23.046564 2.289126 16.000000
17.330790 -12.651733 1.703813 9.000000
13.395981 -23.072142 2.263757 14.000000
84.520081 17.811174 2.744669 17.000000
46.486401 -9.889469 2.898531 207.000000
17.354967 -12.572136 1.667778 10.000000
13.440267 -22.963442 2.220267 16.000000
92.123238 66.784172 -0.456761 104.000000
87.364838 18.729399 2.839154 13.000000
46.816933 -9.780567 2.891751 143.000000
17.541582 -12.614192 1.662501 10.000000
13.490056 -22.855936 2.186655 20.000000
61.056755 44.605019 -0.303537 21.000000
34.276260 7.479700 1.096395 3.000000
47.107483 -9.669778 2.865478 208.000000
17.560928 -12.530714 1.633461 10.000000
13.509014 -22.697596 2.139102 16.000000
37.317760 27.472834 -0.153669 1.000000
33.438564 7.425398 1.076447 8.000000
47.470921 -9.563194 2.876952 10.000000
17.619642 -12.475402 1.623289 10.000000
13.512196 -22.523674 2.104073 9.000000
37.120461 27.537945 -0.145204 1.000000
33.250622 7.511648 1.059365 9.000000
47.738247 -9.435112 2.848425 106.000000
17.636133 -12.394882 1.594331 10.000000
13.588240 -22.463387 2.070802 10.000000
59.830044 44.726028 -0.195564 1.000000
33.261650 7.642378 1.066564 5.000000
48.027157 -9.318136 2.838002 124.000000
17.665764 -12.319225 1.581579 9.000000
13.685668 -22.447144 2.050613 10.000000
59.889408 45.113522 -0.170124 11.000000
48.341957 -9.195492 2.828742 71.000000
17.689287 -12.244076 1.560974 10.000000
13.922998 -22.649223 2.045713 13.000000
59.859112 45.435543 -0.144278 9.000000
17.698160 -12.154515 1.538983 10.000000
14.633273 -23.619459 2.108680 12.000000
59.553230 45.548359 -0.104685 1.000000
85.702858 20.638727 2.724115 4.000000
17.747814 -12.093126 1.520599 10.000000
14.810718 -23.711309 2.092270 18.000000
59.572056 45.909798 -0.065633 1.000000
85.050484 20.843187 2.736613 15.000000
9.899384 -6.694830 0.837768 5.000000
14.922405 -23.696379 2.071192 17.000000
59.383812 46.096016 -0.013121 20.000000
9.903508 -6.644850 0.829776 9.000000
14.965914 -23.582506 2.041286 29.000000
59.242031 46.334919 0.039380 20.000000
85.406494 21.579447 2.799137 17.000000
9.932308 -6.611511 0.823875 8.000000
15.015575 -23.470173 2.011870 16.000000
10.064139 -6.648686 0.822305 1.000000
17.691278 -11.594496 1.423466 17.000000
5.830014 -8.970577 0.751873 2.000000
26.139465 20.911716 0.064267 4.000000
17.719721 -11.524917 1.411391 17.000000
5.814080 -8.874700 0.734453 33.000000
26.031483 20.982264 0.075862 73.000000
17.741909 -11.447032 1.391300 15.000000
5.815144 -8.809088 0.721444 18.000000
26.035477 21.128294 0.099485 7.000000
17.767141 -11.371301 1.386304 15.000000
5.842210 -8.779928 0.711559 18.000000
17.812353 -11.312787 1.360853 12.000000
5.942691 -8.863693 0.708799 72.000000
58.794205 48.448967 0.305825 26.000000
17.820124 -11.226275 1.354603 17.000000
94.992805 26.933983 3.223702 12.000000
79.829674 -11.361445 4.324645 1.000000
17.862146 -11.161508 1.336222 11.000000
5.900009 -8.665324 0.676082 50.000000
80.135139 -11.105414 4.296478 1.000000
17.897350 -11.096828 1.324880 19.000000
6.002647 -8.746982 0.674870 17.000000
94.096603 27.426661 3.217150 1.000000
17.917637 -11.027316 1.312608 10.000000
5.881711 -8.503779 0.648705 17.000000
94.027977 27.763124 3.252357 15.000000
17.924385 -10.932506 1.291485 10.000000
6.003045 -8.614772 0.647729 50.000000
94.145546 28.209200 3.260314 1.000000
17.975824 -10.877972 1.281405 14.000000
5.974604 -8.507313 0.634006 27.000000
17.999027 -10.802084 1.269196 15.000000
5.984402 -8.458333 0.622834 33.000000
28.061981 24.342361 0.311223 18.000000
18.041481 -10.742082 1.258504 11.000000
6.001188 -8.416463 0.612313 31.000000
18.064480 -10.666287 1.239001 23.000000
6.180918 -8.601658 0.616300 38.000000
97.552238 30.739384 3.482359 9.000000
79.171524 -8.936481 4.105835 1.000000
18.099516 -10.597704 1.231385 14.000000
6.085355 -8.406589 0.594755 27.000000
78.986038 -8.622478 4.080646 1.000000
18.132635 -10.532272 1.220112 14.000000
6.142847 -8.420857 0.590053 30.000000
58.361217 52.125992 0.833127 19.000000
95.786713 30.956726 3.480113 1.000000
79.091599 -8.340776 4.084492 1.000000
18.137430 -10.446341 1.199524 16.000000
6.242041 -8.491296 0.585517 112.000000
95.714188 31.321205 3.516822 25.000000
78.952042 -8.047501 4.061922 1.000000
18.172514 -10.386448 1.188564 11.000000
6.188755 -8.357520 0.568676 46.000000
18.399574 -10.422700 1.189681 10.000000
6.348034 -8.507241 0.571153 30.000000
18.856239 -10.590284 1.201545 10.000000
6.386987 -8.497398 0.562682 31.000000
57.171307 52.571709 1.030290 1.000000
93.919350 31.863043 3.532665 19.000000
19.366552 -10.783712 1.219894 10.000000
6.448472 -8.514048 0.557869 54.000000
57.164761 52.953682 1.088073 1.000000
93.493576 32.101185 3.555602 8.000000
19.848501 -10.966003 1.236045 10.000000
6.455692 -8.458983 0.546497 31.000000
57.141510 53.322620 1.145918 3.000000
93.049606 32.330479 3.543201 10.000000
20.403889 -11.180061 1.255976 10.000000
6.622479 -8.615006 0.546658 32.000000
56.714130 53.295380 1.181830 13.000000
92.123238 32.387505 3.546553 1.000000
20.993925 -11.403517 1.272987 9.000000
6.535091 -8.443231 0.529658 160.000000
56.721115 53.694778 1.240609 1.000000
91.683601 32.592979 3.567998 1.000000
21.580959 -11.610435 1.292879 9.000000
6.563068 -8.409415 0.519854 34.000000
57.952377 55.264503 1.327882 1.000000
77.125496 -5.609611 3.849677 1.000000
22.238714 -11.864393 1.316560 9.000000
6.753155 -8.590981 0.522974 34.000000
57.846100 55.569401 1.386119 1.000000
90.937447 33.080551 3.615951 4.000000
77.369209 -5.369475 3.833793 1.000000
22.878551 -12.108457 1.342995 9.000000
56.509697 54.685257 1.413806 1.000000
89.956284 33.097469 3.615242 13.000000
23.644173 -12.402942 1.371243 9.000000
56.346386 54.909393 1.469452 1.000000
90.203117 33.564163 3.663726 13.000000
24.381271 -12.675865 1.396861 24.000000
6.267665 -7.798191 0.452564 24.000000
30.447905 29.889751 0.826698 11.000000
90.116951 33.890686 3.698665 20.000000
25.446688 -13.117146 1.445250 6.000000
6.368752 -7.864754 0.448930 18.000000
30.419420 30.060522 0.851027 17.000000
90.449791 34.394783 3.717475 19.000000
6.293987 -7.719942 0.434885 35.000000
90.536423 34.808075 3.760163 19.000000
26.314297 -13.321144 1.457977 34.000000
6.330164 -7.703726 0.426620 24.000000
30.668423 30.764921 0.932693 7.000000
82.013649 -3.896358 4.030026 1.000000
26.558121 -13.316713 1.447851 9.000000
6.409563 -7.742326 0.421269 21.000000
30.414349 30.734526 0.958587 5.000000
90.829727 35.687252 3.851342 32.000000
82.191391 -3.617299 4.038115 4.000000
28.986843 -14.401808 1.560380 9.000000
6.422131 -7.699879 0.411472 33.000000
30.332666 30.877523 0.982248 6.000000
91.061531 36.145767 3.883624 28.000000
82.790504 -3.310737 4.037871 5.000000
30.353041 -14.942129 1.613210 10.000000
6.490971 -7.727418 0.405331 12.000000
91.241196 36.604755 3.965725 29.000000
82.820274 -3.036882 4.053309 6.000000
31.417259 -15.336799 1.654828 9.000000
6.548433 -7.738060 0.401829 15.000000
26.072807 26.923849 0.902880 7.000000
91.199020 36.976467 3.969756 23.000000
6.602952 -7.744739 0.392756 86.000000
25.917971 26.960997 0.933590 9.000000
91.546997 37.508835 4.025451 24.000000
84.813545 -2.487576 4.120170 13.000000
34.144825 -16.366787 1.745919 9.000000
6.542243 -7.619499 0.380539 13.000000
25.810820 27.028360 0.952534 9.000000
91.524338 37.873196 4.082193 28.000000
84.532150 -2.184025 4.106104 1.000000
35.563229 -16.886662 1.801498 8.000000
6.678168 -7.720373 0.379660 134.000000
25.739344 27.171057 0.986597 9.000000
91.448120 38.234825 4.119675 26.000000
90.406235 -2.004244 4.391048 15.000000
37.258869 -17.532692 1.862675 8.000000
25.640438 27.256588 1.012591 8.000000
91.623566 38.703308 4.168721 35.000000
38.260628 -17.833096 1.894711 16.000000
6.779771 -7.725406 0.366117 33.000000
91.700974 39.132698 4.196173 33.000000
76.867256 -1.140432 3.706054 8.000000
38.458145 -17.753872 1.879034 23.000000
6.838079 -7.734481 0.356908 32.000000
91.671204 39.498825 4.270906 27.000000
76.859482 -0.871981 3.732404 188.000000
38.715988 -17.684711 1.873262 16.000000
6.913034 -7.761747 0.353884 29.000000
18.393475 19.974749 0.791666 6.000000
92.075470 40.073776 4.296555 27.000000
76.853477 -0.590204 3.705091 188.000000
38.890255 -17.616856 1.864074 20.000000
18.434555 20.160131 0.815546 7.000000
92.255150 40.554806 4.364710 28.000000
76.870750 -0.308581 3.692397 184.000000
39.137756 -17.556374 1.850339 13.000000
6.925247 -7.664323 0.333645 32.000000
18.373392 20.241718 0.844771 10.000000
92.328209 40.991367 4.410574 30.000000
76.900681 -0.026843 3.707258 176.000000
39.365238 -17.501842 1.843274 10.000000
6.870075 -7.552762 0.322643 10.000000
92.667145 41.490841 4.468480 33.000000
77.025246 0.215096 3.713277 6.000000
39.544014 -17.408022 1.833536 16.000000
92.544167 41.843643 4.523199 24.000000
76.998962 0.497245 3.712073 28.000000
39.785473 -17.332254 1.818869 10.000000
6.805655 -7.375218 0.301352 88.000000
92.406906 42.190189 4.559547 28.000000
77.021591 0.779709 3.713277 20.000000
39.990078 -17.263834 1.810365 21.000000
6.822574 -7.339395 0.293906 236.000000
92.967636 42.858669 4.612838 22.000000
77.014702 1.048510 3.686151 15.000000
40.210430 -17.184391 1.786897 24.000000
6.976038 -7.449543 0.288642 13.000000
49.912388 56.994385 2.605889 11.000000
93.087723 43.308659 4.662181 20.000000
77.030777 1.304232 3.687107 14.000000
40.416351 -17.097479 1.777907 9.000000
6.866243 -7.278641 0.276003 3.000000
49.885410 57.366375 2.681342 14.000000
93.126755 43.703068 4.725345 25.000000
77.110359 1.588304 3.691170 8.000000
40.737667 -17.057646 1.766117 9.000000
15.904976 -16.754492 0.625109 9.000000
49.461357 57.301533 2.722733 9.000000
55.093410 26.124933 2.843452 6.000000
77.246864 1.901363 3.725074 6.000000
40.893875 -16.955524 1.770313 12.000000
41.146385 -16.883753 1.747454 9.000000
7.697766 -7.985204 0.282690 22.000000
30.117149 -12.229306 1.265775 7.000000
7.532112 -7.756268 0.268008 25.000000
7.569754 -7.740781 0.260821 18.000000
112.690338 4.368521 5.416971 24.000000
30.144552 -11.989881 1.234936 18.000000
7.366736 -7.478148 0.241881 74.000000
28.585258 34.357841 1.787295 12.000000
94.106636 46.694469 5.138019 32.000000
113.040894 4.797111 5.474217 19.000000
30.035261 -11.819095 1.217393 29.000000
7.341368 -7.397964 0.234696 22.000000
28.260519 34.209698 1.813232 12.000000
93.887871 46.995049 5.171737 31.000000
29.799404 -11.600331 1.194924 9.000000
28.178478 34.366142 1.847116 12.000000
94.002304 47.483982 5.242870 26.000000
30.056208 -11.573625 1.203512 22.000000
16.051222 -15.945117 0.477876 19.000000
28.083250 34.507183 1.872488 12.000000
93.979141 47.946762 5.270731 1.000000
30.052507 -11.445897 1.179195 26.000000
16.063631 -15.840891 0.452878 29.000000
27.848354 34.463585 1.911320 12.000000
30.386843 -11.451938 1.190737 29.000000
16.087616 -15.759660 0.444214 10.000000
27.755386 34.607235 1.944661 12.000000
94.883163 49.224789 5.433619 25.000000
30.223368 -11.263993 1.160158 16.000000
8.356971 -8.121125 0.217645 19.000000
27.586636 34.656319 1.988202 12.000000
94.848289 49.648739 5.535676 32.000000
30.686419 -11.308650 1.176334 37.000000
27.331669 34.583069 2.001642 12.000000
94.655998 49.990929 5.553843 11.000000
27.302322 34.782421 2.038863 12.000000
7.445916 -7.085695 0.172235 111.000000
21.112856 27.110895 1.614465 8.000000
93.068535 6.981523 4.531944 1.000000
30.695536 -10.936226 1.126524 36.000000
7.456208 -7.038670 0.164658 255.000000
20.923910 27.072376 1.637519 8.000000
95.682274 51.908001 5.800139 16.000000
93.036552 7.322136 4.547990 1.000000
30.679218 -10.803858 1.113097 10.000000
20.832609 27.159399 1.674082 8.000000
95.585434 52.288136 5.862508 38.000000
93.447098 7.699170 4.569407 7.000000
30.728420 -10.694756 1.102082 9.000000
20.712580 27.198994 1.701963 8.000000
95.470016 52.637081 5.923352 18.000000
93.634773 8.060258 4.629325 13.000000
30.994593 -10.660193 1.098765 10.000000
20.678268 27.361418 1.731376 8.000000
68.361824 38.018452 4.291144 7.000000
92.934570 8.326889 4.596116 1.000000
31.095331 -10.567549 1.089479 7.000000
20.625471 27.480536 1.764638 5.000000
68.570076 38.448261 4.367665 5.000000
83.950233 7.802606 4.167799 26.000000
31.177750 -10.480358 1.085396 8.000000
26.906237 36.136955 2.353273 8.000000
84.002731 8.147736 4.171996 34.000000
36.952351 -12.263765 1.271174 10.000000
7.738262 -6.992056 0.123783 9.000000
26.891062 36.394295 2.403196 1.000000
83.956673 8.453992 4.185983 33.000000
7.804842 -7.000425 0.117116 10.000000
67.844749 39.043983 4.472322 12.000000
83.925926 8.746929 4.200710 1.000000
7.959964 -7.089578 0.111629 14.000000
67.678322 39.247532 4.511005 13.000000
84.025543 9.039076 4.207174 28.000000
37.195889 -11.906497 1.247825 8.000000
67.299294 39.358055 4.536285 13.000000
84.045723 9.352979 4.224668 25.000000
9.072502 -7.967583 0.113803 20.000000
66.922951 39.452103 4.560988 14.000000
84.099442 9.671144 4.243934 22.000000
9.075320 -7.911329 0.105067 14.000000
27.310795 38.359085 2.690352 1.000000
66.565605 39.570923 4.587176 17.000000
9.077868 -7.855180 0.092191 17.000000
23.162336 32.786087 2.328662 10.000000
9.078999 -7.792645 0.087707 27.000000
9.104836 -7.762533 0.079354 29.000000
22.306190 32.058571 2.333995 9.000000
65.517807 39.913799 4.665411 8.000000
9.078490 -7.685510 0.070586 71.000000
22.218744 32.171848 2.363976 9.000000
65.279678 40.097530 4.699152 7.000000
9.102805 -7.648996 0.062256 23.000000
102.002739 14.008913 5.269790 1.000000
9.137308 -7.615621 0.053978 16.000000
102.048759 14.360180 5.292632 10.000000
9.127871 -7.556600 0.047569 28.000000
63.817760 40.157085 4.743824 20.000000
101.841309 14.711846 5.302641 1.000000
9.154290 -7.516744 0.039279 24.000000
21.395666 31.960464 2.466938 9.000000
63.736889 40.417458 4.814396 8.000000
102.293182 15.141830 5.328888 4.000000
9.158540 -7.464200 0.032994 22.000000
63.333946 40.488178 4.834657 7.000000
102.127464 15.500029 5.341256 10.000000
44.950092 -12.254802 1.342086 6.000000
9.159935 -7.414923 0.026739 26.000000
63.013210 40.593681 4.873509 12.000000
9.194860 -7.387574 0.018528 26.000000
23.388050 35.754307 2.860219 9.000000
9.193238 -7.333612 0.010263 30.000000
84.135468 -21.962696 2.474433 15.000000
9.204377 -7.287456 0.004098 25.000000
84.124260 -21.630743 2.441411 15.000000
9.215300 -7.241313 -0.004091 25.000000
20.259506 31.715481 2.618426 9.000000
61.012657 40.567421 4.943553 13.000000
84.174316 -21.315010 2.425413 3.000000
9.229948 -7.198264 -0.008172 24.000000
21.332523 33.666611 2.807989 8.000000
60.753666 40.717117 4.973096 17.000000
9.220676 -7.136837 -0.016280 24.000000
21.197634 33.713444 2.840634 10.000000
44.234592 -10.856872 1.264300 15.000000
9.237342 -7.090623 -0.024389 26.000000
21.083162 33.805725 2.876827 10.000000
44.296940 -10.708374 1.249086 8.000000
9.240912 -7.044787 -0.030421 33.000000
21.008043 33.948620 2.924757 10.000000
60.423191 41.434612 5.136052 21.000000
43.995724 -10.465033 1.231604 5.000000
9.246723 -6.995779 -0.034403 22.000000
20.874035 34.010010 2.965451 8.000000
29.257639 20.221199 2.524412 4.000000
44.208771 -10.344656 1.244428 3.000000
9.276278 -6.964828 -0.042516 27.000000
19.752840 32.436680 2.855565 9.000000
29.178146 20.324688 2.542678 8.000000
83.408455 -19.195036 2.315961 34.000000
9.289698 -6.921805 -0.048527 26.000000
19.733047 32.673153 2.903496 6.000000
60.860424 42.709976 5.368708 8.000000
86.674828 17.004925 4.845477 3.000000
83.517647 -18.898113 2.302098 50.000000
9.265536 -6.853633 -0.056322 67.000000
19.784119 33.017609 2.961738 21.000000
60.644176 42.890812 5.402560 16.000000
36.387459 -8.093561 0.995657 138.000000
17.247019 -12.659929 -0.112023 28.000000
19.719057 33.157925 3.002310 9.000000
60.697746 43.215412 5.458622 10.000000
36.436577 -7.964446 0.989681 255.000000
17.309402 -12.608356 -0.127078 35.000000
21.059620 35.709370 3.262722 26.000000
87.142311 18.078032 4.944584 18.000000
36.410408 -7.825658 0.988222 255.000000
17.323025 -12.521358 -0.138033 29.000000
21.360977 36.511036 3.373711 7.000000
87.268303 18.438044 5.002382 12.000000
