VERSION .7
FIELDS x y z intensity
SIZE 4 4 4 4
TYPE F F F F
COUNT 1 1 1 1
WIDTH 1232
HEIGHT 1
VIEWPOINT 0 0 0 1 0 0 0
POINTS 1232
DATA ascii
14.453881 3.119759 -2.099198 6.000000
17.767862 -3.737799 -2.203641 6.000000
15.888166 -11.433633 -1.602440 8.000000
11.761520 8.592380 -2.018580 5.000000
14.386838 3.047521 -2.098221 6.000000
17.457979 -3.739480 -2.166893 9.000000
15.867000 -11.506908 -1.594217 8.000000
11.747114 8.515998 -2.026225 5.000000
14.357347 2.986333 -2.105370 6.000000
17.176044 -3.748124 -2.139897 6.000000
15.837463 -11.574301 -1.585162 7.000000
11.684076 8.405140 -2.025393 5.000000
14.328835 2.923048 -2.107342 6.000000
17.123064 -3.802363 -2.138125 6.000000
15.819678 -11.650493 -1.577292 8.000000
34.215477 -58.977337 -1.487775 1.000000
11.619823 8.294460 -2.029304 6.000000
14.322724 2.867162 -2.120500 6.000000
17.030827 -3.847434 -2.134540 6.000000
15.877150 -11.782815 -1.583844 8.000000
33.875275 -58.863346 -1.434472 1.000000
11.599655 8.283120 -2.048881 7.000000
14.154514 2.833490 -2.118755 6.000000
16.886141 -3.817846 -2.147163 6.000000
15.868621 -11.780782 -1.621391 8.000000
34.143265 -59.352982 -1.529954 3.000000
11.570665 8.326621 -2.036442 7.000000
14.095422 2.877995 -2.108983 6.000000
16.903763 -3.756761 -2.156846 6.000000
15.822519 -11.656843 -1.626118 7.000000
11.552952 8.378318 -2.031091 5.000000
14.093743 2.931503 -2.115458 6.000000
17.168642 -3.746508 -2.201251 10.000000
15.811464 -11.559534 -1.641270 6.000000
11.517557 8.420320 -2.022917 6.000000
14.067866 2.982519 -2.113278 6.000000
17.447533 -3.740427 -2.247890 9.000000
15.861945 -11.511693 -1.669889 8.000000
11.551244 8.510088 -2.026635 5.000000
14.101082 3.043610 -2.114785 6.000000
17.484241 -3.681321 -2.260370 10.000000
15.793697 -11.374021 -1.675413 8.000000
11.533035 8.562065 -2.018706 5.000000
14.069604 3.093403 -2.114398 6.000000
17.535702 -3.625086 -2.271641 7.000000
15.704158 -11.222357 -1.681905 7.000000
11.573790 8.658300 -2.023664 5.000000
13.980929 3.127670 -2.102781 6.000000
17.470551 -3.541724 -2.270906 6.000000
15.640229 -11.094402 -1.691136 8.000000
11.572308 8.720360 -2.018401 1.000000
14.008678 3.187836 -2.103575 6.000000
17.399162 -3.460909 -2.272551 7.000000
15.651066 -11.016086 -1.704764 8.000000
11.881401 9.028283 -2.067998 1.000000
14.049352 3.253881 -2.111543 6.000000
17.455149 -3.405586 -2.281372 6.000000
15.608210 -10.900592 -1.715829 6.000000
11.869323 9.087920 -2.058385 1.000000
13.907310 3.274737 -2.091985 6.000000
17.363661 -3.321719 -2.280355 6.000000
15.550558 -10.779768 -1.725322 6.000000
11.926568 9.194646 -2.062877 1.000000
13.991572 3.351332 -2.101450 6.000000
17.395393 -3.258602 -2.286002 6.000000
15.576659 -10.713550 -1.737158 6.000000
11.871139 9.228127 -2.048987 1.000000
13.950706 3.395657 -2.094609 19.000000
17.376780 -3.189236 -2.291410 6.000000
15.487082 -10.568533 -1.739338 6.000000
11.924456 9.339890 -2.050622 1.000000
13.789381 3.412527 -2.067275 25.000000
17.309481 -3.111348 -2.287259 6.000000
15.425262 -10.443688 -1.747762 6.000000
11.933168 9.410728 -2.049373 1.000000
13.810371 3.471488 -2.072315 24.000000
17.306259 -3.042218 -2.288392 6.000000
13.813703 -9.278924 -1.573020 6.000000
12.036331 9.570701 -2.060010 4.000000
13.782558 3.520817 -2.070155 25.000000
17.223276 -2.962595 -2.285274 6.000000
13.803215 -9.202121 -1.585688 6.000000
26.620399 -41.417812 -1.986087 9.000000
12.099273 9.693344 -2.063078 2.000000
13.755891 3.567763 -2.063034 31.000000
17.277229 -2.906718 -2.297225 6.000000
14.076458 -9.309939 -1.628010 6.000000
26.825014 -41.401752 -2.050390 22.000000
12.030066 9.710508 -2.046350 6.000000
13.790351 3.635844 -2.062751 31.000000
17.154999 -2.818463 -2.288777 6.000000
12.045775 9.796319 -2.041330 6.000000
13.749240 3.676383 -2.055972 34.000000
17.203974 -2.761790 -2.297039 6.000000
15.205380 -9.897142 -1.782103 6.000000
27.946032 -42.446831 -2.245528 27.000000
12.061017 9.882379 -2.036197 6.000000
13.759900 3.733325 -2.057058 33.000000
17.100950 -2.680995 -2.285030 6.000000
15.181982 -9.802882 -1.787877 7.000000
28.084433 -42.334557 -2.298068 1.000000
12.101945 9.983171 -2.037546 6.000000
13.803411 3.802093 -2.060629 35.000000
17.036314 -2.609966 -2.278223 6.000000
15.132962 -9.692825 -1.790578 16.000000
12.117998 10.074855 -2.035560 9.000000
13.790074 3.852852 -2.055631 39.000000
17.024975 -2.544399 -2.284615 7.000000
15.072746 -9.580222 -1.798376 10.000000
12.082347 10.120338 -2.021807 10.000000
13.780629 3.907320 -2.051341 26.000000
16.891165 -2.461143 -2.271497 7.000000
9.770958 -6.160248 -1.171248 28.000000
12.068993 10.184654 -2.014600 10.000000
13.804270 3.968743 -2.057012 8.000000
16.983519 -2.408041 -2.285703 6.000000
9.729168 -6.084182 -1.175699 39.000000
12.025359 10.223531 -1.999561 10.000000
13.828336 4.030592 -2.057655 6.000000
17.020498 -2.349679 -2.298662 6.000000
9.729568 -6.034939 -1.181144 52.000000
28.215897 -40.962421 -2.545825 1.000000
12.056949 10.326756 -1.997020 10.000000
14.002974 4.139896 -2.083390 6.000000
17.077715 -2.293824 -2.308300 6.000000
9.738211 -5.990987 -1.187587 53.000000
26.195131 -37.717941 -2.406669 1.000000
12.104794 10.441207 -1.996800 8.000000
13.997885 4.194242 -2.079702 6.000000
17.046684 -2.223054 -2.305989 6.000000
9.772127 -5.962591 -1.197129 41.000000
26.306068 -37.624840 -2.462236 1.000000
12.116446 10.528954 -1.990849 6.000000
14.024999 4.261120 -2.080926 6.000000
16.857672 -2.135598 -2.282366 8.000000
9.754552 -5.902914 -1.204389 39.000000
12.160960 10.646116 -1.993105 6.000000
13.986670 4.305533 -2.069750 6.000000
16.736683 -2.055006 -2.273889 7.000000
9.630451 -5.779698 -1.194372 45.000000
24.840366 -34.992577 -2.399208 1.000000
12.201325 10.760700 -1.991760 4.000000
13.999152 4.365612 -2.073951 6.000000
16.733868 -1.992431 -2.275494 10.000000
9.642307 -5.738849 -1.201149 25.000000
24.870373 -34.777023 -2.450255 8.000000
12.396597 11.013954 -2.018463 5.000000
14.058507 4.443423 -2.080008 6.000000
16.740269 -1.930994 -2.281376 10.000000
9.692154 -5.720514 -1.216660 1.000000
24.978643 -34.659237 -2.493279 8.000000
12.476337 11.166893 -2.017341 3.000000
14.029016 4.490723 -2.070200 6.000000
16.718409 -1.863452 -2.274416 7.000000
15.992726 -9.360378 -2.016342 7.000000
25.238815 -34.738251 -2.558558 3.000000
12.495622 11.266914 -2.012228 5.000000
14.101846 4.573805 -2.078247 6.000000
16.759214 -1.805837 -2.282047 6.000000
9.869907 -5.728292 -1.249792 53.000000
25.257843 -34.535755 -2.594443 3.000000
12.536134 11.387023 -2.013468 4.000000
14.100135 4.630435 -2.072559 6.000000
16.601912 -1.727356 -2.268651 7.000000
9.851500 -5.669440 -1.250844 84.000000
12.605506 11.534639 -2.016267 4.000000
14.021981 4.661774 -2.063569 6.000000
16.667185 -1.669482 -2.279655 7.000000
9.900296 -5.651610 -1.266611 1.000000
12.601205 11.615847 -2.004180 4.000000
14.085470 4.743021 -2.062355 6.000000
16.574562 -1.598868 -2.266170 7.000000
12.610775 11.710455 -1.997293 6.000000
14.157058 4.824971 -2.075413 6.000000
16.560453 -1.533352 -2.266376 7.000000
12.694697 11.871179 -1.998692 6.000000
14.079435 4.856186 -2.058681 6.000000
16.461157 -1.463327 -2.260851 8.000000
21.817511 -28.743507 -2.390497 1.000000
12.684658 11.949238 -1.991667 6.000000
14.117816 4.930162 -2.059067 23.000000
16.259096 -1.385321 -2.232387 21.000000
10.054069 -5.543278 -1.306059 3.000000
21.984566 -28.744219 -2.441651 3.000000
12.717713 12.068659 -1.988291 6.000000
14.086318 4.977162 -2.051806 24.000000
16.184910 -1.316423 -2.224378 17.000000
16.520391 -9.029666 -2.155059 6.000000
21.964468 -28.511148 -2.466215 6.000000
12.717742 12.157585 -1.979699 4.000000
14.003683 5.005774 -2.034495 26.000000
16.139851 -1.253229 -2.220418 10.000000
16.483751 -8.938775 -2.156348 6.000000
12.892925 12.415810 -1.995060 1.000000
13.985025 5.059748 -2.029304 26.000000
16.119843 -1.189425 -2.217021 19.000000
16.368736 -8.791558 -2.156385 6.000000
12.944887 12.557618 -1.994277 2.000000
14.013910 5.128363 -2.028250 26.000000
16.079235 -1.127190 -2.213719 25.000000
16.298691 -8.677117 -2.156019 6.000000
13.069313 12.767176 -2.004162 1.000000
14.013938 5.186694 -2.028336 19.000000
16.047890 -1.065899 -2.214571 20.000000
16.153704 -8.524090 -2.142387 6.000000
21.017809 -26.470390 -2.470244 3.000000
13.165639 12.955917 -2.006628 1.000000
14.022753 5.251263 -2.024531 8.000000
15.983036 -0.999966 -2.202228 17.000000
16.121906 -8.431912 -2.146934 6.000000
20.837755 -26.074991 -2.474585 3.000000
13.228995 13.114052 -2.003862 2.000000
14.078548 5.331075 -2.027368 9.000000
15.981650 -0.941088 -2.201546 16.000000
15.983860 -8.285246 -2.137238 6.000000
20.205477 -25.076723 -2.421438 1.000000
13.269777 13.251263 -2.004140 2.000000
14.073458 5.388208 -2.024110 7.000000
15.959265 -0.878292 -2.206510 19.000000
15.955047 -8.196260 -2.145229 6.000000
20.762726 -25.603262 -2.519071 2.000000
13.344366 13.419104 -1.999086 2.000000
14.202497 5.497381 -2.037436 6.000000
16.001949 -0.821824 -2.211980 6.000000
15.962193 -8.126125 -2.148513 6.000000
19.558685 -23.938635 -2.389464 1.000000
13.366429 13.540187 -1.989668 1.000000
14.214579 5.564909 -2.034084 6.000000
16.093771 -0.770224 -2.224288 6.000000
15.917143 -8.036840 -2.148321 6.000000
19.488228 -23.683191 -2.408441 1.000000
13.397740 13.671772 -1.988265 6.000000
14.148333 5.598865 -2.024824 7.000000
16.002087 -0.707061 -2.214092 6.000000
15.833837 -7.922083 -2.148821 6.000000
19.404413 -23.405958 -2.424842 2.000000
13.422921 13.788640 -1.981804 6.000000
14.087278 5.634510 -2.010944 6.000000
16.048334 -0.650179 -2.225860 6.000000
15.776932 -7.821443 -2.149669 6.000000
19.433254 -23.274910 -2.450236 4.000000
14.072751 5.688617 -1.998356 7.000000
16.071491 -0.583697 -2.222992 6.000000
15.722540 -7.716008 -2.147328 6.000000
19.130131 -22.725809 -2.431808 7.000000
8.824799 9.195987 -1.285633 8.000000
14.037361 5.737117 -1.993752 6.000000
15.973176 -0.527094 -2.217668 6.000000
15.595966 -7.586454 -2.141775 6.000000
19.067442 -22.507435 -2.451123 6.000000
8.648088 9.084562 -1.251925 25.000000
14.036170 5.796759 -1.983107 6.000000
16.055065 -0.468090 -2.223057 6.000000
15.488887 -7.464289 -2.129393 6.000000
18.889648 -22.132578 -2.443393 5.000000
8.580909 9.074056 -1.237744 30.000000
14.042603 5.859755 -1.984336 6.000000
16.016289 -0.408212 -2.223165 6.000000
15.501027 -7.400254 -2.142540 6.000000
18.873903 -21.958437 -2.467055 6.000000
8.519553 9.072402 -1.218102 34.000000
13.990004 5.898103 -1.971861 6.000000
15.913758 -0.344461 -2.208734 6.000000
15.437668 -7.300649 -2.136123 6.000000
18.688421 -21.582113 -2.462570 8.000000
8.446616 9.067400 -1.199768 31.000000
13.991012 5.961901 -1.967118 7.000000
15.890156 -0.285686 -2.205298 6.000000
15.438199 -7.225210 -2.147275 6.000000
18.264326 -20.944168 -2.426359 9.000000
8.369883 9.044983 -1.182269 31.000000
13.997339 6.025311 -1.962987 6.000000
15.950521 -0.228295 -2.213544 6.000000
15.452051 -7.169325 -2.154945 6.000000
17.895510 -20.370029 -2.396042 8.000000
8.295308 9.027402 -1.163223 21.000000
13.932735 6.052344 -1.948646 7.000000
15.886899 -0.166373 -2.204610 6.000000
15.301423 -7.031398 -2.139288 6.000000
17.648495 -19.940979 -2.376589 9.000000
8.226078 9.018183 -1.145247 31.000000
13.929559 6.111750 -1.943226 8.000000
15.872545 -0.108043 -2.202549 6.000000
15.281798 -6.951437 -2.144708 6.000000
17.660000 -19.814188 -2.396829 8.000000
8.141872 8.988688 -1.125074 23.000000
13.910374 6.170039 -1.935892 9.000000
15.847697 -0.047021 -2.201879 6.000000
15.288061 -6.886769 -2.150954 6.000000
17.354815 -19.342258 -2.374128 8.000000
8.059719 8.963802 -1.105523 33.000000
13.896864 6.228014 -1.926523 9.000000
15.808530 0.005518 -2.193615 6.000000
15.241862 -6.805249 -2.150151 7.000000
17.066690 -18.881454 -2.352108 5.000000
8.000925 8.964279 -1.091385 33.000000
13.877053 6.274479 -1.918549 9.000000
15.862881 0.063678 -2.201174 6.000000
15.218128 -6.721515 -2.151836 6.000000
16.806044 -18.463125 -2.329265 8.000000
7.927399 8.944554 -1.072990 42.000000
13.859386 6.327775 -1.911197 9.000000
15.822901 0.124275 -2.195677 6.000000
15.182569 -6.639413 -2.152174 6.000000
16.726641 -18.228359 -2.338592 7.000000
7.878685 8.949202 -1.057822 36.000000
13.827995 6.374794 -1.901980 9.000000
15.822338 0.182268 -2.195677 5.000000
15.140924 -6.558339 -2.151798 6.000000
16.485016 -17.845882 -2.317915 8.000000
7.820336 8.948843 -1.041842 37.000000
13.821178 6.427310 -1.895858 7.000000
15.692770 0.241043 -2.177809 9.000000
15.136480 -6.490632 -2.156543 6.000000
16.220127 -17.436619 -2.297266 8.000000
7.753615 8.935250 -1.028780 38.000000
13.804312 6.489932 -1.886444 6.000000
15.553136 0.295920 -2.158566 9.000000
15.099807 -6.409488 -2.156693 7.000000
16.098797 -17.179493 -2.291887 8.000000
7.708507 8.949322 -1.014679 35.000000
13.790289 6.545161 -1.879679 6.000000
15.556899 0.353035 -2.159254 14.000000
15.090165 -6.340222 -2.160701 7.000000
15.951553 -16.903719 -2.295275 8.000000
7.640728 8.936664 -0.997660 30.000000
13.791777 6.601994 -1.874728 7.000000
15.560378 0.412898 -2.159941 22.000000
15.112651 -6.281507 -2.174984 6.000000
15.662362 -16.475868 -2.264992 8.000000
7.584361 8.933685 -0.982006 74.000000
13.782068 6.659545 -1.865868 7.000000
15.559136 0.469938 -2.157224 17.000000
15.084099 -6.204901 -2.176279 6.000000
15.517989 -16.204639 -2.259241 8.000000
7.553897 8.961015 -0.967688 33.000000
13.794133 6.727849 -1.862673 8.000000
15.527518 0.528666 -2.153106 27.000000
15.051306 -6.127007 -2.171180 7.000000
15.479475 -16.046272 -2.260780 8.000000
7.499157 8.962532 -0.954610 36.000000
13.732555 6.766188 -1.847166 8.000000
15.545274 0.586321 -2.155852 24.000000
15.037944 -6.051313 -2.174370 6.000000
15.410482 -15.852481 -2.272989 8.000000
7.444602 8.963883 -0.939559 31.000000
13.284107 6.600069 -1.781901 28.000000
15.543133 0.640580 -2.155852 17.000000
14.969747 -5.963239 -2.175803 8.000000
15.294608 -15.629250 -2.267527 8.000000
7.398240 8.971592 -0.921314 38.000000
13.187618 6.618268 -1.762058 25.000000
15.501230 0.701196 -2.147653 23.000000
14.995757 -5.910009 -2.179285 6.000000
15.204045 -15.423214 -2.260988 8.000000
7.340580 8.974827 -0.908432 36.000000
13.193933 6.684980 -1.758464 15.000000
15.552217 0.760630 -2.160628 26.000000
14.989882 -5.838284 -2.189305 6.000000
15.075191 -15.175507 -2.263341 8.000000
7.294081 8.975365 -0.893978 37.000000
13.145709 6.715422 -1.749770 16.000000
15.530062 0.813896 -2.155165 9.000000
14.999204 -5.784704 -2.193568 6.000000
14.997468 -14.997468 -2.262911 8.000000
7.258686 8.999002 -0.879468 46.000000
13.113531 6.759705 -1.735719 20.000000
15.631573 0.876677 -2.164114 6.000000
14.923025 -5.689598 -2.187735 6.000000
14.938030 -14.828927 -2.264306 7.000000
7.212123 9.005422 -0.867504 37.000000
13.147016 6.838071 -1.732968 19.000000
15.707195 0.941433 -2.175068 6.000000
14.854643 -5.601254 -2.183155 6.000000
14.810015 -14.594465 -2.258806 7.000000
7.157857 8.998659 -0.854471 36.000000
13.135859 6.893555 -1.726943 9.000000
15.708961 0.999335 -2.173005 6.000000
14.841870 -5.534390 -2.183916 7.000000
14.649866 -14.336195 -2.244835 7.000000
7.108537 9.007432 -0.836598 35.000000
13.133514 6.953837 -1.719460 9.000000
15.680677 1.058004 -2.166843 6.000000
14.820827 -5.461815 -2.180527 6.000000
14.272861 -13.865217 -2.200354 8.000000
7.059221 9.009434 -0.820433 37.000000
13.135283 7.016534 -1.712512 9.000000
15.701397 1.117227 -2.170258 6.000000
14.778461 -5.384762 -2.185365 6.000000
14.458121 -13.942552 -2.238765 6.000000
6.999120 9.000485 -0.805277 34.000000
13.140876 7.081551 -1.708695 36.000000
15.722272 1.176645 -2.170921 6.000000
14.857586 -5.351989 -2.202579 6.000000
14.263361 -13.654198 -2.221780 7.000000
6.965124 9.021576 -0.792989 33.000000
13.065385 7.108695 -1.692056 22.000000
15.702824 1.235839 -2.168875 6.000000
14.766056 -5.255053 -2.186002 6.000000
14.276167 -13.566532 -2.229939 8.000000
6.905208 9.012062 -0.777977 34.000000
13.090692 7.178827 -1.687850 27.000000
15.654137 1.289755 -2.159995 6.000000
14.714070 -5.175870 -2.183810 6.000000
14.176929 -13.378362 -2.231254 9.000000
6.847015 9.001020 -0.763058 30.000000
13.104450 7.248973 -1.682451 30.000000
15.634638 1.348608 -2.155212 6.000000
14.662066 -5.097265 -2.178829 6.000000
14.032317 -13.144999 -2.217897 12.000000
6.820547 9.034756 -0.749902 7.000000
13.105108 7.312195 -1.672704 28.000000
15.560520 1.399690 -2.145688 6.000000
14.539967 -4.992323 -2.166029 9.000000
14.064715 -13.078892 -2.229014 8.000000
6.750535 9.007229 -0.733818 37.000000
13.105220 7.375374 -1.665529 56.000000
15.639503 1.464599 -2.154512 6.000000
14.637153 -4.965795 -2.183283 10.000000
13.998002 -12.921509 -2.227771 7.000000
6.694272 8.994152 -0.719150 31.000000
13.096395 7.433743 -1.657218 25.000000
15.683442 1.529485 -2.158556 6.000000
14.630700 -4.903883 -2.187867 21.000000
13.874847 -12.713956 -2.224049 7.000000
6.654383 9.006024 -0.706464 38.000000
13.168770 7.538774 -1.664501 6.000000
15.663318 1.585498 -2.153773 6.000000
14.634597 -4.842764 -2.191142 22.000000
13.794751 -12.547857 -2.223626 7.000000
6.602558 9.008049 -0.690930 31.000000
16.202650 9.354605 -2.039079 6.000000
15.652189 1.645111 -2.153095 6.000000
14.631606 -4.782346 -2.201761 10.000000
13.748608 -12.418462 -2.225587 7.000000
6.546638 8.994159 -0.676503 31.000000
16.320452 9.502543 -2.038264 6.000000
15.616878 1.699294 -2.146287 6.000000
14.639616 -4.725646 -2.200346 21.000000
13.578511 -12.174748 -2.203731 6.000000
6.509768 9.009434 -0.664256 6.000000
16.299601 9.570567 -2.026678 6.000000
15.635531 1.759333 -2.146925 6.000000
14.656552 -4.669048 -2.208400 10.000000
13.569406 -12.077161 -2.214357 5.000000
6.475594 9.035016 -0.650676 1.000000
16.393970 9.706957 -2.029369 3.000000
15.668401 1.823982 -2.149580 6.000000
14.635063 -4.603188 -2.208071 9.000000
13.552330 -11.973232 -2.223616 7.000000
6.544215 9.201801 -0.645137 1.000000
16.466225 9.831426 -2.029221 6.000000
15.643049 1.879167 -2.138630 6.000000
14.641648 -4.546352 -2.211998 10.000000
13.434819 -11.782020 -2.206733 7.000000
6.506683 9.216979 -0.632752 1.000000
16.473890 9.918088 -2.021058 6.000000
15.665590 1.942923 -2.139910 6.000000
14.634229 -4.482513 -2.216442 11.000000
13.318983 -11.594350 -2.199488 7.000000
6.432209 9.172510 -0.616541 1.000000
16.791464 10.193320 -2.050724 6.000000
15.570267 1.989073 -2.125081 6.000000
14.687711 -4.440076 -2.227531 10.000000
13.281101 -11.476079 -2.201828 7.000000
6.418873 9.225237 -0.606696 1.000000
16.840044 10.307468 -2.047324 6.000000
15.662210 2.053627 -2.135740 6.000000
14.670712 -4.373529 -2.227847 9.000000
13.144642 -11.274282 -2.187692 7.000000
16.862619 10.406437 -2.040711 6.000000
15.614557 2.113946 -2.127630 6.000000
14.685897 -4.319510 -2.233190 9.000000
13.188193 -11.228002 -2.203434 7.000000
6.199853 9.044496 -0.565080 26.000000
17.037344 10.600687 -2.045310 6.000000
15.584022 2.162462 -2.116047 6.000000
14.719146 -4.276307 -2.236078 10.000000
13.080342 -11.053746 -2.190782 7.000000
6.133347 9.018172 -0.548668 33.000000
16.965866 10.642669 -2.027272 6.000000
15.585392 2.226456 -2.114632 6.000000
14.712018 -4.207490 -2.240481 10.000000
12.990120 -10.896141 -2.184007 7.000000
6.090971 9.023440 -0.536263 40.000000
17.066692 10.793285 -2.029792 6.000000
15.567287 2.284898 -2.110555 6.000000
14.778960 -4.168098 -2.253809 9.000000
12.891025 -10.732776 -2.178577 7.000000
6.057017 9.041036 -0.522722 26.000000
17.168558 10.941791 -2.032082 6.000000
15.696475 2.357058 -2.131938 6.000000
14.849850 -4.132187 -2.267903 7.000000
12.860014 -10.627392 -2.181545 7.000000
6.018610 9.055307 -0.510856 1.000000
17.280228 11.102229 -2.035621 6.000000
15.629635 2.408423 -2.115671 6.000000
14.860783 -4.071026 -2.272554 6.000000
12.836373 -10.528917 -2.182763 7.000000
17.533566 11.355999 -2.048265 6.000000
15.685072 2.475853 -2.118747 6.000000
14.860512 -4.012456 -2.275738 6.000000
12.773453 -10.399225 -2.180192 7.000000
17.484983 11.415719 -2.029067 6.000000
15.676256 2.533384 -2.115976 6.000000
14.836801 -3.944994 -2.275247 6.000000
12.694348 -10.257689 -2.174753 7.000000
17.647913 11.614571 -2.038014 6.000000
15.696842 2.598596 -2.111608 6.000000
14.803314 -3.878054 -2.267917 6.000000
12.645325 -10.141690 -2.174370 7.000000
17.577374 11.660700 -2.019927 6.000000
15.795093 2.674376 -2.123284 6.000000
14.854303 -3.836053 -2.279137 6.000000
12.657660 -10.075573 -2.184501 7.000000
17.621078 11.778478 -2.007265 8.000000
15.732188 2.723077 -2.110484 6.000000
14.805184 -3.765539 -2.274918 6.000000
12.522544 -9.893257 -2.163418 7.000000
17.698383 11.924232 -2.009763 6.000000
15.804957 2.798219 -2.118822 6.000000
14.746803 -3.690463 -2.269177 8.000000
12.518244 -9.815557 -2.170585 7.000000
17.685120 12.009772 -1.990659 8.000000
15.814470 2.859722 -2.118634 6.000000
14.794342 -3.639315 -2.279663 6.000000
12.435358 -9.677176 -2.164057 7.000000
5.931908 9.496725 -0.420364 9.000000
17.921507 12.266519 -2.007022 6.000000
15.799733 2.916900 -2.112373 6.000000
14.787345 -3.582900 -2.279359 6.000000
12.418284 -9.591019 -2.168906 7.000000
5.849011 9.437167 -0.401298 31.000000
18.050005 12.451863 -2.007211 6.000000
15.882065 2.995206 -2.116294 6.000000
14.776327 -3.522943 -2.275655 7.000000
12.294626 -9.423775 -2.155040 7.000000
5.831992 9.483476 -0.388780 20.000000
18.108173 12.590197 -1.995511 6.000000
15.881443 3.055409 -2.111947 6.000000
14.769713 -3.461486 -2.277987 7.000000
12.261184 -9.326999 -2.151395 7.000000
5.822487 9.542509 -0.378645 1.000000
18.403795 12.891264 -2.017221 6.000000
15.909422 3.121305 -2.114297 6.000000
14.762255 -3.402708 -2.280306 7.000000
12.266120 -9.259979 -2.159966 7.000000
18.565931 13.106531 -2.012258 6.000000
15.976554 3.198231 -2.113268 6.000000
14.789679 -3.349276 -2.282539 7.000000
12.237273 -9.164648 -2.156838 7.000000
5.581240 9.292418 -0.338758 1.000000
18.567612 13.209953 -2.001642 6.000000
15.921360 3.247920 -2.104644 6.000000
14.724250 -3.277771 -2.273264 7.000000
12.217313 -9.079995 -2.163700 7.000000
5.406686 9.077003 -0.317260 33.000000
18.811380 13.487499 -2.021024 5.000000
15.953764 3.315483 -2.104736 6.000000
14.687090 -3.213046 -2.271061 9.000000
12.173300 -8.978211 -2.163531 7.000000
5.367533 9.083239 -0.303920 35.000000
18.891077 13.644734 -2.010104 6.000000
15.999491 3.389124 -2.109568 4.000000
14.717876 -3.160614 -2.279303 7.000000
12.241155 -8.959171 -2.177846 8.000000
5.356200 9.136727 -0.292133 1.000000
18.902769 13.758884 -1.996147 6.000000
16.051418 3.461643 -2.106421 6.000000
14.714463 -3.103506 -2.279682 8.000000
12.248343 -8.895677 -2.186794 7.000000
19.090919 14.003165 -1.996450 6.000000
16.107161 3.535495 -2.109571 6.000000
14.668179 -3.034964 -2.270689 8.000000
12.247820 -8.826908 -2.188980 7.000000
19.454298 14.369166 -2.022419 5.000000
16.086025 3.586810 -2.105425 5.000000
14.610605 -2.967251 -2.265402 33.000000
12.255034 -8.770509 -2.201175 8.000000
19.485949 14.497944 -2.001081 6.000000
16.141283 3.664247 -2.102741 5.000000
14.602885 -2.907344 -2.259799 40.000000
12.274584 -8.706981 -2.206165 8.000000
19.516958 14.643096 -1.984563 7.000000
16.190701 3.743871 -2.099332 6.000000
14.623146 -2.855697 -2.261299 80.000000
12.240430 -8.615492 -2.205011 7.000000
19.726921 14.913941 -1.989735 7.000000
16.260651 3.816895 -2.107070 6.000000
14.623905 -2.797596 -2.262397 60.000000
9.923027 -6.930127 -1.789438 194.000000
5.435180 9.733086 -0.219888 1.000000
19.919603 15.158195 -1.987583 7.000000
16.170767 3.858386 -2.085451 6.000000
14.658354 -2.748533 -2.266153 53.000000
9.944727 -6.888624 -1.795042 7.000000
5.475704 9.882499 -0.207072 1.000000
20.055702 15.378161 -1.975706 8.000000
16.412792 3.982803 -2.106645 6.000000
14.693500 -2.696762 -2.267301 63.000000
5.479904 9.886009 -0.201245 1.000000
20.273399 15.539468 -1.974458 9.000000
16.580301 4.020388 -2.103868 3.000000
14.802421 -2.716753 -2.270674 80.000000
5.476742 9.807513 -0.207841 1.000000
20.193649 15.372302 -1.966172 7.000000
16.614231 3.964197 -2.106315 4.000000
14.886649 -2.788650 -2.271631 84.000000
9.906365 -6.862051 -1.768775 35.000000
5.510088 9.782824 -0.219507 1.000000
20.170547 15.227215 -1.975706 7.000000
16.654202 3.906208 -2.103404 6.000000
14.935672 -2.857238 -2.269916 49.000000
9.941344 -6.945501 -1.764852 43.000000
5.450306 9.598173 -0.225425 1.000000
20.131006 15.087335 -1.979915 7.000000
16.566145 3.821551 -2.096524 5.000000
14.965096 -2.919764 -2.267838 19.000000
12.401717 -8.732250 -2.191083 8.000000
20.121065 14.965027 -1.991145 7.000000
16.671635 3.781583 -2.111135 5.000000
15.027311 -2.991845 -2.273524 8.000000
12.387017 -8.789987 -2.183339 8.000000
20.387476 15.047427 -2.025389 6.000000
16.719936 3.725095 -2.115424 6.000000
15.133747 -3.070745 -2.283051 7.000000
12.364623 -8.842412 -2.168845 7.000000
20.059093 14.691792 -2.009242 4.000000
16.592899 3.633009 -2.097653 4.000000
15.229581 -3.151123 -2.290996 7.000000
12.422016 -8.952451 -2.171021 7.000000
5.400229 9.204466 -0.266401 1.000000
19.672266 14.297984 -1.982322 7.000000
16.620298 3.575222 -2.102458 5.000000
15.276798 -3.219326 -2.294291 7.000000
12.430403 -9.027902 -2.167315 8.000000
5.406761 9.142333 -0.274422 27.000000
19.747011 14.252475 -1.997917 6.000000
16.647751 3.514301 -2.110239 6.000000
15.279617 -3.281245 -2.291017 7.000000
12.451002 -9.112757 -2.160238 7.000000
5.420550 9.093058 -0.286452 32.000000
19.658361 14.074005 -2.004707 6.000000
16.689671 3.459302 -2.113931 6.000000
15.330709 -3.351045 -2.297706 7.000000
12.506713 -9.224114 -2.161930 7.000000
19.485258 13.842334 -1.998670 6.000000
16.682426 3.394078 -2.114441 6.000000
15.363353 -3.417228 -2.293238 9.000000
12.522034 -9.306466 -2.156583 7.000000
5.715618 9.433889 -0.323517 1.000000
19.433195 13.698455 -2.000703 6.000000
16.597296 3.310442 -2.108023 6.000000
15.403591 -3.488303 -2.298412 7.000000
12.648239 -9.472425 -2.167421 7.000000
5.818657 9.528750 -0.339167 1.000000
19.355490 13.547826 -1.996372 6.000000
16.657234 3.265001 -2.111241 6.000000
15.363330 -3.538432 -2.283086 8.000000
12.710152 -9.591705 -2.167054 7.000000
5.822849 9.461205 -0.351070 18.000000
19.191359 13.318481 -1.994446 6.000000
16.712215 3.212216 -2.122736 6.000000
15.340769 -3.595320 -2.276153 7.000000
12.814455 -9.744338 -2.176605 6.000000
5.871480 9.466038 -0.361738 13.000000
19.165039 13.196405 -2.003035 6.000000
16.701508 3.137672 -2.116675 6.000000
15.381602 -3.664415 -2.275738 7.000000
12.854896 -9.849658 -2.175203 7.000000
5.913811 9.456729 -0.377799 12.000000
19.094387 13.049738 -2.011211 6.000000
16.701679 3.074372 -2.127295 4.000000
15.377039 -3.725779 -2.277162 6.000000
12.894441 -9.955176 -2.176477 7.000000
6.023870 9.558342 -0.392567 4.000000
18.880852 12.812154 -2.000285 6.000000
16.687735 3.014626 -2.121229 3.000000
15.374433 -3.784860 -2.267533 6.000000
13.024277 -10.131824 -2.184129 7.000000
6.059615 9.541061 -0.406550 1.000000
18.773643 12.629638 -2.003438 6.000000
16.693207 2.949471 -2.129484 5.000000
15.399638 -3.850982 -2.267663 6.000000
13.026965 -10.210775 -2.182024 7.000000
18.810940 12.554826 -2.010451 6.000000
16.713682 2.889958 -2.130731 6.000000
15.419086 -3.918814 -2.267059 6.000000
13.107964 -10.352046 -2.184139 7.000000
18.460606 12.223443 -1.991578 6.000000
16.714010 2.826963 -2.132443 6.000000
15.453317 -3.987868 -2.268542 6.000000
13.211097 -10.512346 -2.192745 7.000000
18.525425 12.178188 -2.002004 6.000000
16.670536 2.753811 -2.128527 6.000000
15.515275 -4.067462 -2.274202 8.000000
13.305511 -10.667353 -2.199759 7.000000
18.443338 12.027648 -2.007729 6.000000
16.704638 2.696586 -2.134605 6.000000
15.453947 -4.111978 -2.256019 9.000000
13.321826 -10.760880 -2.193770 7.000000
18.473564 11.941939 -2.021271 6.000000
16.665405 2.627616 -2.128347 6.000000
15.363052 -4.148147 -2.239289 9.000000
13.468432 -10.961120 -2.209113 7.000000
6.054968 9.099671 -0.465750 30.000000
18.314938 11.753468 -2.014961 6.000000
16.694618 2.566565 -2.133798 6.000000
15.405067 -4.223020 -2.242074 14.000000
13.429949 -11.011870 -2.190927 7.000000
6.058604 9.036580 -0.475015 40.000000
18.333668 11.675336 -2.027831 6.000000
16.713356 2.506775 -2.138001 6.000000
15.390238 -4.279664 -2.236498 10.000000
13.498066 -11.150708 -2.193172 7.000000
6.110979 9.042867 -0.487971 28.000000
18.197872 11.486443 -2.026639 6.000000
16.594448 2.426785 -2.124612 6.000000
15.383974 -4.341628 -2.232305 24.000000
13.351787 -11.112450 -2.160612 9.000000
6.173089 9.066396 -0.503829 1.000000
18.230742 11.422825 -2.037435 6.000000
16.706404 2.377673 -2.140754 6.000000
15.373468 -4.399561 -2.227415 27.000000
13.289680 -11.135563 -2.141162 21.000000
18.059898 11.223811 -2.028710 6.000000
16.640938 2.306161 -2.134247 6.000000
15.400791 -4.468514 -2.228026 24.000000
13.257666 -11.199630 -2.127856 10.000000
18.023382 11.101072 -2.030771 6.000000
16.678402 2.249080 -2.140965 6.000000
15.374763 -4.525039 -2.221056 21.000000
13.323771 -11.339418 -2.129627 6.000000
17.994783 10.992685 -2.037853 6.000000
16.735725 2.191415 -2.150221 6.000000
15.378542 -4.587465 -2.212598 11.000000
13.916907 -11.932446 -2.211928 7.000000
17.808638 10.798043 -2.027383 6.000000
16.640318 2.116916 -2.136952 6.000000
15.390812 -4.652623 -2.211083 8.000000
14.058919 -12.143900 -2.221823 7.000000
17.795174 10.692418 -2.035579 6.000000
16.716496 2.061413 -2.151678 6.000000
15.383411 -4.714927 -2.204021 8.000000
14.094430 -12.265063 -2.217988 6.000000
17.624176 10.510287 -2.026485 6.000000
16.679989 1.994874 -2.143044 6.000000
15.380953 -4.775913 -2.200435 6.000000
14.159713 -12.404625 -2.218065 7.000000
17.622814 10.422104 -2.036357 6.000000
16.731157 1.938820 -2.151678 6.000000
15.364078 -4.832486 -2.194813 6.000000
14.295845 -12.621231 -2.230093 10.000000
17.693998 10.376857 -2.054637 6.000000
16.733177 1.873969 -2.153983 6.000000
15.416946 -4.914246 -2.199292 6.000000
14.344009 -12.757609 -2.224511 8.000000
6.597379 9.053903 -0.624362 40.000000
17.550047 10.206172 -2.047881 6.000000
16.754351 1.814188 -2.158828 6.000000
15.654548 -5.053264 -2.227042 6.000000
14.461372 -12.957234 -2.232892 8.000000
6.633018 9.033063 -0.638332 38.000000
17.599024 10.148519 -2.063570 6.000000
16.735102 1.750071 -2.164462 6.000000
15.613107 -5.103150 -2.217954 6.000000
14.551671 -13.134610 -2.236921 8.000000
6.678949 9.029377 -0.651516 33.000000
16.806217 1.692297 -2.169806 6.000000
15.618020 -5.171215 -2.212686 6.000000
14.607793 -13.282751 -2.235564 8.000000
6.744469 9.048399 -0.664550 12.000000
13.123248 7.439902 -1.550950 42.000000
16.772251 1.632712 -2.164710 6.000000
15.614520 -5.233638 -2.203188 7.000000
14.703625 -13.468670 -2.236624 8.000000
6.838379 9.107865 -0.686625 7.000000
13.127804 7.379036 -1.558907 32.000000
16.793104 1.566718 -2.169565 5.000000
15.736025 -5.338598 -2.223079 7.000000
14.889322 -13.739470 -2.254615 7.000000
6.838156 9.044944 -0.691532 19.000000
13.123399 7.313393 -1.565792 28.000000
16.882063 1.515594 -2.183368 6.000000
15.713706 -5.392263 -2.213718 6.000000
15.030815 -13.962606 -2.264916 8.000000
6.890466 9.041757 -0.707248 33.000000
13.105629 7.240666 -1.571063 31.000000
16.848103 1.444392 -2.181209 6.000000
15.707435 -5.460687 -2.204090 6.000000
15.210752 -14.238952 -2.281850 7.000000
6.927608 9.024974 -0.719783 29.000000
13.105431 7.177987 -1.573148 36.000000
16.775200 1.373277 -2.165100 6.000000
15.739840 -5.536697 -2.202580 7.000000
15.315990 -14.443156 -2.279538 8.000000
6.978491 9.022602 -0.733623 39.000000
13.108594 7.117385 -1.583548 8.000000
16.838312 1.316333 -2.181598 6.000000
15.756545 -5.610653 -2.201977 7.000000
15.225024 -14.463166 -2.251627 8.000000
7.046183 9.044704 -0.751482 29.000000
13.245548 7.123049 -1.607244 5.000000
16.828190 1.253504 -2.179677 6.000000
15.736958 -5.668756 -2.193219 7.000000
15.417594 -14.753980 -2.269254 8.000000
7.081794 9.022015 -0.765822 38.000000
13.299055 7.095070 -1.618856 4.000000
16.812712 1.187455 -2.180056 6.000000
15.744385 -5.736712 -2.194195 6.000000
15.442324 -14.881259 -2.265385 8.000000
7.140671 9.031931 -0.778868 39.000000
13.298102 7.032071 -1.620903 6.000000
16.841311 1.127456 -2.186209 6.000000
15.808428 -5.825768 -2.194118 6.000000
15.543084 -15.088620 -2.261507 8.000000
7.191903 9.034986 -0.791308 36.000000
13.436744 7.042486 -1.650718 6.000000
16.815453 1.066778 -2.182356 6.000000
15.773078 -5.881629 -2.183367 7.000000
15.574142 -15.230042 -2.258760 8.000000
7.247781 9.033777 -0.807851 35.000000
13.212425 6.857450 -1.630281 8.000000
16.764769 0.996011 -2.178222 6.000000
15.766403 -5.945052 -2.176474 7.000000
15.906402 -15.669424 -2.287694 8.000000
7.274029 9.005150 -0.819626 38.000000
13.247588 6.820031 -1.639716 6.000000
16.911552 0.948463 -2.196872 6.000000
15.805453 -6.026035 -2.178897 6.000000
15.973093 -15.845364 -2.285388 7.000000
7.333106 9.013738 -0.837001 33.000000
13.413389 6.843312 -1.665103 6.000000
16.761564 0.875503 -2.176936 6.000000
15.788950 -6.086118 -2.170676 7.000000
16.116611 -16.105362 -2.298283 8.000000
7.381341 9.005402 -0.850992 36.000000
13.690123 6.921377 -1.707137 6.000000
16.922762 0.821740 -2.200473 6.000000
15.817351 -6.166928 -2.168785 6.000000
16.259024 -16.367216 -2.302728 7.000000
7.424952 8.994386 -0.862628 25.000000
14.101386 7.064527 -1.760754 6.000000
16.837261 0.755742 -2.182998 6.000000
15.848284 -6.239610 -2.169809 6.000000
16.300709 -16.518375 -2.291835 8.000000
7.489122 8.998300 -0.878207 31.000000
14.108001 7.003272 -1.772281 6.000000
16.957792 0.695918 -2.207299 6.000000
15.806079 -6.296394 -2.155404 6.000000
16.468630 -16.817209 -2.299619 8.000000
7.526364 8.985484 -0.891604 35.000000
14.155032 6.962070 -1.783336 6.000000
16.895819 0.631353 -2.198916 6.000000
15.850242 -6.374970 -2.158238 6.000000
16.793613 -17.275282 -2.328357 8.000000
7.581043 8.983667 -0.908621 38.000000
14.493180 7.059405 -1.833909 7.000000
16.898117 0.566473 -2.198916 6.000000
15.888770 -6.467918 -2.158030 6.000000
16.741674 -17.348627 -2.312968 8.000000
7.647244 8.998201 -0.925226 31.000000
14.513615 7.003659 -1.841781 9.000000
16.919905 0.505127 -2.201495 6.000000
15.946290 -6.553059 -2.159612 6.000000
16.837004 -17.563601 -2.312747 7.000000
7.695746 8.988302 -0.939571 29.000000
14.578648 6.969282 -1.855352 7.000000
16.960909 0.444137 -2.209615 6.000000
15.934642 -6.623164 -2.152442 6.000000
16.847136 -17.709795 -2.289029 7.000000
7.739447 8.975733 -0.953565 29.000000
14.620877 6.923749 -1.868928 7.000000
16.912920 0.377901 -2.203158 6.000000
15.968532 -6.699439 -2.150801 6.000000
16.885426 -17.868326 -2.280630 7.000000
7.810851 8.991693 -0.970850 27.000000
14.613792 6.854934 -1.873363 6.000000
16.894361 0.315539 -2.200575 6.000000
16.016821 -6.792140 -2.151552 6.000000
16.793655 -17.902203 -2.259799 6.000000
7.849757 8.969864 -0.982065 25.000000
14.610902 6.788355 -1.878341 6.000000
16.945026 0.251403 -2.207032 6.000000
16.097769 -6.896187 -2.156498 6.000000
16.987223 -18.235699 -2.268080 5.000000
7.900102 8.964061 -0.997041 26.000000
14.517198 6.680235 -1.874443 6.000000
16.935917 0.189184 -2.205741 6.000000
16.175732 -7.006569 -2.161323 6.000000
16.834635 -18.217983 -2.226901 4.000000
7.985132 8.993872 -1.016289 30.000000
14.503943 6.609828 -1.883693 6.000000
17.000179 0.127587 -2.220070 6.000000
16.168472 -7.073916 -2.160676 6.000000
18.280664 -19.928885 -2.404040 8.000000
8.039008 8.991141 -1.031867 21.000000
14.509068 6.548048 -1.889681 6.000000
16.960878 0.062165 -2.214890 6.000000
16.169352 -7.138277 -2.148291 6.000000
18.165688 -19.928864 -2.373425 1.000000
8.098167 8.997084 -1.046267 24.000000
14.422154 6.448321 -1.883807 6.000000
17.046055 0.000000 -2.219947 6.000000
16.209581 -7.233927 -2.148047 6.000000
19.126194 -21.152529 -2.479902 4.000000
8.190448 9.032805 -1.068914 26.000000
14.435708 6.390998 -1.890889 6.000000
17.049753 -0.056539 -2.229520 6.000000
16.261515 -7.325279 -2.155146 6.000000
19.040276 -21.213285 -2.448753 6.000000
8.254881 9.040248 -1.083965 25.000000
14.330822 6.281844 -1.882433 6.000000
17.020092 -0.115854 -2.222659 6.000000
16.346624 -7.428922 -2.160140 6.000000
19.134985 -21.438938 -2.443363 9.000000
8.321032 9.045885 -1.099101 22.000000
14.261774 6.189360 -1.878630 6.000000
17.049301 -0.178546 -2.226544 6.000000
16.388678 -7.520629 -2.153363 7.000000
19.309072 -21.794260 -2.445066 9.000000
8.407232 9.072630 -1.123498 29.000000
14.046311 6.034771 -1.855444 6.000000
17.073317 -0.241384 -2.229781 6.000000
16.447275 -7.620619 -2.158301 6.000000
19.562819 -22.244389 -2.461474 10.000000
8.461957 9.067989 -1.137488 33.000000
14.105024 5.995946 -1.868288 6.000000
17.037458 -0.312263 -2.225249 6.000000
16.538986 -7.743907 -2.164700 6.000000
19.842926 -22.738361 -2.470564 7.000000
8.528416 9.072316 -1.155094 33.000000
14.089407 5.928429 -1.871452 6.000000
17.051199 -0.369081 -2.227191 6.000000
16.544304 -7.816924 -2.159239 6.000000
20.052814 -23.133282 -2.479340 5.000000
8.608694 9.090718 -1.174672 23.000000
14.110134 5.876372 -1.879456 6.000000
17.069481 -0.435055 -2.229781 6.000000
16.552757 -7.895260 -2.151124 6.000000
20.045158 -23.288198 -2.456043 9.000000
8.766768 9.193152 -1.203039 1.000000
14.103139 5.812894 -1.883782 6.000000
17.077509 -0.503865 -2.231076 6.000000
16.674053 -8.035436 -2.161238 6.000000
20.345066 -23.829435 -2.465969 5.000000
14.378536 14.967630 -1.987517 6.000000
14.104445 5.753046 -1.894624 7.000000
17.074766 -0.566428 -2.237040 6.000000
16.668173 -8.108015 -2.151197 6.000000
20.458517 -24.140932 -2.468201 10.000000
14.307252 14.784578 -1.991904 6.000000
14.111705 5.692906 -1.900740 6.000000
17.157303 -0.629130 -2.245080 6.000000
16.731392 -8.207489 -2.152968 6.000000
20.851109 -24.779036 -2.486182 9.000000
14.249890 14.622814 -1.994786 6.000000
14.113119 5.633420 -1.906218 7.000000
17.135605 -0.697224 -2.236500 6.000000
16.788332 -8.319197 -2.154634 6.000000
20.790567 -24.891716 -2.455665 12.000000
14.162244 14.426705 -2.000039 6.000000
14.243479 5.625019 -1.929173 6.000000
17.087709 -0.755030 -2.236651 6.000000
16.827980 -8.408464 -2.156636 6.000000
21.089096 -25.410961 -2.477157 13.000000
14.087607 14.245853 -2.003300 5.000000
14.383186 5.619341 -1.953507 6.000000
17.169405 -0.821702 -2.244672 6.000000
16.918489 -8.531324 -2.155478 6.000000
21.017349 -25.532379 -2.440122 13.000000
13.965067 14.028583 -1.996696 5.000000
14.489979 5.602843 -1.970853 7.000000
17.141521 -0.883350 -2.241435 6.000000
17.036810 -8.673199 -2.168020 8.000000
21.165689 -25.877846 -2.437440 13.000000
13.999725 13.955814 -2.014889 6.000000
14.701351 5.616841 -2.004893 6.000000
17.177607 -0.951355 -2.246615 6.000000
17.045691 -8.756534 -2.163057 10.000000
21.852123 -26.937027 -2.486324 3.000000
13.899774 13.764580 -2.011173 5.000000
14.807051 5.601025 -2.025188 7.000000
17.169445 -1.014039 -2.242965 6.000000
17.116278 -8.872236 -2.162497 10.000000
22.332409 -27.706530 -2.513407 7.000000
13.726349 13.484137 -1.998597 6.000000
14.813818 5.535713 -2.037086 8.000000
17.115942 -1.076844 -2.236500 6.000000
17.256372 -9.025249 -2.174037 9.000000
21.923639 -27.423981 -2.442823 1.000000
13.785813 13.448316 -2.024194 6.000000
14.847294 5.486290 -2.044528 8.000000
17.245060 -1.148439 -2.256974 7.000000
17.334394 -9.147124 -2.174223 7.000000
13.622999 13.192387 -2.009907 1.000000
14.843953 5.420368 -2.049600 7.000000
17.255569 -1.212680 -2.258916 6.000000
17.420200 -9.274188 -2.178775 9.000000
13.529250 13.014940 -2.006266 4.000000
14.851171 5.367256 -2.059338 6.000000
17.073179 -1.265760 -2.232620 7.000000
17.430544 -9.361850 -2.177355 9.000000
13.428811 12.814926 -2.003390 2.000000
14.820895 5.289145 -2.054973 6.000000
16.934963 -1.317942 -2.215163 9.000000
17.576620 -9.523476 -2.185824 8.000000
13.239859 12.542216 -1.984431 5.000000
14.852509 5.239137 -2.070660 6.000000
16.865154 -1.377678 -2.209711 7.000000
17.656004 -9.650365 -2.189419 7.000000
13.375129 12.590868 -2.021478 4.000000
14.810979 5.160627 -2.067662 6.000000
16.815916 -1.435720 -2.200938 8.000000
10.069006 -5.551513 -1.242992 28.000000
13.137076 12.267680 -1.997094 6.000000
14.781900 5.089817 -2.069313 6.000000
16.780909 -1.494704 -2.197059 8.000000
10.053692 -5.591218 -1.235499 10.000000
13.071347 12.116920 -1.996084 6.000000
14.701232 5.001844 -2.060956 6.000000
16.755678 -1.557327 -2.191535 8.000000
10.111932 -5.672232 -1.237015 16.000000
13.048573 12.007188 -2.001543 6.000000
14.709223 4.941628 -2.073182 6.000000
16.755177 -1.619243 -2.189243 8.000000
10.108760 -5.719261 -1.235083 1.000000
13.000578 11.879484 -2.009601 6.000000
14.717141 4.884333 -2.077271 6.000000
16.758232 -1.681556 -2.196412 7.000000
10.032147 -5.724557 -1.222162 1.000000
25.488611 -34.332962 -2.532926 5.000000
12.994460 11.795060 -2.018113 5.000000
14.605098 4.793439 -2.067395 6.000000
16.821074 -1.753126 -2.202513 9.000000
25.352558 -34.374809 -2.485242 8.000000
12.926229 11.638829 -2.012549 5.000000
14.685650 4.751829 -2.081447 6.000000
16.884697 -1.822339 -2.202661 9.000000
16.017179 -9.296042 -1.933391 8.000000
25.269316 -34.538788 -2.437606 5.000000
12.870634 11.511718 -2.016266 4.000000
14.573214 4.662118 -2.068747 6.000000
17.099604 -1.905941 -2.234604 8.000000
16.001329 -9.365414 -1.922525 6.000000
25.170553 -34.644295 -2.401658 1.000000
12.829724 11.382755 -2.020891 1.000000
14.618431 4.611979 -2.086144 6.000000
17.466555 -2.017860 -2.280477 7.000000
12.742883 11.230410 -2.019371 4.000000
14.558069 4.537121 -2.080679 6.000000
17.537754 -2.085042 -2.296932 6.000000
9.672363 -5.756737 -1.155240 50.000000
12.666793 11.081132 -2.015759 1.000000
14.476028 4.447877 -2.071769 6.000000
17.573553 -2.163988 -2.299645 6.000000
9.630563 -5.779765 -1.144846 44.000000
27.722210 -39.023365 -2.533788 1.000000
12.703900 11.027771 -2.032783 4.000000
14.490498 4.394263 -2.084984 6.000000
17.590498 -2.231555 -2.299771 6.000000
9.673835 -5.854068 -1.144558 42.000000
27.657341 -39.250393 -2.482792 1.000000
12.671122 10.925846 -2.039508 6.000000
14.452855 4.327817 -2.082748 6.000000
17.588318 -2.290567 -2.297318 6.000000
9.758821 -5.954473 -1.153156 47.000000
28.309795 -40.460629 -2.510187 1.000000
14.467922 4.274610 -2.088015 6.000000
17.555214 -2.354841 -2.291015 6.000000
9.750668 -5.998651 -1.142674 46.000000
28.298058 -40.745911 -2.469661 1.000000
12.313242 10.460876 -1.998133 6.000000
14.411472 4.200561 -2.082972 6.000000
17.678696 -2.437399 -2.311447 6.000000
9.724726 -6.031936 -1.138183 51.000000
12.274302 10.350576 -1.999872 8.000000
14.435614 4.147527 -2.094833 6.000000
17.591051 -2.494181 -2.298071 6.000000
9.749630 -6.096978 -1.135598 10.000000
12.208097 10.218419 -1.997079 7.000000
14.216564 4.028243 -2.066148 40.000000
17.601818 -2.561553 -2.297532 6.000000
15.166411 -9.561893 -1.757956 13.000000
12.235950 10.165699 -2.015271 7.000000
14.168541 3.958593 -2.062281 80.000000
17.621342 -2.630383 -2.304485 6.000000
15.048040 -9.564519 -1.738862 10.000000
12.294725 10.138594 -2.032949 6.000000
14.148829 3.894580 -2.067668 40.000000
17.651119 -2.704154 -2.303382 6.000000
15.177324 -9.724977 -1.745205 6.000000
12.287934 10.057558 -2.042619 6.000000
14.138073 3.835930 -2.071851 44.000000
17.528809 -2.751207 -2.285574 6.000000
15.234572 -9.840608 -1.743144 6.000000
28.159275 -42.463463 -2.215696 2.000000
12.242505 9.945667 -2.042988 6.000000
14.084382 3.765996 -2.067137 34.000000
17.586264 -2.829457 -2.297625 6.000000
15.290931 -9.956628 -1.744114 6.000000
27.899746 -42.392635 -2.144789 30.000000
12.208010 9.843589 -2.045114 6.000000
14.040596 3.696580 -2.063783 22.000000
17.566383 -2.892349 -2.293239 6.000000
15.172123 -9.958642 -1.721930 6.000000
27.154541 -41.575626 -2.046553 3.000000
12.149157 9.722871 -2.048609 4.000000
14.033836 3.639852 -2.068559 26.000000
17.521040 -2.950882 -2.291868 7.000000
14.027597 -9.281143 -1.589960 6.000000
26.810055 -41.378662 -1.988909 23.000000
12.183588 9.677384 -2.059471 4.000000
13.993554 3.572115 -2.070874 98.000000
17.632544 -3.039331 -2.301614 6.000000
13.820684 -9.217251 -1.555701 6.000000
26.780237 -41.650517 -1.936878 5.000000
12.260374 9.665299 -2.080313 3.000000
13.981853 3.514593 -2.072358 57.000000
17.558189 -3.092823 -2.290210 6.000000
13.950480 -9.374334 -1.562149 6.000000
12.116426 9.483429 -2.069394 2.000000
13.959605 3.454653 -2.077418 39.000000
17.478010 -3.144790 -2.284390 6.000000
12.047651 9.358595 -2.068043 1.000000
14.015334 3.411388 -2.088887 9.000000
17.515368 -3.220992 -2.284553 7.000000
15.502515 -10.575098 -1.724348 6.000000
11.935269 9.201354 -2.056343 1.000000
14.084064 3.373486 -2.107598 4.000000
17.439686 -3.273201 -2.279380 7.000000
15.497599 -10.663156 -1.718616 6.000000
11.935724 9.132154 -2.066674 1.000000
14.023957 3.302204 -2.101826 6.000000
17.500050 -3.354143 -2.288936 6.000000
15.536894 -10.774311 -1.717360 6.000000
11.951607 9.075051 -2.079666 5.000000
14.005975 3.243835 -2.105023 6.000000
17.507498 -3.422143 -2.288370 6.000000
15.576077 -10.886242 -1.709370 6.000000
11.682762 8.803594 -2.040269 3.000000
13.992935 3.186823 -2.106411 6.000000
17.436083 -3.474580 -2.283839 6.000000
15.606024 -10.984383 -1.703215 6.000000
11.535083 8.626204 -2.021759 5.000000
13.998802 3.131669 -2.115700 6.000000
17.457413 -3.548578 -2.282080 6.000000
15.664061 -11.119530 -1.704269 7.000000
11.537085 8.561948 -2.031940 5.000000
14.038086 3.086473 -2.127604 6.000000
17.391735 -3.595325 -2.278191 9.000000
15.684308 -11.212308 -1.703725 7.000000
11.494925 8.465504 -2.034287 5.000000
13.932357 3.007192 -2.119983 6.000000
17.378441 -3.659044 -2.278191 9.000000
15.809522 -11.389607 -1.711568 8.000000
11.444232 8.363648 -2.035025 5.000000
13.942923 2.956030 -2.122471 5.000000
17.291006 -3.716341 -2.262475 8.000000
15.800880 -11.471588 -1.701437 8.000000
11.496822 8.337612 -2.056640 7.000000
13.923668 2.896127 -2.127982 6.000000
17.127996 -3.740771 -2.245867 8.000000
15.783566 -11.547594 -1.693801 8.000000
11.401059 8.204567 -2.049136 7.000000
13.883922 2.834811 -2.132949 6.000000
16.817444 -3.740657 -2.213126 8.000000
15.765906 -11.623629 -1.686134 9.000000
11.280056 8.054900 -2.039366 8.000000
13.853243 2.775695 -2.141792 5.000000
16.590050 -3.753945 -2.191034 6.000000
15.843399 -11.770638 -1.695554 8.000000
33.791924 -58.765961 -1.692240 10.000000
11.211640 8.009001 -2.049366 9.000000
13.670624 2.739105 -2.135967 5.000000
16.546955 -3.747230 -2.215538 6.000000
15.750996 -11.706253 -1.720393 8.000000
33.798050 -58.800358 -1.775975 3.000000
11.235844 8.088650 -2.046848 7.000000
13.704075 2.798090 -2.142782 5.000000
16.733919 -3.722079 -2.250814 6.000000
15.724440 -11.597294 -1.730022 9.000000
34.069805 -58.797142 -1.850672 1.000000
11.231010 8.147834 -2.043971 7.000000
13.572628 2.825582 -2.121433 5.000000
16.911339 -3.696545 -2.278987 8.000000
15.757332 -11.532624 -1.749589 8.000000
11.285800 8.250886 -2.051954 8.000000
13.581520 2.879410 -2.124458 5.000000
16.879206 -3.624752 -2.288180 7.000000
15.781888 -11.462005 -1.768231 8.000000
11.227019 8.274248 -2.039569 8.000000
13.617946 2.941816 -2.136884 5.000000
16.842318 -3.552303 -2.293628 6.000000
15.803629 -11.393744 -1.793629 8.000000
11.281175 8.378140 -2.044953 6.000000
13.487120 2.965336 -2.113114 5.000000
16.768080 -3.469450 -2.284729 6.000000
15.677991 -11.216063 -1.791659 6.000000
11.251533 8.420285 -2.035142 5.000000
13.513859 3.025658 -2.121581 5.000000
16.675949 -3.392760 -2.282723 6.000000
15.648451 -11.108449 -1.803890 6.000000
11.261523 8.492332 -2.030001 7.000000
13.522676 3.079724 -2.119769 5.000000
16.635584 -3.315060 -2.278372 6.000000
15.608785 -10.998551 -1.808330 3.000000
11.310265 8.594296 -2.034330 5.000000
13.481862 3.124928 -2.115236 5.000000
16.616310 -3.250956 -2.286199 6.000000
15.647172 -10.939996 -1.831657 6.000000
11.340899 8.686465 -2.038191 5.000000
13.485469 3.177891 -2.112666 5.000000
16.554731 -3.175954 -2.279105 6.000000
15.616591 -10.833615 -1.836809 5.000000
11.282956 8.707884 -2.020811 5.000000
13.482780 3.231952 -2.114174 5.000000
16.482998 -3.093643 -2.279425 6.000000
11.310421 8.795415 -2.023838 1.000000
13.423533 3.269823 -2.101814 5.000000
16.385332 -3.016140 -2.273334 14.000000
15.460424 -10.562210 -1.849094 4.000000
11.435397 8.960052 -2.039134 1.000000
13.444467 3.329659 -2.107078 8.000000
16.356882 -2.948962 -2.270827 17.000000
11.609872 9.165635 -2.063061 1.000000
13.442474 3.381505 -2.103744 40.000000
16.283869 -2.874216 -2.265093 110.000000
13.838251 -9.305932 -1.673331 6.000000
11.492055 9.141193 -2.037615 1.000000
13.281622 3.395319 -2.075700 61.000000
16.259441 -2.805571 -2.268982 154.000000
