VERSION .7
FIELDS x y z intensity
SIZE 4 4 4 4
TYPE F F F F
COUNT 1 1 1 1
WIDTH 1216
HEIGHT 1
VIEWPOINT 0 0 0 1 0 0 0
POINTS 1216
DATA ascii
18.206415 -10.431133 -0.296659 23.000000
6.255973 -8.457550 0.055082 26.000000
22.134142 19.999731 -1.307681 6.000000
32.970852 -3.308365 -0.948736 27.000000
18.568573 -10.552705 -0.313143 9.000000
6.289945 -8.438608 0.045924 21.000000
21.857737 19.882036 -1.274572 7.000000
32.946320 -3.195585 -0.965066 18.000000
19.085991 -10.754404 -0.340324 9.000000
21.715969 19.912968 -1.245198 7.000000
32.932934 -3.072489 -0.964338 14.000000
19.613888 -10.957338 -0.364707 9.000000
21.628424 19.965126 -1.223382 4.000000
32.958733 -2.953085 -0.970550 12.000000
20.091080 -11.127501 -0.384848 9.000000
6.293037 -8.254813 0.012682 18.000000
21.394901 19.895290 -1.188751 6.000000
32.954399 -2.830983 -0.970110 28.000000
20.635496 -11.330395 -0.406808 9.000000
6.178693 -8.046412 0.003541 1.000000
43.235241 40.501308 -2.379414 4.000000
32.934498 -2.707708 -0.974998 16.000000
21.179502 -11.533057 -0.437788 9.000000
43.029861 40.606045 -2.324574 1.000000
32.999008 -2.591283 -0.976620 1.000000
21.819708 -11.778193 -0.463114 9.000000
42.921909 40.788361 -2.274669 1.000000
22.492825 -12.035286 -0.489823 9.000000
42.870712 41.039780 -2.238420 1.000000
23.093014 -12.247770 -0.515604 12.000000
23.858671 -12.542022 -0.550494 15.000000
6.079228 -7.628962 -0.044267 61.000000
48.648888 -3.103354 -1.472347 7.000000
24.742109 -12.890905 -0.584398 9.000000
6.251113 -7.785941 -0.054024 18.000000
43.572617 16.282467 -1.656871 6.000000
48.510014 -2.916013 -1.476301 15.000000
25.501722 -13.173696 -0.616286 22.000000
6.243639 -7.721268 -0.062392 59.000000
30.431410 29.988501 -1.477040 16.000000
43.386715 16.394472 -1.643971 10.000000
48.230457 -2.721834 -1.484357 1.000000
26.181187 -13.403357 -0.657194 25.000000
6.265528 -7.690514 -0.074448 35.000000
30.304464 30.083130 -1.438913 25.000000
43.298855 16.542885 -1.626728 9.000000
26.243198 -13.313934 -0.672938 26.000000
6.301805 -7.680139 -0.083230 25.000000
43.241375 16.694130 -1.610549 9.000000
6.294822 -7.614543 -0.091391 25.000000
43.073608 16.811022 -1.582345 1.000000
29.319118 -14.605198 -0.789087 24.000000
6.322635 -7.591356 -0.100013 30.000000
30.695091 31.137568 -1.374063 12.000000
43.370148 17.110193 -1.579239 7.000000
48.115124 -2.008209 -1.488156 8.000000
30.488153 -15.048326 -0.836872 37.000000
6.429351 -7.664918 -0.111755 35.000000
43.270775 17.254536 -1.553493 1.000000
48.046608 -1.845764 -1.485839 34.000000
31.614967 -15.474331 -0.884831 34.000000
6.451456 -7.639674 -0.118680 26.000000
26.128691 26.896887 -1.106384 8.000000
48.003422 -1.651152 -1.492678 36.000000
33.122326 -16.054771 -0.931714 8.000000
6.490379 -7.626170 -0.129344 32.000000
25.881283 26.838326 -1.074014 9.000000
47.949207 -1.473357 -1.490814 36.000000
34.392246 -16.514923 -0.999043 8.000000
6.563771 -7.655378 -0.139049 143.000000
25.829689 26.972618 -1.036634 9.000000
47.914318 -1.296523 -1.489572 38.000000
36.262341 -17.249659 -1.058537 14.000000
6.676673 -7.729544 -0.149754 21.000000
25.737911 27.074743 -1.017352 9.000000
47.828293 -1.118784 -1.503476 32.000000
38.074234 -17.940729 -1.146257 24.000000
25.642538 27.173166 -0.984884 9.000000
91.484123 38.437595 -3.118460 29.000000
47.797623 -0.942797 -1.485689 23.000000
38.315819 -17.883244 -1.173705 19.000000
6.728335 -7.677600 -0.167499 35.000000
91.334419 38.769161 -3.083511 33.000000
21.127075 -0.339267 -0.656648 7.000000
38.603027 -17.845280 -1.195349 23.000000
91.358536 39.175194 -3.037055 27.000000
21.012918 -0.267738 -0.660411 7.000000
38.802277 -17.781454 -1.222052 19.000000
20.923872 -0.182600 -0.657584 7.000000
39.013859 -17.689260 -1.248918 25.000000
6.920722 -7.726826 -0.200984 135.000000
92.051155 40.273575 -2.982051 5.000000
20.914366 -0.113159 -0.657270 7.000000
39.199543 -17.616974 -1.267999 24.000000
6.841713 -7.582508 -0.206797 8.000000
18.382345 20.194851 -0.605406 18.000000
92.160347 40.724434 -2.937601 5.000000
20.969500 -0.036599 -0.662658 8.000000
39.401306 -17.542593 -1.310209 23.000000
6.932610 -7.634885 -0.216021 31.000000
18.305199 20.258766 -0.581468 6.000000
92.167694 41.093540 -2.889281 33.000000
20.919645 0.032861 -0.657427 9.000000
39.641735 -17.492353 -1.331407 22.000000
6.899685 -7.542890 -0.223057 7.000000
92.176880 41.503307 -2.859002 33.000000
20.849379 0.116446 -0.655228 9.000000
39.848400 -17.392775 -1.358780 18.000000
92.283058 41.939159 -2.813702 18.000000
20.778915 0.184962 -0.653030 9.000000
63.112450 28.935118 -1.890827 23.000000
20.933010 0.263066 -0.657898 8.000000
7.192839 -7.699893 -0.257515 18.000000
63.114590 29.243279 -1.857945 15.000000
20.782001 0.337354 -0.653187 9.000000
7.199547 -7.645319 -0.265825 7.000000
20.815599 0.414218 -0.654286 7.000000
27.257101 -11.435446 -0.980564 7.000000
7.169679 -7.563192 -0.272895 20.000000
28.462803 32.881546 -0.698370 1.000000
20.978813 0.494393 -0.659469 8.000000
27.325548 -11.335379 -0.991720 16.000000
7.112185 -7.445078 -0.278608 28.000000
28.388096 33.039185 -0.661481 1.000000
20.941690 0.577639 -0.658369 9.000000
7.215498 -7.498013 -0.290664 28.000000
86.220100 41.494930 -2.371927 22.000000
20.984732 0.648474 -0.656119 7.000000
7.420168 -7.654346 -0.307087 25.000000
85.812263 41.686707 -2.314912 7.000000
21.032160 0.727109 -0.657681 7.000000
31.736233 -12.757884 -1.182496 7.000000
7.755260 -7.941563 -0.329444 66.000000
85.299248 41.806133 -2.255228 183.000000
7.467316 -7.593492 -0.327247 148.000000
50.472858 60.429134 -0.893258 25.000000
85.370514 42.229824 -2.211292 22.000000
32.976551 -12.989808 -1.256269 7.000000
7.371877 -7.441685 -0.327357 76.000000
80.754997 97.477386 -1.347716 21.000000
85.855736 42.862232 -2.177644 7.000000
33.679497 -13.110776 -1.306296 7.000000
7.388224 -7.403715 -0.339667 107.000000
80.485115 97.844833 -1.194102 58.000000
85.895485 43.276093 -2.132275 6.000000
30.831022 -11.871979 -1.211441 7.000000
7.305356 -7.267204 -0.340031 66.000000
85.702812 43.535957 -2.114279 29.000000
30.855820 -11.764183 -1.222418 9.000000
7.342108 -7.258016 -0.351503 144.000000
86.066818 44.156410 -2.060050 5.000000
33.471886 -12.614603 -1.336634 30.000000
7.367395 -7.224769 -0.360337 32.000000
86.071510 44.519981 -2.029844 12.000000
33.543144 -12.507915 -1.356499 28.000000
7.605885 -7.409325 -0.378220 63.000000
86.246117 45.011742 -1.952905 10.000000
33.623653 -12.404421 -1.370524 37.000000
7.642561 -7.385493 -0.385996 31.000000
53.027542 66.832191 -0.431816 25.000000
33.635586 -12.268952 -1.381684 39.000000
7.631997 -7.323938 -0.393412 30.000000
94.829346 50.400433 -2.024511 12.000000
33.703373 -12.153898 -1.395154 30.000000
21.103317 27.001299 -0.113643 1.000000
33.958771 -12.105532 -1.422786 34.000000
20.904770 26.940554 -0.083322 8.000000
95.184692 51.487640 -1.926737 32.000000
50.485252 3.973276 -1.547234 1.000000
34.021286 -11.987461 -1.436166 9.000000
20.784569 26.989311 -0.053509 8.000000
95.171753 51.932430 -1.873529 26.000000
50.410854 4.153385 -1.536573 1.000000
33.772003 -11.760656 -1.436317 21.000000
20.687218 27.057758 -0.017834 8.000000
95.284477 52.426407 -1.803392 33.000000
51.567242 4.420872 -1.563218 8.000000
33.767159 -11.620374 -1.446776 26.000000
9.020138 -8.346892 -0.506491 32.000000
20.696709 27.276793 0.011952 8.000000
69.538437 38.561653 -1.276880 4.000000
51.018063 4.562216 -1.547066 18.000000
33.870533 -11.517279 -1.461895 40.000000
9.050341 -8.313474 -0.517215 28.000000
20.556229 27.288942 0.047703 8.000000
69.178627 38.726028 -1.231596 1.000000
34.162777 -11.477136 -1.491585 9.000000
9.113702 -8.310293 -0.527718 26.000000
68.906349 38.905994 -1.174022 1.000000
37.016277 -12.284982 -1.614195 21.000000
9.184492 -8.313396 -0.540880 1.000000
78.226196 105.408508 0.458200 155.000000
68.650856 39.094261 -1.130729 2.000000
36.965576 -12.117928 -1.623639 34.000000
16.564018 -14.882930 -0.987822 7.000000
77.865738 105.730377 0.572946 18.000000
33.901699 19.462862 -0.539029 9.000000
37.204063 -12.045274 -1.645838 33.000000
16.573074 -14.781644 -1.004543 7.000000
67.297470 38.963917 -1.017978 7.000000
37.342014 -11.938906 -1.677413 29.000000
16.638996 -14.736480 -1.020965 7.000000
67.107880 39.151859 -0.976381 19.000000
51.216602 -16.158360 -2.316641 7.000000
16.695974 -14.678101 -1.040594 7.000000
66.761833 39.278656 -0.932871 27.000000
51.303322 -15.979205 -2.336690 186.000000
16.643744 -14.524380 -1.049470 7.000000
66.345474 39.346088 -0.861644 19.000000
28.625847 3.408359 -0.830418 1.000000
51.442715 -15.816016 -2.340383 7.000000
16.702581 -14.478437 -1.065614 7.000000
27.312164 38.517307 0.436790 1.000000
66.016808 39.478951 -0.805542 24.000000
28.429758 3.490735 -0.820091 1.000000
12.719539 -3.859642 -0.582676 1.000000
16.725773 -14.381357 -1.082697 7.000000
27.245499 38.680260 0.478957 20.000000
65.705032 39.620171 -0.763326 26.000000
28.243229 3.572958 -0.815083 3.000000
12.790826 -3.830133 -0.589964 1.000000
16.780388 -14.331805 -1.098594 7.000000
27.112606 38.821674 0.528949 1.000000
65.299217 39.702545 -0.706940 17.000000
28.269732 3.681632 -0.811252 1.000000
12.579434 -3.716648 -0.584170 1.000000
16.768463 -14.205604 -1.113298 8.000000
65.041176 39.857281 -0.665704 13.000000
28.221512 3.780595 -0.805287 5.000000
12.635934 -3.683039 -0.590766 1.000000
16.827612 -14.150099 -1.125316 7.000000
64.682365 39.964241 -0.610442 6.000000
28.167997 3.878572 -0.799194 5.000000
12.649150 -3.636644 -0.595360 1.000000
16.877670 -14.096913 -1.140924 7.000000
64.357635 40.090271 -0.542588 1.000000
28.213387 3.990243 -0.785960 1.000000
16.857857 -13.970828 -1.155109 7.000000
47.011566 69.383614 1.272705 13.000000
63.986160 40.185143 -0.487942 15.000000
16.885187 -13.889401 -1.168792 8.000000
46.738724 69.475952 1.344638 1.000000
63.507721 40.194473 -0.446006 11.000000
17.003975 -13.892830 -1.189193 7.000000
29.817072 19.024847 -0.185196 7.000000
17.003721 -13.789008 -1.200962 6.000000
29.814503 19.177334 -0.167054 8.000000
12.428301 -3.327828 -0.597749 1.000000
17.053324 -13.725932 -1.220066 7.000000
29.689564 19.251173 -0.142044 19.000000
12.454801 -3.286050 -0.600693 1.000000
17.025175 -13.600752 -1.222108 7.000000
25.692978 39.397919 0.952399 14.000000
29.785521 19.461412 -0.111778 8.000000
12.418421 -3.227814 -0.598364 1.000000
17.089714 -13.549997 -1.242260 7.000000
25.878038 39.986053 1.006010 14.000000
29.789209 19.619993 -0.087158 16.000000
12.400935 -3.174792 -0.601435 1.000000
17.142500 -13.489818 -1.257774 7.000000
25.625406 39.915672 1.051565 14.000000
29.762943 19.759480 -0.074822 10.000000
17.171461 -13.410990 -1.271546 7.000000
21.397476 33.587307 0.931553 8.000000
29.768639 19.913322 -0.043756 7.000000
9.261445 -7.173563 -0.689827 9.000000
21.209612 33.563255 0.970324 10.000000
61.567425 41.512115 -0.038880 5.000000
82.897911 14.796224 -2.131531 5.000000
12.701416 -3.103318 -0.625752 1.000000
9.268973 -7.130342 -0.696815 23.000000
21.073278 33.606712 1.004085 9.000000
61.224640 41.608223 0.012920 19.000000
12.261004 -2.948134 -0.605724 1.000000
9.330359 -7.123282 -0.707687 23.000000
19.695738 31.654842 0.982776 186.000000
61.169769 41.883816 0.064695 10.000000
12.446690 -2.944567 -0.614360 1.000000
9.419656 -7.136961 -0.720752 1.000000
19.555410 31.687643 1.020584 193.000000
29.127251 20.101048 0.055590 6.000000
12.422740 -2.893148 -0.614907 1.000000
17.283228 -12.995493 -1.333939 8.000000
19.436186 31.741838 1.065647 178.000000
29.246256 20.341820 0.087048 3.000000
12.550887 -2.869926 -0.625179 1.000000
17.378700 -12.958403 -1.348676 7.000000
22.299994 36.720345 1.267557 195.000000
61.961582 43.418205 0.237693 2.000000
38.201237 7.543264 -0.931245 10.000000
12.400424 -2.787735 -0.619395 1.000000
17.368683 -12.861533 -1.359729 7.000000
22.140032 36.745438 1.310713 255.000000
61.524158 43.448780 0.289207 8.000000
31.729570 6.386279 -0.768396 9.000000
12.438857 -2.753073 -0.620855 1.000000
17.402872 -12.788358 -1.373864 7.000000
21.997974 36.799648 1.362330 255.000000
61.563763 43.815807 0.382467 1.000000
31.706341 6.502610 -0.751449 9.000000
12.517289 -2.722346 -0.622027 4.000000
17.449043 -12.724062 -1.385172 7.000000
21.862211 36.878780 1.407226 188.000000
61.393963 44.018623 0.435106 1.000000
31.731478 6.629051 -0.741295 22.000000
12.630470 -2.693907 -0.631628 1.000000
17.442225 -12.621428 -1.396042 7.000000
20.488649 34.838417 1.376066 10.000000
61.430534 44.386642 0.489427 1.000000
31.678011 6.739148 -0.723651 25.000000
12.746754 -2.674547 -0.639274 1.000000
17.435286 -12.519298 -1.399329 8.000000
61.266842 44.594704 0.542266 4.000000
33.940922 7.344488 -0.769862 7.000000
13.016419 -2.676623 -0.656904 1.000000
17.537140 -12.495272 -1.418916 8.000000
61.013885 44.753605 0.607511 1.000000
33.733402 7.429115 -0.753704 12.000000
17.533123 -12.395776 -1.429962 8.000000
37.159081 27.466177 0.419383 8.000000
33.677067 7.546232 -0.734979 6.000000
9.830347 -6.896076 -0.805990 4.000000
46.918163 82.456810 3.627980 1.000000
60.041477 44.704655 0.731658 7.000000
31.992298 7.291964 -0.687330 6.000000
9.761039 -6.794209 -0.804515 9.000000
46.723606 82.785858 3.751574 1.000000
32.087677 7.437525 -0.661204 25.000000
13.818761 -2.636070 -0.692960 1.000000
9.707539 -6.704287 -0.804281 8.000000
46.524803 83.110039 3.875434 1.000000
32.123898 7.570092 -0.639468 3.000000
13.573627 -2.535331 -0.677758 1.000000
9.764732 -6.691060 -0.811133 11.000000
46.234520 83.306389 3.993262 1.000000
32.402542 7.761220 -0.628124 3.000000
9.747586 -6.626941 -0.813887 21.000000
46.288563 83.403763 4.081321 1.000000
9.757695 -6.631323 -0.802222 19.000000
46.483414 83.036102 3.988446 1.000000
32.345432 7.616339 -0.574231 2.000000
13.544983 -2.532428 -0.649834 1.000000
9.766939 -6.690067 -0.792539 8.000000
32.105259 7.435695 -0.569480 29.000000
13.447632 -2.565273 -0.638426 1.000000
9.762271 -6.742086 -0.783855 8.000000
59.955517 44.640652 0.926328 10.000000
31.971344 7.281318 -0.572352 6.000000
13.355120 -2.598391 -0.627343 1.000000
9.779003 -6.806714 -0.776754 7.000000
37.154747 27.452946 0.548300 9.000000
33.708630 7.553306 -0.615039 10.000000
13.419209 -2.661943 -0.626022 1.000000
17.580853 -12.333123 -1.384987 7.000000
61.084248 44.788826 0.859338 1.000000
33.809425 7.445858 -0.610332 34.000000
17.577450 -12.427114 -1.365663 7.000000
61.236412 44.572556 0.832843 1.000000
33.797192 7.313386 -0.621697 30.000000
12.935000 -2.664586 -0.595089 1.000000
17.500042 -12.468840 -1.348130 7.000000
20.489285 34.839500 1.482055 14.000000
33.858315 7.196806 -0.604202 16.000000
12.695687 -2.663832 -0.577718 5.000000
17.524086 -12.583060 -1.334626 7.000000
21.842285 36.845169 1.525696 160.000000
31.740797 6.625216 -0.577300 23.000000
12.563911 -2.684296 -0.567672 6.000000
17.462425 -12.636045 -1.318343 8.000000
22.000933 36.804596 1.489879 252.000000
31.578659 6.470681 -0.579544 14.000000
12.587968 -2.740018 -0.562472 3.000000
17.449181 -12.724162 -1.301940 7.000000
22.140247 36.745796 1.453137 255.000000
38.017563 7.644972 -0.703964 1.000000
12.582813 -2.787239 -0.560441 1.000000
17.391088 -12.779698 -1.285971 8.000000
22.288530 36.687035 1.409031 242.000000
61.492352 43.073402 0.615878 7.000000
38.236610 7.543315 -0.707504 9.000000
12.626308 -2.845461 -0.558312 1.000000
17.359482 -12.850030 -1.264246 8.000000
19.431730 31.734562 1.182412 103.000000
29.191597 20.296246 0.266835 8.000000
12.649973 -2.899554 -0.557556 1.000000
17.364985 -12.952892 -1.252920 7.000000
19.548342 31.663822 1.156433 122.000000
29.270016 20.192030 0.248254 7.000000
12.566659 -2.928978 -0.545328 1.000000
17.405876 -13.082958 -1.244070 8.000000
19.685680 31.638676 1.125469 177.000000
61.006588 41.756443 0.490319 6.000000
12.585098 -2.981950 -0.544338 1.000000
9.415545 -7.131259 -0.664491 19.000000
21.070969 33.603027 1.163312 8.000000
61.102612 41.509701 0.438351 8.000000
12.569411 -3.026931 -0.539614 2.000000
9.338119 -7.126627 -0.652640 24.000000
21.197296 33.530807 1.121917 9.000000
61.221409 41.263275 0.386571 16.000000
12.558324 -3.073002 -0.537358 1.000000
9.284680 -7.139845 -0.640477 29.000000
21.403454 33.596691 1.084867 7.000000
29.738577 19.885700 0.162341 9.000000
12.600489 -3.132313 -0.535110 1.000000
9.282479 -7.192447 -0.633917 7.000000
25.618963 39.890320 1.249716 10.000000
29.741179 19.737553 0.155748 8.000000
12.637631 -3.190773 -0.530344 1.000000
17.166849 -13.402565 -1.160453 7.000000
25.517046 39.428257 1.188809 14.000000
29.725704 19.570730 0.130444 8.000000
12.722817 -3.261931 -0.529825 1.000000
17.188881 -13.521459 -1.149974 7.000000
29.851725 19.497238 0.105790 8.000000
12.812489 -3.335016 -0.529436 1.000000
17.081133 -13.538340 -1.130820 7.000000
25.832582 39.296448 1.108251 14.000000
29.679646 19.230030 0.086413 17.000000
12.727989 -3.362880 -0.519546 1.000000
17.063532 -13.626515 -1.110026 7.000000
25.999052 39.235630 1.068120 14.000000
29.700375 19.096596 0.061628 28.000000
12.884652 -3.454843 -0.521790 1.000000
17.060762 -13.727013 -1.097785 7.000000
29.778629 18.993006 0.036987 34.000000
12.775660 -3.475859 -0.513260 1.000000
17.018686 -13.796221 -1.082991 7.000000
46.799824 69.540565 1.741183 1.000000
29.801569 18.854332 0.030775 18.000000
97.177284 14.419222 -1.920633 2.000000
12.844796 -3.545283 -0.514227 2.000000
17.053970 -13.928715 -1.065364 7.000000
47.192749 69.651016 1.674201 14.000000
29.841805 18.734247 -0.006150 31.000000
12.943180 -3.621107 -0.513970 3.000000
16.941528 -13.940705 -1.050010 8.000000
12.910766 -3.663116 -0.508521 1.000000
16.933315 -14.038350 -1.033445 8.000000
64.674377 39.943707 -0.079603 23.000000
13.122445 -3.777677 -0.512653 2.000000
16.890100 -14.107295 -1.014710 8.000000
65.071846 39.860455 -0.119867 12.000000
74.178772 9.923916 -1.515397 4.000000
13.156061 -3.842118 -0.507353 1.000000
16.910091 -14.224494 -1.003429 8.000000
27.122608 38.792713 0.751846 10.000000
65.428406 39.765457 -0.173720 13.000000
12.988577 -3.844926 -0.501434 5.000000
16.831699 -14.264221 -0.986439 7.000000
27.222612 38.662098 0.718041 14.000000
65.830597 39.680222 -0.201232 18.000000
12.947369 -3.879471 -0.490888 1.000000
16.745764 -14.297179 -0.965214 8.000000
66.035576 39.474529 -0.241698 25.000000
84.331940 -25.638079 -3.170440 20.000000
16.674822 -14.342609 -0.948765 9.000000
66.545288 39.448891 -0.283539 17.000000
84.305313 -25.967916 -3.142164 20.000000
16.656614 -14.433500 -0.935317 9.000000
66.876335 39.330311 -0.338527 15.000000
84.477737 -26.360415 -3.121241 6.000000
16.585394 -14.478559 -0.915045 10.000000
51.011902 70.289223 1.000476 1.000000
67.205597 39.193146 -0.380201 16.000000
16.577707 -14.579259 -0.902125 18.000000
51.116688 69.867683 0.906595 1.000000
33.877739 19.590868 -0.211740 1.000000
37.268791 -11.929834 -1.352830 37.000000
16.543440 -14.657001 -0.883858 29.000000
51.239445 69.499489 0.813818 1.000000
33.875443 19.424212 -0.238541 6.000000
36.944801 -11.975585 -1.329081 35.000000
16.507545 -14.728374 -0.869212 32.000000
51.299858 69.125717 0.766248 1.000000
68.489960 38.955162 -0.522584 7.000000
152.674088 15.319640 -3.240918 10.000000
16.472700 -14.806077 -0.847000 22.000000
51.550327 68.933830 0.676064 1.000000
152.579391 14.745479 -3.264505 10.000000
33.954216 -11.268744 -1.186790 12.000000
9.170564 -8.303700 -0.462286 18.000000
20.548475 27.268745 0.238375 8.000000
69.240021 38.712803 -0.623050 3.000000
33.794651 -11.353461 -1.170201 34.000000
9.096004 -8.297064 -0.451450 22.000000
20.601330 27.141249 0.208151 8.000000
33.625450 -11.433941 -1.153375 34.000000
20.682547 27.041864 0.178258 8.000000
95.145973 52.285320 -0.966388 23.000000
93.581131 8.006280 -2.033007 14.000000
33.593143 -11.560489 -1.141298 31.000000
20.752508 26.937954 0.142439 8.000000
95.064034 51.809074 -1.020406 27.000000
33.848255 -11.787210 -1.138901 16.000000
20.989134 27.039534 0.113511 8.000000
94.830521 51.231899 -1.072318 1.000000
33.562157 -11.819100 -1.118223 63.000000
7.795585 -7.320542 -0.358493 14.000000
52.452995 67.088486 0.208085 1.000000
94.805489 50.812954 -1.126450 23.000000
33.617836 -11.977386 -1.109064 42.000000
7.714471 -7.297764 -0.346714 10.000000
52.725086 66.881454 0.118913 1.000000
94.548698 50.187794 -1.195735 28.000000
33.584133 -12.117523 -1.090836 9.000000
53.149418 66.985794 0.044773 1.000000
94.417305 49.675346 -1.247632 25.000000
33.586800 -12.257799 -1.079882 32.000000
94.549629 49.324341 -1.302943 1.000000
33.527935 -12.375756 -1.066954 30.000000
7.455976 -7.207700 -0.313217 255.000000
33.739925 -12.581293 -1.062442 53.000000
7.479790 -7.283946 -0.308042 21.000000
33.685093 -12.701669 -1.030731 18.000000
7.446133 -7.304533 -0.296824 63.000000
30.864307 -11.767419 -0.945731 9.000000
7.369686 -7.282736 -0.287599 27.000000
93.678970 47.136097 -1.500960 1.000000
33.819923 -13.036462 -1.025091 7.000000
7.649046 -7.611757 -0.291997 76.000000
50.283398 60.631214 -0.384941 27.000000
93.716164 46.725155 -1.553644 1.000000
33.614155 -13.112371 -1.001534 7.000000
7.600094 -7.618687 -0.281795 28.000000
50.556351 60.507622 -0.454141 1.000000
94.630905 46.769508 -1.621375 9.000000
32.812809 -12.925308 -0.966610 7.000000
7.593392 -7.667974 -0.273163 17.000000
95.003487 46.521168 -1.643293 30.000000
32.208439 -12.823808 -0.932019 6.000000
7.502326 -7.631757 -0.261546 76.000000
48.784447 1.669492 -1.082151 11.000000
31.609732 -12.719850 -0.904135 6.000000
7.220871 -7.396918 -0.245412 35.000000
93.127945 44.759411 -1.713364 26.000000
47.980118 1.482689 -1.072576 11.000000
30.966051 -12.592900 -0.869523 7.000000
7.138199 -7.366050 -0.234562 24.000000
92.942986 44.251907 -1.760880 1.000000
47.510971 1.277311 -1.061965 14.000000
7.121716 -7.403144 -0.224148 10.000000
47.180119 1.111861 -1.054482 33.000000
27.300608 -11.336204 -0.743097 22.000000
7.087762 -7.422104 -0.214974 18.000000
47.223862 0.939726 -1.055376 61.000000
27.116224 -11.376342 -0.728937 30.000000
7.086017 -7.472325 -0.206720 29.000000
82.160583 93.455612 -1.498626 10.000000
47.271595 0.767359 -1.072884 56.000000
7.082664 -7.523830 -0.200209 20.000000
82.538124 93.194000 -1.607927 10.000000
47.314449 0.594602 -1.057274 28.000000
7.034700 -7.527971 -0.188838 18.000000
82.688454 92.677132 -1.712635 10.000000
92.246689 41.883785 -2.016005 30.000000
47.385921 0.421802 -1.075379 37.000000
39.949551 -17.271162 -1.018078 20.000000
7.022048 -7.567212 -0.183800 28.000000
92.043312 41.385216 -2.043473 30.000000
47.422142 0.248304 -1.076174 30.000000
39.799267 -17.379601 -1.000697 13.000000
6.923242 -7.515795 -0.173013 255.000000
18.270845 20.199474 -0.418360 10.000000
92.129456 41.018677 -2.094861 30.000000
47.487736 0.058017 -1.077648 29.000000
39.578747 -17.472813 -0.974243 20.000000
6.939606 -7.589191 -0.165139 31.000000
18.388279 20.180134 -0.443183 7.000000
47.572491 -0.083030 -1.087880 37.000000
39.402325 -17.551287 -0.948732 23.000000
6.935359 -7.640592 -0.156697 56.000000
91.614807 40.025524 -2.164039 29.000000
47.592049 -0.257500 -1.080030 37.000000
39.161827 -17.600023 -0.929347 17.000000
6.854485 -7.599329 -0.146475 142.000000
91.686356 39.695229 -2.214946 30.000000
47.670761 -0.432658 -1.081845 29.000000
38.933620 -17.669268 -0.903065 20.000000
6.933387 -7.743685 -0.139695 40.000000
91.416893 39.143566 -2.239353 30.000000
47.713631 -0.624606 -1.082866 32.000000
38.691505 -17.730692 -0.891519 14.000000
6.924950 -7.791538 -0.132820 102.000000
25.748932 27.458216 -0.749063 2.000000
91.376999 38.749599 -2.287045 33.000000
47.751278 -0.783482 -1.083774 28.000000
38.531265 -17.828432 -0.874500 24.000000
6.649662 -7.534605 -0.119273 223.000000
25.649839 27.152411 -0.775890 9.000000
91.503090 38.407993 -2.355980 1.000000
47.832664 -0.960192 -1.102403 30.000000
38.310677 -17.888988 -0.848758 10.000000
6.655000 -7.596593 -0.112816 9.000000
25.707355 27.014259 -0.807187 9.000000
47.889172 -1.136934 -1.087063 28.000000
37.349934 -17.607405 -0.807268 8.000000
6.643603 -7.639897 -0.100726 113.000000
25.791861 26.904903 -0.839279 9.000000
47.924274 -1.313534 -1.104706 35.000000
35.791397 -17.033297 -0.754165 8.000000
6.564645 -7.602532 -0.094670 61.000000
25.889729 26.837706 -0.865763 9.000000
48.014450 -1.492138 -1.090126 28.000000
34.098076 -16.380987 -0.686721 9.000000
6.592122 -7.691160 -0.083096 21.000000
48.053234 -1.669659 -1.107931 26.000000
32.575996 -15.796982 -0.650908 8.000000
6.476439 -7.612481 -0.076755 26.000000
43.085186 17.180531 -1.206515 72.000000
48.032326 -1.836820 -1.099196 9.000000
31.328176 -15.333958 -0.614915 9.000000
6.530531 -7.730577 -0.068884 35.000000
30.751060 31.183455 -1.131525 5.000000
48.614597 -2.037555 -1.112685 1.000000
30.303905 -14.970543 -0.578180 9.000000
90.496727 35.319595 -2.611696 27.000000
48.796558 -2.224373 -1.117029 2.000000
29.097321 -14.501049 -0.539094 11.000000
6.494313 -7.800252 -0.049602 38.000000
30.137758 30.127237 -1.175424 5.000000
43.321377 16.725016 -1.264680 51.000000
48.363697 -2.382302 -1.107312 9.000000
26.739626 -13.448630 -0.480646 8.000000
6.424300 -7.773929 -0.040484 13.000000
30.279167 30.047527 -1.213892 20.000000
43.279034 16.526655 -1.285943 10.000000
48.400654 -2.545042 -1.099882 9.000000
26.217819 -13.306813 -0.456742 27.000000
6.351390 -7.743324 -0.031463 35.000000
30.505821 30.051336 -1.255955 11.000000
43.334221 16.365995 -1.301973 36.000000
26.129034 -13.382412 -0.440672 24.000000
6.378014 -7.831374 -0.022916 39.000000
56.875244 55.638046 -2.403093 1.000000
43.364960 16.196243 -1.333448 6.000000
25.258219 -13.053492 -0.421826 19.000000
6.239264 -7.718612 -0.015590 19.000000
57.213806 55.560333 -2.464507 1.000000
43.559555 16.087244 -1.353832 1.000000
24.470087 -12.760042 -0.394989 9.000000
6.082651 -7.581537 -0.006786 118.000000
57.138447 55.081673 -2.521875 1.000000
23.642366 -12.433583 -0.368337 22.000000
57.106941 54.648907 -2.594486 1.000000
22.982979 -12.194551 -0.340591 10.000000
22.303556 -11.939022 -0.317921 9.000000
6.455403 -8.224009 0.021897 24.000000
21.639509 -11.685800 -0.296185 9.000000
6.502022 -8.346204 0.031391 72.000000
57.012123 53.351006 -2.753953 4.000000
78.458565 -6.464254 -1.800254 13.000000
21.017040 -11.449347 -0.284060 8.000000
6.309283 -8.160315 0.037806 18.000000
78.120903 -6.724794 -1.779368 34.000000
20.497459 -11.263916 -0.265345 10.000000
6.283772 -8.186213 0.050433 29.000000
19.959583 -11.059224 -0.246931 15.000000
6.250667 -8.205173 0.059410 22.000000
43.416168 39.769653 -2.230982 1.000000
19.473892 -10.883591 -0.225838 9.000000
6.197833 -8.195004 0.066353 29.000000
43.571751 39.633343 -2.283330 1.000000
18.967941 -10.692247 -0.209022 9.000000
6.335791 -8.441549 0.077371 28.000000
18.489668 -10.512133 -0.200462 9.000000
6.258437 -8.399397 0.087754 29.000000
22.314238 20.000341 -1.208782 1.000000
18.175358 -10.417553 -0.182821 20.000000
6.200809 -8.386033 0.096479 22.000000
22.468546 19.990623 -1.244710 6.000000
18.149452 -10.482816 -0.171934 32.000000
6.115246 -8.330992 0.102815 29.000000
22.724480 20.069597 -1.276008 8.000000
18.102343 -10.544275 -0.160883 20.000000
6.081671 -8.349233 0.111779 27.000000
22.879681 20.057877 -1.307187 6.000000
18.076578 -10.618192 -0.150021 21.000000
6.084643 -8.414877 0.123249 19.000000
23.043055 20.059282 -1.333881 7.000000
18.020948 -10.683047 -0.142601 21.000000
6.173195 -8.603579 0.134923 9.000000
18.030825 -10.774136 -0.131977 13.000000
6.296761 -8.840781 0.149665 7.000000
17.995569 -10.842774 -0.117341 15.000000
5.958399 -8.430940 0.149565 15.000000
17.977125 -10.921670 -0.106467 19.000000
5.953214 -8.489450 0.159266 16.000000
17.923780 -10.970802 -0.099030 10.000000
5.932014 -8.522347 0.170370 85.000000
76.237061 -10.497406 -1.692632 19.000000
17.917532 -11.057454 -0.088195 23.000000
5.858055 -8.482228 0.176336 22.000000
87.166573 -12.328043 -1.920910 6.000000
17.891968 -11.136769 -0.073565 16.000000
5.932903 -8.655062 0.188657 70.000000
75.302536 -10.931767 -1.660331 23.000000
17.850714 -11.193391 -0.069871 14.000000
5.903838 -8.680715 0.199741 10.000000
85.249100 -12.694934 -1.895704 8.000000
17.822283 -11.266780 -0.055200 19.000000
5.809093 -8.605854 0.204802 17.000000
85.167725 -13.002069 -1.879898 11.000000
17.799736 -11.339684 -0.044202 16.000000
5.922033 -8.842889 0.221075 7.000000
85.119827 -13.314188 -1.864861 10.000000
17.753860 -11.402153 -0.036826 17.000000
5.705628 -8.584411 0.223112 190.000000
86.303993 -13.792763 -1.907057 21.000000
17.720362 -11.472592 -0.022106 13.000000
5.686530 -8.620801 0.232558 208.000000
76.840508 -12.569346 -1.685354 8.000000
17.707514 -11.556598 -0.011071 14.000000
5.687625 -8.691604 0.242973 9.000000
39.014538 -6.521794 -0.849298 10.000000
17.662888 -11.615591 -0.003690 11.000000
5.767580 -8.877901 0.256889 37.000000
39.014862 -6.668933 -0.856743 8.000000
17.645199 -11.696827 0.011085 10.000000
5.741446 -8.912395 0.266505 36.000000
38.946129 -6.804193 -0.841969 9.000000
9.902797 -6.616838 0.012472 1.000000
5.731685 -8.965833 0.278654 12.000000
39.152367 -6.988200 -0.840031 8.000000
9.924094 -6.683810 0.016706 1.000000
5.677239 -8.952803 0.286858 83.000000
39.204739 -7.145916 -0.862586 8.000000
9.884148 -6.707177 0.020848 1.000000
5.720350 -9.090797 0.300018 1.000000
9.917261 -6.782866 0.029358 1.000000
5.647186 -9.047925 0.305370 1.000000
84.672943 -16.075661 -1.835426 37.000000
17.516356 -12.074702 0.066837 10.000000
11.937876 2.738524 -0.543324 1.000000
84.328484 -16.330709 -1.844243 39.000000
17.531574 -12.175688 0.074508 10.000000
5.736308 -9.338837 0.334855 13.000000
11.947554 2.694689 -0.549737 1.000000
84.233734 -16.632898 -1.843492 37.000000
17.482712 -12.236979 0.081940 10.000000
5.578681 -9.153711 0.336880 9.000000
12.132812 2.689780 -0.559978 1.000000
84.167625 -16.940599 -1.828400 23.000000
17.466291 -12.321113 0.096996 11.000000
5.541370 -9.164322 0.345912 10.000000
12.244493 2.667493 -0.577828 1.000000
17.441391 -12.399533 0.097110 20.000000
5.481917 -9.141503 0.351740 13.000000
17.434526 -12.486500 0.112285 18.000000
12.957853 2.721201 -0.619774 8.000000
36.479900 -7.760696 -0.807295 6.000000
17.388611 -12.550292 0.119771 17.000000
13.455381 -22.788101 0.919520 10.000000
12.889048 2.657465 -0.625221 5.000000
36.455952 -7.895377 -0.813913 1.000000
17.362679 -12.628620 0.127405 12.000000
12.511680 -21.359795 0.877422 34.000000
17.274107 -12.656631 0.130816 10.000000
17.268038 -12.656816 0.089682 10.000000
12.935854 2.667116 -0.671397 9.000000
36.608055 -7.935008 -0.941625 1.000000
17.318428 -12.596435 0.063539 10.000000
5.541470 -9.460334 0.367539 5.000000
36.396694 -7.749636 -0.961447 6.000000
17.325851 -12.509595 0.041027 10.000000
13.459099 -22.794399 0.850395 10.000000
36.664421 -7.666276 -0.974313 1.000000
17.347216 -12.428548 0.029796 10.000000
5.428904 -9.121544 0.329877 14.000000
12.310362 2.679592 -0.642628 1.000000
17.392670 -12.364896 0.000000 10.000000
5.465075 -9.106210 0.317057 17.000000
11.983669 2.654521 -0.623930 1.000000
84.172142 -16.956793 -2.338386 25.000000
17.407124 -12.283926 -0.014874 10.000000
5.497025 -9.087402 0.304082 18.000000
11.881303 2.677567 -0.619107 1.000000
84.232513 -16.647934 -2.383343 38.000000
17.452013 -12.220031 -0.033466 21.000000
5.604328 -9.192182 0.296958 6.000000
11.769196 2.697668 -0.613776 1.000000
84.326080 -16.345512 -2.429290 30.000000
17.492540 -12.153104 -0.055763 16.000000
5.677404 -9.235711 0.287673 7.000000
17.489540 -12.060721 -0.070451 17.000000
5.615020 -9.063164 0.269873 21.000000
9.907768 -6.778912 -0.050286 1.000000
39.150318 -7.150117 -1.167269 6.000000
9.894094 -6.718972 -0.062622 4.000000
39.037907 -6.981832 -1.183930 5.000000
9.918626 -6.682644 -0.068884 1.000000
6.177591 -9.738083 0.251635 31.000000
9.918068 -6.629545 -0.077040 33.000000
11.353491 2.868658 -0.587071 1.000000
39.003471 -6.680999 -1.209020 8.000000
17.659351 -11.710644 -0.155329 14.000000
11.154353 2.861876 -0.575297 1.000000
38.983120 -6.530532 -1.214544 7.000000
17.670792 -11.629627 -0.169841 24.000000
76.815247 -12.606514 -2.405512 11.000000
17.700636 -11.556516 -0.184479 18.000000
5.596453 -8.555536 0.182020 40.000000
86.284462 -13.805086 -2.746085 7.000000
17.734339 -11.486034 -0.202830 24.000000
5.600566 -8.487256 0.170392 22.000000
17.757378 -11.413169 -0.217375 17.000000
5.693935 -8.563575 0.159755 27.000000
82.593124 -12.594270 -2.654789 173.000000
17.786274 -11.339837 -0.235629 24.000000
5.761558 -8.596771 0.149927 28.000000
17.831800 -11.277154 -0.250414 17.000000
5.777626 -8.556015 0.138754 37.000000
17.858160 -11.206746 -0.268635 10.000000
5.844096 -8.589648 0.128748 29.000000
17.890461 -11.135831 -0.283219 21.000000
5.869784 -8.566187 0.119624 16.000000
27.837561 -3.828122 -0.932158 1.000000
17.905504 -11.054349 -0.293834 16.000000
5.882817 -8.514904 0.106577 29.000000
27.682838 -3.703515 -0.931396 1.000000
17.954248 -10.993758 -0.308671 28.000000
5.945474 -8.538507 0.096247 255.000000
27.491318 -3.585137 -0.939080 1.000000
17.975187 -10.920493 -0.326733 10.000000
6.018368 -8.579176 0.085967 255.000000
27.459492 -3.478679 -0.942387 9.000000
18.006327 -10.849256 -0.341254 11.000000
6.153722 -8.704092 0.078141 14.000000
27.799400 -3.418262 -0.953616 3.000000
18.028648 -10.772836 -0.351926 13.000000
6.216024 -8.727427 0.065454 9.000000
27.727222 -3.306271 -0.955598 3.000000
18.046236 -10.693782 -0.369813 21.000000
6.116802 -8.521843 0.054925 27.000000
22.780857 19.985312 -1.561689 8.000000
27.783331 -3.209727 -0.971781 5.000000
18.091846 -10.635656 -0.384640 18.000000
6.158266 -8.516695 0.042190 7.000000
22.558798 19.937292 -1.525124 7.000000
27.526577 -3.077871 -0.967239 1.000000
18.117577 -10.561621 -0.395346 23.000000
6.230685 -8.550671 0.031391 245.000000
22.381931 19.927563 -1.497120 7.000000
27.617161 -2.985554 -0.970031 4.000000
18.151653 -10.492537 -0.406230 22.000000
6.251633 -8.516796 0.022127 22.000000
22.201895 19.913626 -1.463859 7.000000
27.622776 -2.883775 -0.974704 1.000000
18.224434 -10.445682 -0.421669 11.000000
6.235242 -8.429523 0.010980 20.000000
22.032749 19.901131 -1.441696 7.000000
18.631687 -10.588573 -0.448901 9.000000
6.228783 -8.359598 0.001820 30.000000
21.827600 19.861588 -1.407212 7.000000
19.095083 -10.763917 -0.470640 9.000000
6.379463 -8.496647 -0.007418 112.000000
21.685423 19.877993 -1.382151 6.000000
32.731808 -3.053725 -1.176707 1.000000
19.623440 -10.976161 -0.494541 9.000000
6.440766 -8.519309 -0.016776 87.000000
21.448172 19.805668 -1.346115 6.000000
32.533543 -2.914988 -1.174896 1.000000
20.165489 -11.173312 -0.523170 9.000000
6.212777 -8.152483 -0.030412 11.000000
21.324354 19.822750 -1.327186 7.000000
32.653538 -2.805137 -1.178850 3.000000
20.605179 -11.327793 -0.545918 9.000000
21.168905 19.837250 -1.297088 7.000000
32.653435 -2.684601 -1.184209 4.000000
21.313271 -11.615547 -0.584740 9.000000
6.417905 -8.303799 -0.049456 47.000000
20.951395 19.771231 -1.262793 7.000000
32.782192 -2.574258 -1.200022 2.000000
21.845636 -11.797112 -0.611106 9.000000
20.854237 19.824549 -1.236151 8.000000
32.771263 -2.452580 -1.205028 1.000000
22.461325 -12.023475 -0.640440 10.000000
20.670206 19.794333 -1.209518 9.000000
33.128922 -2.357276 -1.217854 3.000000
23.202566 -12.311063 -0.674046 11.000000
6.082116 -7.690250 -0.077007 29.000000
20.447113 19.724869 -1.180817 7.000000
23.875179 -12.556020 -0.715801 28.000000
6.214795 -7.801882 -0.087047 35.000000
20.336145 19.762230 -1.148839 7.000000
48.483490 -3.092802 -1.789913 27.000000
24.678730 -12.863361 -0.748195 27.000000
6.215133 -7.743895 -0.095320 29.000000
25.568829 -13.208362 -0.798841 37.000000
6.210631 -7.683189 -0.105186 26.000000
30.399740 29.967751 -1.669729 20.000000
43.568108 16.463017 -1.935776 1.000000
48.314980 -2.726604 -1.791364 14.000000
26.166018 -13.401355 -0.831437 28.000000
6.245003 -7.668054 -0.113922 9.000000
30.262360 30.051821 -1.630948 37.000000
45.435471 17.359207 -2.004551 132.000000
48.289722 -2.547660 -1.790069 32.000000
26.241308 -13.318734 -0.847694 29.000000
6.383999 -7.780310 -0.124721 29.000000
43.270420 16.714020 -1.895503 31.000000
48.232918 -2.367422 -1.812950 34.000000
27.048586 -13.604021 -0.888022 7.000000
6.302763 -7.626859 -0.131248 36.000000
43.005020 16.792902 -1.862347 102.000000
48.171387 -2.187450 -1.810324 77.000000
29.298597 -14.601358 -0.977283 17.000000
6.372152 -7.653526 -0.144278 25.000000
30.744974 31.199055 -1.560225 10.000000
42.934494 16.946981 -1.845832 94.000000
48.054279 -2.005669 -1.805634 29.000000
30.587921 -15.104210 -1.048234 10.000000
6.421232 -7.657953 -0.153506 30.000000
42.956509 17.137909 -1.825213 4.000000
48.101250 -1.831048 -1.807135 24.000000
32.065971 -15.688143 -1.103144 9.000000
6.404001 -7.580795 -0.161091 29.000000
26.108568 26.866787 -1.282054 8.000000
48.001881 -1.667874 -1.811579 25.000000
33.398563 -16.203066 -1.173074 10.000000
6.502913 -7.640897 -0.173384 16.000000
25.931908 26.900215 -1.246028 9.000000
7.222287 -0.192906 -0.272500 1.000000
34.913372 -16.765163 -1.244206 17.000000
6.675844 -7.788841 -0.186223 1.000000
25.782187 26.913610 -1.216842 9.000000
7.247766 -0.169537 -0.275973 1.000000
36.329319 -17.289297 -1.313596 9.000000
25.630049 26.970699 -1.175759 9.000000
7.328316 -0.141990 -0.279016 1.000000
38.123039 -17.971859 -1.398154 26.000000
25.665462 27.206970 -1.149279 9.000000
7.179008 -0.112777 -0.270804 1.000000
38.378155 -17.920498 -1.427294 24.000000
7.237027 -8.260969 -0.228136 29.000000
7.224308 -0.089527 -0.272500 1.000000
38.649818 -17.891478 -1.457509 18.000000
7.184523 -0.062698 -0.273500 1.000000
38.787354 -17.782808 -1.475140 20.000000
7.149730 -0.036188 -0.272169 1.000000
38.962135 -17.674009 -1.508982 9.000000
6.762009 -7.552278 -0.240665 68.000000
7.069826 -0.009871 -0.270360 1.000000
39.283886 -17.663120 -1.549274 7.000000
6.850458 -7.600198 -0.251849 14.000000
18.336889 20.137852 -0.717944 15.000000
7.124826 0.013679 -0.271218 1.000000
6.989704 -7.703165 -0.263294 2.000000
18.313646 20.261003 -0.696088 5.000000
7.114736 0.039737 -0.270838 1.000000
6.900988 -7.546958 -0.269575 10.000000
54.636505 60.850639 -2.027221 8.000000
7.184489 0.066460 -0.273500 1.000000
27.366400 -11.956086 -1.115947 6.000000
7.090985 -7.697895 -0.285033 10.000000
7.139234 0.092211 -0.271789 1.000000
27.822199 -12.022449 -1.137853 7.000000
7.169975 -7.726623 -0.296273 8.000000
7.088891 0.117549 -0.269887 1.000000
28.329666 -12.130406 -1.178501 7.000000
7.105381 -7.608932 -0.299889 133.000000
7.108394 0.143935 -0.270647 1.000000
7.180982 -7.633608 -0.311051 21.000000
7.107818 0.169988 -0.270647 1.000000
27.218197 -11.407952 -1.159539 14.000000
7.090978 -7.477557 -0.316651 34.000000
6.987279 0.192731 -0.266083 1.000000
27.250887 -11.315557 -1.169642 12.000000
7.120294 -7.456171 -0.325801 33.000000
7.021531 0.219434 -0.266188 1.000000
30.581760 -12.567442 -1.327961 7.000000
7.186381 -7.475585 -0.334936 29.000000
7.045638 0.243577 -0.269596 1.000000
31.110901 -12.658134 -1.360754 7.000000
7.470736 -7.714588 -0.358127 16.000000
6.999763 0.270127 -0.265431 1.000000
31.805056 -12.791999 -1.406838 7.000000
7.592226 -7.777326 -0.370047 32.000000
7.098564 0.300000 -0.269217 1.000000
32.607979 -12.989476 -1.452714 6.000000
7.528019 -7.657894 -0.374995 128.000000
50.475216 60.453392 -1.250932 23.000000
7.112438 0.326706 -0.268543 1.000000
33.077595 -13.036280 -1.490145 6.000000
7.351785 -7.423993 -0.377639 230.000000
80.738777 97.423195 -1.899348 36.000000
7.091231 0.351782 -0.267789 1.000000
33.785519 -13.158838 -1.532324 6.000000
7.375229 -7.393272 -0.384749 150.000000
80.551720 97.890976 -1.792321 26.000000
7.090026 0.375295 -0.267789 1.000000
30.840628 -11.894225 -1.414302 7.000000
7.240146 -7.209881 -0.385382 33.000000
7.088556 0.401276 -0.269028 1.000000
30.892885 -11.784492 -1.426271 8.000000
7.121799 0.431845 -0.270353 2.000000
33.701759 -12.701235 -1.572479 12.000000
7.528950 -7.385775 -0.416228 81.000000
33.724453 -12.582228 -1.584171 17.000000
7.606862 -7.412865 -0.426601 35.000000
33.746395 -12.449701 -1.595628 14.000000
7.625511 -7.371591 -0.435255 50.000000
52.964493 66.776665 -0.803309 26.000000
7.281175 0.521921 -0.274053 1.000000
33.739655 -12.306911 -1.605727 37.000000
7.636504 -7.330823 -0.443673 36.000000
7.194608 0.540965 -0.270864 2.000000
33.746147 -12.169324 -1.622724 38.000000
7.667719 -7.312084 -0.453338 36.000000
7.227684 0.568831 -0.268381 2.000000
34.218124 -12.197986 -1.655965 12.000000
20.927275 26.979279 -0.220497 8.000000
7.285098 0.602785 -0.270600 1.000000
34.200813 -12.050718 -1.665663 25.000000
16.404011 -15.404393 -0.994309 6.000000
20.842253 27.064217 -0.184822 9.000000
95.318871 51.969536 -2.520576 18.000000
33.994209 -11.838037 -1.666069 19.000000
16.434147 -15.319728 -1.012371 7.000000
20.679249 27.057121 -0.154536 8.000000
34.187664 -11.765083 -1.692397 19.000000
9.044019 -8.368991 -0.563854 34.000000
20.589094 27.144798 -0.118926 8.000000
69.252838 38.419083 -1.741888 6.000000
34.201626 -11.629863 -1.703605 9.000000
9.058101 -8.323517 -0.573675 27.000000
20.581493 27.332409 -0.089575 8.000000
69.465691 38.870811 -1.709115 4.000000
37.240902 -12.511245 -1.852697 9.000000
9.099243 -8.300018 -0.585122 24.000000
78.875877 105.473938 -0.229868 210.000000
68.896896 38.884800 -1.657174 6.000000
37.133595 -12.323916 -1.872475 6.000000
9.174523 -8.313116 -0.596850 1.000000
78.512108 105.832367 -0.091996 150.000000
68.450798 38.964516 -1.594857 23.000000
16.557774 -14.882543 -1.092747 7.000000
78.080666 105.983482 0.022976 16.000000
33.888721 19.447546 -0.770694 9.000000
16.651165 -14.866955 -1.111273 7.000000
67.419006 39.018574 -1.482077 4.000000
16.672592 -14.766234 -1.128223 7.000000
67.073708 39.147610 -1.409834 21.000000
12.435119 -3.923164 -0.640010 1.000000
16.713375 -14.703746 -1.143258 7.000000
66.671898 39.241405 -1.363882 14.000000
12.434896 -3.873039 -0.643820 1.000000
16.684872 -14.575666 -1.157206 8.000000
66.440727 39.418259 -1.308010 14.000000
12.342562 -3.799426 -0.640643 1.000000
16.699848 -14.481173 -1.170030 8.000000
27.462399 38.700539 0.248473 1.000000
65.931717 39.443687 -1.260588 21.000000
12.634659 -3.833886 -0.659621 1.000000
16.805323 -14.465067 -1.185340 7.000000
27.245422 38.694496 0.280831 20.000000
65.779701 39.649540 -1.219963 8.000000
12.235717 -3.668564 -0.642625 1.000000
16.819315 -14.370130 -1.205838 6.000000
27.104275 38.780903 0.330318 5.000000
65.308914 39.724056 -1.160800 20.000000
12.211817 -3.608034 -0.645060 1.000000
16.829178 -14.272182 -1.222102 7.000000
65.031433 39.882549 -1.105188 20.000000
12.291859 -3.582750 -0.653071 1.000000
16.897139 -14.213598 -1.238346 8.000000
64.590363 39.922977 -1.060288 21.000000
28.097095 3.873806 -0.985497 1.000000
12.415066 -3.569345 -0.663438 1.000000
16.916864 -14.134665 -1.247929 7.000000
64.334190 40.091259 -0.979092 6.000000
27.916035 3.943219 -0.974674 1.000000
16.994780 -14.094312 -1.265322 7.000000
46.986889 69.321129 0.935477 8.000000
28.000469 4.059875 -0.973191 1.000000
16.929848 -13.936050 -1.275875 7.000000
46.584152 69.272293 1.005366 22.000000
63.489040 40.198170 -0.878762 11.000000
12.525317 -3.452399 -0.676356 1.000000
16.950647 -13.854193 -1.289126 7.000000
46.582920 69.795357 1.098479 10.000000
29.765882 18.999496 -0.400627 6.000000
12.176384 -3.308250 -0.659063 1.000000
17.012997 -13.791609 -1.308827 7.000000
29.814053 19.184401 -0.371277 8.000000
12.086918 -3.236419 -0.657953 1.000000
17.027180 -13.709787 -1.314071 7.000000
29.685026 19.255590 -0.345842 18.000000
12.055026 -3.180574 -0.659942 1.000000
17.041325 -13.618526 -1.330408 8.000000
26.047140 39.940998 0.774049 10.000000
29.780996 19.465876 -0.329119 7.000000
12.147427 -3.161904 -0.668817 1.000000
17.070660 -13.539742 -1.347901 7.000000
25.883829 40.010311 0.823465 9.000000
12.068007 -3.089559 -0.665937 1.000000
17.139219 -13.492080 -1.360866 7.000000
25.854261 40.272148 0.877123 14.000000
61.472404 40.795788 -0.579461 1.000000
12.499664 -3.153618 -0.693658 1.000000
17.109158 -13.367139 -1.369797 8.000000
21.388081 33.585495 0.771488 8.000000
61.161961 40.928905 -0.513786 13.000000
12.265081 -3.042117 -0.679956 1.000000
9.262696 -7.182295 -0.749749 19.000000
21.243567 33.616985 0.812163 10.000000
61.252232 41.315155 -0.464230 17.000000
82.609009 14.759537 -2.681186 16.000000
9.268979 -7.132922 -0.752236 23.000000
21.069304 33.613411 0.851767 8.000000
61.146126 41.570469 -0.412957 25.000000
12.241984 -2.945821 -0.684131 1.000000
9.338046 -7.131731 -0.768071 21.000000
19.681423 31.644144 0.845670 191.000000
61.070095 41.815563 -0.348786 21.000000
12.510309 -2.961923 -0.696265 1.000000
9.415491 -7.136392 -0.778497 1.000000
19.565119 31.703375 0.884457 193.000000
29.193491 20.154285 -0.142405 6.000000
12.161022 -2.832196 -0.680614 1.000000
17.335348 -13.039419 -1.444581 8.000000
19.435331 31.752884 0.916352 188.000000
12.180820 -2.789780 -0.685520 1.000000
17.374216 -12.969220 -1.459053 8.000000
19.313486 31.802607 0.954824 108.000000
61.646385 43.197338 -0.197069 12.000000
31.735996 6.272385 -0.988379 26.000000
12.244422 -2.757154 -0.690724 1.000000
17.324814 -12.833732 -1.462284 8.000000
22.137205 36.740746 1.153199 239.000000
31.522221 6.350270 -0.965587 32.000000
12.259320 -2.713337 -0.690998 1.000000
17.403061 -12.793174 -1.480071 8.000000
21.991508 36.803421 1.197559 255.000000
61.449951 43.718651 -0.078974 13.000000
31.528442 6.471859 -0.955253 31.000000
12.400781 -2.697006 -0.700632 1.000000
17.420786 -12.708114 -1.492733 8.000000
21.846966 36.853065 1.241586 204.000000
61.358852 44.009666 -0.013179 4.000000
31.504671 6.587408 -0.949636 27.000000
12.694101 -2.709795 -0.718883 1.000000
17.402178 -12.597075 -1.494707 8.000000
21.779343 37.047882 1.298002 11.000000
61.220669 44.218746 0.052723 1.000000
31.583612 6.724828 -0.930189 7.000000
12.664859 -2.655056 -0.716671 1.000000
17.524130 -12.587728 -1.520130 7.000000
61.200245 44.578918 0.105718 12.000000
12.742839 -2.622683 -0.722813 1.000000
17.532730 -12.496743 -1.531999 7.000000
60.774097 44.594036 0.157875 4.000000
9.768257 -6.908636 -0.855524 5.000000
37.189350 27.478514 0.145267 9.000000
12.494237 2.804243 -0.355441 1.000000
9.744036 -6.838066 -0.859555 8.000000
60.044323 44.739357 0.287518 7.000000
12.264664 2.799973 -0.347003 1.000000
9.691030 -6.747991 -0.856835 10.000000
59.895149 44.921528 0.378949 4.000000
9.687775 -6.690638 -0.860467 20.000000
46.443695 82.931190 3.501956 1.000000
13.799825 -2.577582 -0.777500 1.000000
9.711984 -6.654914 -0.864577 22.000000
46.302238 83.359802 3.629871 1.000000
14.015297 -2.564703 -0.791599 1.000000
9.723563 -6.610609 -0.869635 27.000000
13.755690 -2.517197 -0.764696 1.000000
9.724188 -6.611032 -0.859374 29.000000
9.696636 -6.644398 -0.844649 16.000000
9.689237 -6.691647 -0.835807 9.000000
46.972858 82.485939 3.430902 1.000000
60.110912 44.740047 0.510062 6.000000
33.740982 7.684344 -0.833640 1.000000
9.714247 -6.761639 -0.831792 8.000000
47.184551 82.189178 3.359141 1.000000
37.181568 27.462732 0.282371 10.000000
33.749126 7.556193 -0.845231 6.000000
9.730823 -6.826258 -0.824925 5.000000
60.966316 44.702354 0.409033 1.000000
33.712986 7.418449 -0.849668 10.000000
17.493982 -12.368103 -1.471846 7.000000
61.429100 44.696411 0.371258 4.000000
31.629507 6.838542 -0.790870 9.000000
17.555410 -12.508288 -1.458184 7.000000
61.304787 44.263226 0.343129 1.000000
31.610085 6.713165 -0.801050 31.000000
17.514320 -12.576049 -1.443469 7.000000
21.873272 36.868095 1.362171 199.000000
61.304672 43.938404 0.289610 8.000000
31.663971 6.603414 -0.796148 25.000000
12.623438 -2.697014 -0.656167 3.000000
17.400412 -12.591170 -1.419048 8.000000
22.002552 36.792725 1.317279 255.000000
61.526505 43.756939 0.263544 6.000000
31.607347 6.482308 -0.794180 19.000000
12.462534 -2.710437 -0.641620 1.000000
17.463789 -12.734815 -1.412859 8.000000
22.153440 36.738674 1.273275 250.000000
61.559963 43.441872 0.210403 8.000000
31.723864 6.385130 -0.802165 14.000000
12.335715 -2.730245 -0.631180 1.000000
17.393661 -12.781590 -1.395834 7.000000
22.305477 36.700493 1.237132 157.000000
61.641705 43.178020 0.157624 10.000000
12.306246 -2.771075 -0.627981 1.000000
17.351875 -12.849087 -1.373547 8.000000
19.436569 31.742464 1.039662 179.000000
29.113800 20.234619 0.061881 3.000000
12.603111 -2.886498 -0.634617 1.000000
17.373417 -12.963902 -1.363810 8.000000
19.553062 31.683838 1.000953 193.000000
29.224842 20.153343 0.037176 6.000000
12.441775 -2.897581 -0.624789 1.000000
17.334518 -13.034059 -1.349297 7.000000
19.701443 31.651690 0.969762 182.000000
