VERSION .7
FIELDS x y z intensity
SIZE 4 4 4 4
TYPE F F F F
COUNT 1 1 1 1
WIDTH 1213
HEIGHT 1
VIEWPOINT 0 0 0 1 0 0 0
POINTS 1213
DATA ascii
60.364738 42.930706 1.965569 13.000000
33.839317 6.921598 0.060284 7.000000
17.220928 -12.548511 -0.971312 40.000000
24.571899 40.797672 2.162680 10.000000
28.974710 20.446985 0.928627 5.000000
38.190880 7.652088 0.067981 9.000000
83.617188 -18.522173 -2.108052 27.000000
17.187572 -12.620910 -0.953386 33.000000
24.699577 40.687634 2.119783 12.000000
29.058712 20.354689 0.904251 7.000000
38.206242 7.523470 0.061167 9.000000
83.466904 -18.810080 -2.061162 27.000000
17.145746 -12.687185 -0.938719 31.000000
23.930943 39.128353 2.002566 5.000000
28.989979 20.148560 0.875146 10.000000
38.130478 7.363481 0.054224 9.000000
83.368866 -19.109335 -2.030584 37.000000
17.132011 -12.765157 -0.929072 36.000000
20.861200 33.816757 1.700070 8.000000
60.827164 41.946186 1.805782 8.000000
38.158459 7.217014 0.061002 9.000000
83.321716 -19.450901 -1.986496 66.000000
17.077404 -12.831402 -0.906486 32.000000
20.940929 33.669197 1.661835 9.000000
60.903862 41.686134 1.765062 13.000000
83.223038 -19.719109 -1.970756 32.000000
17.046692 -12.906349 -0.892407 32.000000
21.122921 33.698948 1.625212 9.000000
61.036568 41.449272 1.712956 13.000000
83.077980 -20.006613 -1.939200 31.000000
17.007710 -12.975178 -0.877890 33.000000
21.260235 33.643364 1.598449 10.000000
61.188576 41.225616 1.687202 9.000000
99.419983 17.709396 0.123376 20.000000
9.288410 -7.140135 -0.468500 27.000000
21.428259 33.674522 1.568233 4.000000
61.208176 40.928909 1.645220 12.000000
99.336472 17.319124 0.105594 1.000000
44.024342 -10.943861 -0.989850 8.000000
9.199238 -7.125380 -0.457181 27.000000
25.725849 40.102913 1.822015 5.000000
98.393814 16.783415 0.087105 1.000000
82.854897 -20.919357 -1.849713 31.000000
9.148168 -7.134484 -0.449732 9.000000
25.880495 40.005157 1.780436 8.000000
98.656891 16.456404 0.069827 1.000000
24.390421 -6.253321 -0.536224 18.000000
9.170818 -7.211540 -0.442069 3.000000
25.931847 39.794556 1.741675 8.000000
24.362591 -6.341439 -0.531724 16.000000
16.891651 -13.373763 -0.805080 30.000000
25.682289 39.112423 1.658494 14.000000
82.587570 -21.820578 -1.774411 27.000000
16.838371 -13.441895 -0.786278 25.000000
26.079796 39.372406 1.640933 10.000000
82.483498 -22.116817 -1.744083 27.000000
16.851713 -13.553967 -0.774098 33.000000
26.348324 39.507645 1.608521 14.000000
29.739830 18.968260 0.652660 5.000000
44.898403 -12.215456 -0.942176 9.000000
16.810102 -13.622272 -0.759350 32.000000
29.712082 18.797718 0.644396 6.000000
44.661198 -12.326906 -0.905782 8.000000
16.755215 -13.674961 -0.740127 24.000000
64.097038 40.223587 1.360508 22.000000
85.313461 -23.884161 -1.701085 28.000000
16.728729 -13.755810 -0.718473 29.000000
64.331406 40.058353 1.296352 17.000000
125.359909 17.640497 -0.022095 18.000000
85.259285 -24.206326 -1.686289 30.000000
16.686186 -13.823646 -0.707459 32.000000
27.021667 39.287380 1.448517 9.000000
64.665329 39.938118 1.273584 15.000000
85.122520 -24.504988 -1.654418 35.000000
16.674238 -13.917122 -0.690137 33.000000
27.265984 39.333061 1.403714 1.000000
65.097466 39.876148 1.239225 21.000000
84.634361 -24.700724 -1.615893 28.000000
16.661734 -14.010613 -0.676527 33.000000
27.237829 39.000977 1.353699 14.000000
65.384720 39.723282 1.201845 12.000000
16.610714 -14.071964 -0.657530 26.000000
27.191393 38.632080 1.303086 22.000000
65.737778 39.624271 1.152187 10.000000
16.578381 -14.149268 -0.643068 31.000000
66.162003 39.550106 1.116705 14.000000
73.204964 8.949534 -0.038615 26.000000
79.939163 -24.287374 -1.458323 26.000000
16.560852 -14.239552 -0.629148 25.000000
50.842384 71.146980 2.244042 1.000000
66.513443 39.430012 1.079695 19.000000
73.356430 8.695289 -0.051571 37.000000
16.552935 -14.333547 -0.615445 33.000000
50.922165 70.735352 2.160543 1.000000
66.914185 39.352570 1.029759 19.000000
73.454391 8.459991 -0.064525 30.000000
16.516935 -14.398492 -0.600569 29.000000
67.265724 39.228214 0.992171 10.000000
40.244549 -12.712229 -0.677738 8.000000
16.474409 -14.478216 -0.581978 31.000000
33.836609 19.567083 0.491207 9.000000
83.576195 9.005493 -0.058685 165.000000
40.633713 -12.991319 -0.655262 8.000000
16.429092 -14.545459 -0.563095 26.000000
83.596748 8.668377 -0.073343 253.000000
39.810642 -12.889188 -0.635441 8.000000
16.390951 -14.619207 -0.544442 29.000000
31.372349 42.273724 1.121099 7.000000
63.893440 36.340790 0.833927 153.000000
83.600151 8.388616 -0.073321 255.000000
16.408182 -14.742909 -0.531396 30.000000
20.424887 27.322388 0.696694 7.000000
64.170288 36.187618 0.797225 159.000000
83.648071 8.054393 -0.088001 110.000000
39.620609 -13.149308 -0.604779 8.000000
16.350601 -14.799840 -0.515879 32.000000
20.567429 27.303812 0.662327 7.000000
64.490730 36.057423 0.735073 169.000000
38.406403 -12.902801 -0.579890 7.000000
20.572233 27.112743 0.635661 8.000000
36.925011 -12.555919 -0.530981 8.000000
20.647509 27.005819 0.605248 8.000000
95.101486 52.282486 1.003915 33.000000
93.526833 8.018078 -0.131067 1.000000
37.091656 -12.764441 -0.520351 8.000000
20.732872 26.922182 0.569398 8.000000
94.845131 51.689770 0.942640 14.000000
93.336334 7.657244 -0.130760 1.000000
20.988012 27.047831 0.543794 2.000000
94.565559 50.641876 0.823805 1.000000
30.521296 -10.880151 -0.395892 7.000000
49.913422 63.383102 1.140619 15.000000
94.366783 50.112347 0.764596 25.000000
100.601746 7.140632 -0.176025 15.000000
30.439013 -10.976726 -0.384047 37.000000
8.058730 -7.674225 -0.200072 13.000000
94.492645 49.736042 0.708220 26.000000
30.342337 -11.067703 -0.372061 64.000000
7.547244 -7.240077 -0.178901 38.000000
73.369835 38.275337 0.505518 175.000000
30.212564 -11.146003 -0.359726 37.000000
73.278900 37.886871 0.460737 206.000000
30.295448 -11.296881 -0.344248 26.000000
7.264894 -7.072206 -0.157503 61.000000
73.288437 37.552021 0.416809 182.000000
30.160387 -11.372605 -0.331932 8.000000
7.261662 -7.118597 -0.150869 36.000000
93.680969 47.629906 0.476904 14.000000
29.959768 -11.422552 -0.318989 20.000000
7.216736 -7.121640 -0.143346 36.000000
49.965164 60.742081 0.700113 18.000000
93.627388 47.171597 0.420854 31.000000
7.183581 -7.141079 -0.134365 38.000000
50.218540 60.553009 0.631596 1.000000
93.892235 46.833405 0.366257 24.000000
7.193784 -7.208867 -0.126208 19.000000
94.713364 46.810261 0.313469 19.000000
27.413712 -10.798547 -0.257127 9.000000
7.425555 -7.493255 -0.121525 9.000000
94.951805 46.495861 0.258335 33.000000
27.378674 -10.900833 -0.246884 10.000000
7.250838 -7.370782 -0.111887 53.000000
94.704300 45.965511 0.202104 33.000000
7.115551 -7.286487 -0.101323 36.000000
28.210638 33.065453 0.204823 7.000000
92.991028 44.753559 0.162106 34.000000
6.993921 -7.209609 -0.092917 32.000000
93.172562 44.421070 0.108092 5.000000
7.000915 -7.272486 -0.084571 40.000000
26.936554 -11.179524 -0.193428 29.000000
7.043347 -7.370442 -0.076512 37.000000
94.569084 44.239029 0.018222 18.000000
26.820999 -11.235970 -0.182714 92.000000
7.015460 -7.390169 -0.069361 34.000000
95.083061 44.035275 -0.036577 25.000000
26.651463 -11.290922 -0.166710 35.000000
6.958355 -7.389193 -0.060231 31.000000
92.276085 42.325237 -0.088593 22.000000
26.729460 -11.439698 -0.157310 6.000000
6.983778 -7.468252 -0.051753 43.000000
92.130081 41.850239 -0.141288 28.000000
39.955414 -17.273695 -0.212727 19.000000
6.912166 -7.446191 -0.042558 34.000000
18.252264 20.328201 -0.038146 7.000000
92.035789 41.439777 -0.176165 31.000000
39.671959 -17.324007 -0.196443 23.000000
6.891623 -7.478849 -0.035500 25.000000
18.249483 20.175856 -0.056978 10.000000
91.981461 41.010506 -0.228504 29.000000
39.545750 -17.425268 -0.173476 8.000000
6.930946 -7.571755 -0.026874 34.000000
91.751007 40.543552 -0.262611 32.000000
39.397934 -17.524614 -0.158043 9.000000
59.520443 64.864189 -0.338029 1.000000
91.720459 40.090748 -0.314473 25.000000
39.420166 -17.707857 -0.135764 13.000000
6.913451 -7.662014 -0.010807 1.000000
59.782536 64.717690 -0.399806 1.000000
91.393997 39.587593 -0.347669 20.000000
39.222992 -17.792337 -0.120274 8.000000
91.324554 39.141754 -0.398856 21.000000
38.898457 -17.817316 -0.097076 8.000000
6.865095 -7.718764 0.007212 29.000000
25.579800 27.296947 -0.241582 9.000000
91.444366 38.834671 -0.468174 21.000000
38.671234 -17.868618 -0.089221 8.000000
6.806352 -7.704012 0.012559 44.000000
25.597151 27.115589 -0.273348 9.000000
91.304680 38.380955 -0.518596 26.000000
76.835022 -1.502138 -0.214605 116.000000
38.558456 -18.004690 -0.066845 8.000000
6.795134 -7.753823 0.021593 38.000000
25.627279 26.948942 -0.305068 9.000000
91.130653 37.915371 -0.551270 21.000000
76.784012 -1.782698 -0.214480 244.000000
37.991936 -17.893848 -0.051307 18.000000
6.737891 -7.737410 0.030442 31.000000
25.776369 26.916941 -0.331743 9.000000
91.097672 37.510555 -0.601821 25.000000
76.731972 -2.062904 -0.214354 33.000000
36.461586 -17.328835 -0.028184 8.000000
6.722549 -7.777165 0.037678 9.000000
25.916296 26.865246 -0.364852 9.000000
90.877815 37.031055 -0.633724 28.000000
76.638939 -2.341531 -0.214117 249.000000
34.774944 -16.683756 -0.013463 8.000000
6.723278 -7.835876 0.046853 19.000000
90.854950 36.634022 -0.683919 31.000000
76.484924 -2.617452 -0.213712 214.000000
33.386044 -16.168209 0.006474 7.000000
6.777377 -7.960576 0.058391 31.000000
90.652351 36.184963 -0.715512 28.000000
76.904549 -2.914049 -0.201481 196.000000
31.960970 -15.622949 0.024836 7.000000
6.621771 -7.830263 0.064434 34.000000
56.151089 56.960518 -0.977238 15.000000
90.523705 35.749519 -0.747433 30.000000
77.003258 -3.200467 -0.201769 186.000000
30.697287 -15.144888 0.041820 8.000000
56.348289 56.743061 -1.046840 15.000000
90.537331 35.371864 -0.797368 27.000000
77.085915 -3.486969 -0.202017 154.000000
29.574396 -14.719479 0.057657 8.000000
30.245361 30.234802 -0.589698 9.000000
28.554581 -14.355215 0.072515 8.000000
30.270424 30.038851 -0.625259 16.000000
89.896950 34.364269 -0.856683 1.000000
26.214479 -13.287861 0.076943 12.000000
30.478045 30.034458 -0.657258 8.000000
89.928329 33.999023 -0.906132 1.000000
26.032017 -13.315524 0.091860 29.000000
6.347456 -7.791075 0.106995 23.000000
86.694992 -5.181001 -0.242531 1.000000
25.600922 -13.213620 0.095537 10.000000
6.340815 -7.841441 0.114408 151.000000
89.794357 33.198128 -1.002569 23.000000
86.495819 -5.487325 -0.226901 1.000000
24.760723 -12.889617 0.107186 9.000000
89.727272 32.800007 -1.033822 21.000000
76.936623 -5.164077 -0.201873 7.000000
23.978460 -12.594312 0.118180 10.000000
57.622360 55.142143 -1.503540 24.000000
84.892220 -6.010692 -0.207951 17.000000
23.269386 -12.330907 0.128697 14.000000
57.439526 54.622505 -1.549642 17.000000
84.777084 -6.285147 -0.207718 20.000000
22.571390 -12.067192 0.138482 9.000000
56.770061 53.553551 -1.593902 9.000000
84.736214 -6.624244 -0.207682 17.000000
21.941658 -11.834132 0.147937 9.000000
6.309099 -8.095646 0.161236 52.000000
56.804169 53.193604 -1.670906 6.000000
78.352623 -6.414224 -0.205813 16.000000
21.381897 -11.628758 0.148684 9.000000
6.308265 -8.153114 0.169139 14.000000
86.208405 80.193954 -2.610239 20.000000
93.117371 32.135616 -1.289521 1.000000
78.156548 -6.659158 -0.205355 9.000000
20.747280 -11.382348 0.156951 10.000000
6.204948 -8.074767 0.175975 78.000000
86.590378 79.903297 -2.714944 13.000000
93.683632 31.947258 -1.330290 30.000000
20.254732 -11.208903 0.169697 13.000000
6.335886 -8.308012 0.189672 76.000000
86.815742 79.551971 -2.795538 30.000000
93.861244 31.624277 -1.365737 20.000000
19.720102 -11.007647 0.177380 9.000000
87.186615 79.305901 -2.880432 10.000000
94.540550 31.467783 -1.408722 24.000000
19.171682 -10.789467 0.184305 9.000000
6.099041 -8.123159 0.203911 77.000000
18.675423 -10.600495 0.183654 9.000000
39.403961 35.342739 -1.386069 1.000000
95.803818 31.110064 -1.529614 26.000000
72.900238 -7.546366 -0.179081 134.000000
18.258858 -10.452715 0.190950 10.000000
6.266491 -8.465587 0.226143 33.000000
39.394196 35.074287 -1.427256 1.000000
95.934502 30.801199 -1.565241 13.000000
72.882050 -7.814577 -0.166312 158.000000
18.034147 -10.412020 0.199903 24.000000
6.122824 -8.335215 0.232895 37.000000
72.852951 -8.081654 -0.153519 164.000000
18.014853 -10.484895 0.214646 23.000000
6.087679 -8.348291 0.241687 32.000000
72.837746 -8.350327 -0.153550 81.000000
17.980516 -10.553325 0.225614 17.000000
6.089147 -8.414918 0.252037 19.000000
97.899750 30.211441 -1.734703 19.000000
79.340996 -9.390626 -0.181276 5.000000
17.971798 -10.636961 0.229638 21.000000
6.106290 -8.500932 0.261285 210.000000
39.649235 34.260544 -1.591836 1.000000
98.630936 30.041599 -1.781697 28.000000
79.574089 -9.714084 -0.167897 1.000000
17.923964 -10.697551 0.244101 24.000000
5.993662 -8.415225 0.268736 83.000000
39.568367 33.962135 -1.620497 8.000000
79.379227 -9.985705 -0.153598 11.000000
17.924959 -10.783180 0.255580 10.000000
6.198032 -8.760278 0.286628 12.000000
39.600410 33.738361 -1.653090 9.000000
100.658562 29.873762 -1.887742 14.000000
79.500778 -10.297130 -0.153906 7.000000
17.893747 -10.853921 0.266660 11.000000
6.131246 -8.733597 0.296201 1.000000
39.688568 33.563194 -1.687948 9.000000
101.050117 29.587416 -1.911422 12.000000
79.531906 -10.597694 -0.140036 11.000000
17.845194 -10.914140 0.277485 19.000000
39.733856 33.352482 -1.720919 10.000000
17.802563 -10.973636 0.292019 21.000000
6.042709 -8.739810 0.313498 19.000000
39.839066 33.192661 -1.774559 15.000000
17.808887 -11.067813 0.296447 16.000000
5.992244 -8.731822 0.319859 21.000000
39.899822 33.008003 -1.808317 8.000000
17.767717 -11.124074 0.307352 12.000000
5.982510 -8.786492 0.332198 72.000000
39.941811 32.796902 -1.858949 10.000000
17.743959 -11.208599 0.315045 10.000000
5.971258 -8.836112 0.340737 33.000000
25.725943 20.966616 -1.216938 8.000000
12.707212 3.469150 -0.269019 1.000000
59.745735 -9.067694 -0.094923 173.000000
17.725624 -11.283772 0.330089 10.000000
5.944230 -8.865989 0.350371 42.000000
25.789803 20.846933 -1.239173 14.000000
59.415657 -9.240508 -0.094452 137.000000
17.684000 -11.348568 0.341091 10.000000
5.882269 -8.846826 0.359857 27.000000
25.939585 20.826164 -1.277930 10.000000
12.780389 3.388659 -0.281579 1.000000
84.924355 -13.526677 -0.150090 14.000000
17.642187 -11.413242 0.348426 11.000000
5.987654 -9.070416 0.375738 8.000000
40.222107 32.051456 -2.011726 144.000000
12.961905 3.385988 -0.289981 1.000000
84.869293 -13.837049 -0.135073 18.000000
17.631399 -11.493765 0.360026 16.000000
40.373466 31.930834 -2.049422 8.000000
12.982645 3.345456 -0.294878 1.000000
84.827896 -14.119233 -0.120072 5.000000
17.605509 -11.560260 0.374987 12.000000
5.682616 -8.743778 0.378737 8.000000
40.614559 31.880238 -2.100845 1.000000
13.112111 3.322745 -0.304599 2.000000
39.070648 -6.664432 -0.055341 1.000000
17.554684 -11.628006 0.382248 10.000000
13.022248 3.249225 -0.306920 3.000000
38.984303 -6.782818 -0.048344 9.000000
17.551243 -11.714077 0.394113 15.000000
5.576455 -8.716308 0.393894 7.000000
26.624802 20.585409 -1.428203 8.000000
13.101873 3.218128 -0.315584 2.000000
9.801369 -6.593699 0.224756 123.000000
5.465511 -8.608946 0.395307 6.000000
26.853840 20.605677 -1.460102 8.000000
13.006581 3.144220 -0.317683 4.000000
84.466461 -15.350158 -0.104886 21.000000
9.801828 -6.646321 0.233595 1.000000
13.090798 3.113840 -0.326509 4.000000
84.370285 -15.652340 -0.119813 28.000000
9.786723 -6.686067 0.239998 1.000000
6.001711 -9.604746 0.458847 9.000000
13.071740 3.063542 -0.330467 5.000000
84.249153 -15.919043 -0.104751 28.000000
9.776782 -6.726936 0.244444 1.000000
5.947789 -9.596541 0.469254 2.000000
13.069150 3.007642 -0.337120 2.000000
84.219681 -16.233400 -0.119757 31.000000
17.536192 -12.169824 0.447121 21.000000
84.135063 -16.537144 -0.134688 38.000000
17.479219 -12.216363 0.454146 16.000000
5.517058 -9.045490 0.455187 9.000000
13.290989 2.953844 -0.358906 4.000000
83.970932 -16.824776 -0.134523 12.000000
17.456568 -12.300571 0.462239 12.000000
5.423174 -8.961783 0.459177 13.000000
13.462683 2.940263 -0.370470 1.000000
76.334946 -15.586027 -0.135979 15.000000
17.439768 -12.384638 0.470463 20.000000
5.433822 -9.054132 0.470272 6.000000
13.551434 2.907650 -0.377458 1.000000
36.577095 -7.608047 -0.058685 26.000000
17.442766 -12.483191 0.486757 20.000000
5.373820 -9.025408 0.478825 2.000000
13.536353 2.857492 -0.384021 1.000000
36.363087 -7.702683 -0.058386 6.000000
17.415562 -12.546641 0.490843 20.000000
13.422595 -22.723516 1.221522 10.000000
13.952737 2.892013 -0.402997 1.000000
36.534996 -7.879124 -0.065232 7.000000
17.421902 -12.648465 0.499844 19.000000
5.821203 -9.937891 0.541127 1.000000
13.757055 2.798905 -0.414212 1.000000
17.262400 -12.629540 0.500328 15.000000
13.321508 -22.925442 1.264324 10.000000
13.893523 2.826669 -0.440613 1.000000
17.271210 -12.635986 0.459478 32.000000
13.560021 2.810614 -0.432779 1.000000
17.439083 -12.660938 0.443891 22.000000
5.836819 -9.964550 0.522381 3.000000
13.373448 2.823103 -0.431928 1.000000
36.391949 -7.708797 -0.201270 5.000000
17.447041 -12.573947 0.420444 28.000000
13.401106 -22.687136 1.159659 11.000000
13.118642 2.819579 -0.426373 1.000000
76.160576 -15.855290 -0.488797 21.000000
17.460882 -12.486940 0.393436 28.000000
13.463043 -22.611376 1.125970 9.000000
13.060397 2.852403 -0.424785 1.000000
76.369675 -15.607002 -0.544189 15.000000
17.467947 -12.400064 0.373918 21.000000
5.424233 -9.038157 0.438109 9.000000
12.717062 2.830950 -0.416261 1.000000
84.112816 -16.868473 -0.643841 13.000000
17.468630 -12.304507 0.350583 24.000000
5.449836 -9.005842 0.424626 36.000000
12.649111 2.859881 -0.414345 1.000000
84.154099 -16.556139 -0.688598 35.000000
17.489269 -12.223387 0.331470 15.000000
5.543943 -9.089570 0.416455 32.000000
12.588900 2.899434 -0.410493 3.000000
84.302475 -16.264618 -0.704306 32.000000
17.552555 -12.176641 0.316945 25.000000
5.564323 -9.048216 0.406209 9.000000
84.203796 -15.925695 -0.762821 36.000000
9.793201 -6.740752 0.166010 1.000000
5.733006 -9.249996 0.402849 9.000000
84.379463 -15.638809 -0.778867 27.000000
9.772520 -6.673862 0.156981 1.000000
5.994809 -9.593700 0.406909 9.000000
84.580978 -15.370970 -0.795232 23.000000
9.824814 -6.659404 0.149159 12.000000
26.586384 20.563120 -1.626196 9.000000
12.759877 3.131765 -0.410601 1.000000
38.980751 -6.936510 -0.386989 7.000000
9.811921 -6.598310 0.138275 80.000000
5.530761 -8.711724 0.349531 1.000000
26.318699 20.510691 -1.591062 10.000000
12.839397 3.205982 -0.411259 1.000000
38.848228 -6.766128 -0.392308 12.000000
17.542810 -11.704024 0.231892 19.000000
5.445527 -8.511659 0.331672 75.000000
26.114155 20.505569 -1.571613 8.000000
12.730676 3.228450 -0.408153 1.000000
38.892273 -6.627021 -0.413164 9.000000
17.583717 -11.642824 0.213489 16.000000
5.480805 -8.501287 0.321408 143.000000
25.859501 20.459270 -1.537719 8.000000
12.525304 3.225274 -0.397426 1.000000
38.926094 -6.486061 -0.420157 7.000000
17.609650 -11.567377 0.202254 22.000000
5.495768 -8.456277 0.309894 29.000000
25.601810 20.408409 -1.498201 8.000000
84.851715 -13.818979 -0.960330 26.000000
17.635340 -11.491947 0.180020 17.000000
5.968994 -9.114634 0.323362 33.000000
25.379263 20.383581 -1.478153 8.000000
12.472409 3.309330 -0.394252 1.000000
84.990501 -13.522003 -0.976355 32.000000
17.675423 -11.430367 0.168998 14.000000
5.875885 -8.901102 0.305370 31.000000
25.181118 20.376719 -1.442627 7.000000
12.630286 3.396091 -0.399596 1.000000
59.408222 -9.228733 -0.713561 118.000000
17.679462 -11.341301 0.146641 20.000000
6.059367 -9.109729 0.299874 15.000000
24.990578 20.367296 -1.413224 8.000000
12.362348 3.372681 -0.387031 6.000000
59.636089 -9.061701 -0.726463 162.000000
17.716755 -11.273782 0.135611 10.000000
6.042758 -9.012946 0.287939 36.000000
24.812090 20.373629 -1.390502 8.000000
12.349967 3.417986 -0.384794 11.000000
17.760597 -11.223446 0.124675 15.000000
5.774941 -8.548822 0.264744 61.000000
24.629850 20.375586 -1.373286 7.000000
12.337357 3.463228 -0.384794 15.000000
17.775948 -11.133545 0.102503 24.000000
5.786721 -8.498938 0.251285 37.000000
39.852039 33.215256 -2.183448 8.000000
12.334324 3.511197 -0.380618 8.000000
17.786945 -11.049874 0.091368 14.000000
5.813646 -8.474742 0.242194 30.000000
39.746494 33.374916 -2.148056 12.000000
12.350307 3.564733 -0.377021 7.000000
17.855255 -11.006116 0.076877 10.000000
5.819225 -8.416576 0.230419 31.000000
39.670803 33.560051 -2.114261 15.000000
12.355210 3.619940 -0.373113 5.000000
17.861378 -10.919754 0.065769 25.000000
5.902967 -8.474307 0.223545 8.000000
39.578789 33.731865 -2.088659 17.000000
12.351441 3.668045 -0.373403 1.000000
17.879946 -10.841281 0.047443 14.000000
6.060522 -8.632855 0.215420 25.000000
39.520424 33.932972 -2.055705 15.000000
17.915295 -10.773108 0.036486 25.000000
6.084952 -8.603635 0.206020 9.000000
39.393642 34.051701 -2.018565 17.000000
12.598178 3.837228 -0.377062 1.000000
78.870049 -9.642108 -1.109505 1.000000
17.927607 -10.703969 0.018221 25.000000
5.948275 -8.345333 0.189619 24.000000
12.488640 3.853940 -0.369638 1.000000
78.948959 -9.358197 -1.151760 1.000000
17.944618 -10.616646 0.003639 25.000000
5.977481 -8.324676 0.178887 28.000000
39.304810 34.493675 -1.935820 17.000000
12.631976 3.948938 -0.369682 1.000000
72.858612 -8.365603 -1.062456 163.000000
18.000658 -10.560924 -0.007285 16.000000
5.987509 -8.274459 0.171146 30.000000
39.239391 34.667274 -1.919947 14.000000
12.722368 4.028442 -0.368096 1.000000
72.858772 -8.095173 -1.074815 243.000000
18.018293 -10.491107 -0.018195 16.000000
6.069482 -8.326390 0.160066 31.000000
39.400707 35.067760 -1.888026 3.000000
12.693362 4.070506 -0.363029 1.000000
72.877838 -7.826991 -1.087462 251.000000
18.041803 -10.420639 -0.029091 14.000000
6.141477 -8.360607 0.152100 29.000000
39.179874 35.129410 -1.846817 1.000000
95.479866 31.004866 -2.733947 13.000000
72.899162 -7.571975 -1.125763 255.000000
18.253399 -10.453820 -0.047727 10.000000
6.222752 -8.406498 0.140568 35.000000
39.211494 35.417873 -1.808248 3.000000
95.105339 31.269045 -2.691515 23.000000
72.792114 -7.291283 -1.123690 162.000000
18.687214 -10.611502 -0.063762 9.000000
39.092094 35.596020 -1.772364 26.000000
94.554672 31.472485 -2.644366 19.000000
19.143620 -10.769274 -0.076672 9.000000
6.033612 -8.030178 0.117461 33.000000
38.921757 35.702728 -1.733649 227.000000
94.079567 31.697838 -2.599633 14.000000
19.661346 -10.970347 -0.090381 9.000000
6.115976 -8.080906 0.109669 23.000000
38.876381 35.886658 -1.699665 17.000000
93.607948 31.921448 -2.589816 31.000000
20.121849 -11.139954 -0.112399 9.000000
6.157757 -8.074437 0.097479 31.000000
57.014454 53.018196 -2.460330 6.000000
93.458519 32.253349 -2.537134 1.000000
78.006104 -6.660054 -1.257211 33.000000
20.714766 -11.369213 -0.127850 9.000000
6.219458 -8.096574 0.089098 17.000000
56.799103 53.207470 -2.405048 1.000000
78.363609 -6.401355 -1.276313 21.000000
21.349146 -11.615775 -0.144228 8.000000
6.243016 -8.065874 0.080110 11.000000
91.544365 32.327682 -2.423565 23.000000
21.879976 -11.800864 -0.160538 8.000000
6.059067 -7.772015 0.067080 186.000000
57.674404 54.826698 -2.333953 17.000000
91.101257 32.547237 -2.381186 16.000000
94.140259 -7.028873 -1.548912 1.000000
22.463198 -12.014390 -0.186740 8.000000
6.013422 -7.655433 0.057768 27.000000
57.470905 55.035652 -2.264366 10.000000
90.300499 32.634857 -2.329830 31.000000
94.172691 -6.651267 -1.548994 21.000000
23.182863 -12.290240 -0.206086 10.000000
6.134558 -7.750996 0.050032 23.000000
56.956051 54.925022 -2.182518 1.000000
89.843391 32.842457 -2.271012 23.000000
84.968102 -5.688262 -1.412107 9.000000
23.860573 -12.537707 -0.225815 13.000000
6.142900 -7.706107 0.041280 27.000000
89.821617 33.208202 -2.240076 30.000000
24.704462 -12.865809 -0.247939 13.000000
6.299493 -7.843396 0.033360 87.000000
69.235909 67.753479 -2.536677 14.000000
89.886574 33.607212 -2.244753 30.000000
25.617697 -13.222280 -0.271712 10.000000
6.292265 -7.778624 0.020954 9.000000
90.011696 34.030540 -2.200565 27.000000
90.823074 -5.109601 -1.556067 9.000000
26.077494 -13.344528 -0.291433 23.000000
6.361805 -7.805906 0.012303 81.000000
30.273460 30.052353 -1.049966 32.000000
90.040443 34.419117 -2.204337 18.000000
90.865601 -4.777967 -1.588256 1.000000
26.148287 -13.260046 -0.317267 29.000000
30.167282 30.167282 -1.012859 12.000000
84.417397 -4.099162 -1.490003 11.000000
28.439171 -14.290977 -0.361092 7.000000
56.240223 56.654007 -1.839449 14.000000
90.291023 35.275635 -2.098253 15.000000
84.685745 -3.830746 -1.464907 14.000000
29.328228 -14.603347 -0.377417 8.000000
6.481105 -7.778863 -0.014137 14.000000
56.205231 57.035339 -1.775215 19.000000
90.579567 35.771580 -2.107991 32.000000
30.560442 -15.077374 -0.422303 9.000000
6.488919 -7.733192 -0.026429 24.000000
90.602066 36.164894 -2.060483 26.000000
80.314873 -3.043272 -1.416939 19.000000
31.744492 -15.523995 -0.456419 9.000000
6.568848 -7.770431 -0.035517 8.000000
90.752357 36.611073 -2.032764 15.000000
33.078754 -16.026524 -0.494004 9.000000
6.581052 -7.727243 -0.044288 255.000000
25.966707 26.926908 -0.744388 9.000000
34.561398 -16.588724 -0.528619 8.000000
6.555875 -7.643469 -0.052726 107.000000
25.847622 27.000778 -0.704649 9.000000
36.066540 -17.148802 -0.571590 8.000000
6.596889 -7.634485 -0.061636 32.000000
25.657103 26.989737 -0.676013 9.000000
91.133446 37.916531 -1.912495 1.000000
37.897331 -17.849291 -0.621502 12.000000
6.641202 -7.629066 -0.070615 26.000000
25.527529 27.051292 -0.642738 9.000000
91.363152 38.405529 -1.885649 29.000000
38.446976 -17.936289 -0.651652 8.000000
6.809476 -7.767454 -0.081131 25.000000
25.602812 27.331064 -0.620999 9.000000
91.388321 38.810867 -1.837086 36.000000
38.748024 -17.904099 -0.685445 8.000000
6.844470 -7.749883 -0.090232 30.000000
91.186600 39.120308 -1.783931 35.000000
38.914505 -17.816452 -0.709701 8.000000
6.696633 -7.526710 -0.096712 27.000000
91.373436 39.597630 -1.755641 25.000000
39.215958 -17.780895 -0.736558 8.000000
6.779538 -7.566539 -0.104620 28.000000
91.526199 40.062931 -1.709056 17.000000
39.422009 -17.700415 -0.754293 10.000000
6.813862 -7.548993 -0.113598 27.000000
39.402473 -17.534874 -0.775391 8.000000
6.909380 -7.603967 -0.125530 31.000000
18.291544 20.229454 -0.337979 10.000000
92.003517 41.039589 -1.635339 29.000000
39.521130 -17.414419 -0.791545 18.000000
6.974277 -7.619092 -0.133413 24.000000
18.237467 20.318855 -0.319289 7.000000
91.948471 41.419765 -1.619442 23.000000
39.758423 -17.345242 -0.817740 23.000000
6.912629 -7.499019 -0.142414 32.000000
92.106956 41.859127 -1.589345 25.000000
39.954422 -17.256714 -0.843261 16.000000
6.888951 -7.418586 -0.150202 34.000000
82.389412 93.124290 -1.237010 10.000000
92.100777 42.283749 -1.538952 25.000000
26.397697 -11.286810 -0.566287 115.000000
6.956986 -7.436999 -0.159979 32.000000
82.213181 93.614243 -1.130773 10.000000
26.581324 -11.250266 -0.584457 73.000000
7.017086 -7.448955 -0.169695 9.000000
27.004879 -11.313003 -0.603079 30.000000
6.984903 -7.355409 -0.173514 7.000000
27.208162 -11.292251 -0.622210 23.000000
6.998764 -7.321229 -0.183864 30.000000
28.491787 33.159863 -0.282329 1.000000
27.375975 -11.238871 -0.635391 6.000000
7.058833 -7.332650 -0.193654 18.000000
28.250162 33.123489 -0.243144 3.000000
27.342571 -11.108226 -0.649126 9.000000
7.141222 -7.364025 -0.204127 21.000000
94.599426 45.935013 -1.284862 144.000000
27.424633 -11.024632 -0.660433 9.000000
7.237928 -7.409215 -0.213348 81.000000
94.932991 46.507191 -1.236230 17.000000
27.399504 -10.898047 -0.674309 6.000000
7.524363 -7.646162 -0.230329 36.000000
94.749001 46.848450 -1.180712 16.000000
7.543825 -7.612604 -0.239467 6.000000
50.298832 60.671371 -0.165059 7.000000
93.809280 46.853386 -1.116425 30.000000
7.543274 -7.556451 -0.247891 32.000000
36.669502 44.594555 -0.060460 1.000000
93.646362 47.201656 -1.061622 28.000000
7.225922 -7.180663 -0.245408 27.000000
36.432873 44.607498 -0.020104 1.000000
93.717125 47.627708 -1.009160 11.000000
30.657564 -11.688596 -0.801864 20.000000
7.256686 -7.163563 -0.252768 76.000000
7.381429 -7.236004 -0.265257 38.000000
73.532768 38.034393 -0.708021 7.000000
33.963661 -12.651219 -0.917417 10.000000
7.361199 -7.163454 -0.270761 31.000000
73.539352 38.412766 -0.666119 5.000000
33.741840 -12.427956 -0.935309 7.000000
94.315277 49.663708 -0.799979 18.000000
33.368866 -12.151870 -0.936134 28.000000
7.669320 -7.354614 -0.296807 31.000000
94.490616 50.199253 -0.746995 14.000000
33.267918 -11.990307 -0.932181 22.000000
7.877032 -7.498575 -0.313278 10.000000
94.645691 50.706043 -0.693393 28.000000
33.407413 -11.895845 -0.953385 23.000000
7.826687 -7.398743 -0.319654 72.000000
94.741028 51.204914 -0.639071 30.000000
33.436012 -11.768120 -0.977728 9.000000
20.826771 27.044113 0.244263 8.000000
94.930519 51.757797 -0.585010 34.000000
33.819420 -11.777168 -0.987792 26.000000
20.693974 27.076387 0.273609 8.000000
95.016518 52.257370 -0.511010 28.000000
33.738476 -11.597332 -0.996523 24.000000
20.550797 27.084490 0.308570 8.000000
33.766953 -11.482058 -1.008694 39.000000
20.475281 27.191359 0.338637 8.000000
33.964066 -11.397184 -1.025723 34.000000
16.305223 -14.862644 -0.739602 25.000000
20.500996 27.434179 0.370613 8.000000
34.000523 -11.270938 -1.038083 10.000000
16.329462 -14.775523 -0.757480 31.000000
31.331213 42.233696 0.614958 17.000000
34.099102 -11.178250 -1.052492 10.000000
16.405415 -14.735250 -0.773906 30.000000
16.403063 -14.624870 -0.782782 30.000000
33.818535 19.564510 -0.040914 10.000000
16.433588 -14.544325 -0.800866 28.000000
16.490116 -14.486920 -0.816372 31.000000
73.354485 8.461456 -1.159985 166.000000
16.523840 -14.409586 -0.830749 31.000000
50.710602 70.936394 1.430711 1.000000
66.514732 39.462166 0.053993 24.000000
73.211845 8.691108 -1.158179 190.000000
16.544655 -14.331429 -0.844705 31.000000
50.593109 71.349541 1.526736 1.000000
66.101906 39.529842 0.094098 23.000000
73.092201 8.974594 -1.143991 218.000000
16.580051 -14.251027 -0.862821 36.000000
27.170200 38.616287 0.873636 14.000000
65.785255 39.668549 0.134076 21.000000
73.019341 9.237435 -1.130524 150.000000
80.301331 -24.061003 -2.634420 26.000000
16.601305 -14.163828 -0.876478 28.000000
27.062622 38.721302 0.915324 15.000000
65.327454 39.719715 0.186815 17.000000
102.150177 13.266992 -1.564233 10.000000
80.479156 -23.793182 -2.666699 17.000000
16.602957 -14.060415 -0.892856 34.000000
27.082933 39.083565 0.971124 1.000000
65.010834 39.854298 0.226253 20.000000
101.759216 13.595655 -1.541077 1.000000
84.590042 -24.671770 -2.830688 15.000000
16.661547 -14.005493 -0.908462 33.000000
64.671249 39.957375 0.278627 21.000000
102.075493 14.018904 -1.528647 1.000000
85.192825 -24.509129 -2.878811 28.000000
16.677753 -13.915117 -0.921750 33.000000
26.936604 39.443203 1.050542 1.000000
64.426628 40.133251 0.317949 25.000000
102.226654 14.421607 -1.513670 1.000000
85.271980 -24.193850 -2.893957 27.000000
16.711769 -13.849760 -0.936267 30.000000
46.442978 68.570206 1.908328 1.000000
29.783131 18.704660 0.171872 7.000000
106.265244 15.388790 -1.555550 20.000000
85.296547 -23.863371 -2.922753 22.000000
16.758875 -13.775695 -0.954768 24.000000
46.138489 68.609573 2.020663 13.000000
29.742870 18.824467 0.202736 10.000000
16.785641 -13.694913 -0.964792 28.000000
45.918289 68.851570 2.080395 1.000000
29.673548 18.933271 0.227310 8.000000
24.534927 -6.670591 -0.856781 6.000000
16.788483 -13.595044 -0.980975 26.000000
25.591177 38.649391 1.221915 13.000000
29.650108 19.071592 0.246124 8.000000
24.342146 -6.522458 -0.844805 15.000000
16.878250 -13.570460 -0.994809 17.000000
25.584642 38.934086 1.260633 14.000000
29.659563 19.231720 0.271466 10.000000
24.278635 -6.410159 -0.850555 10.000000
16.864866 -13.458227 -1.006202 10.000000
25.613115 39.290440 1.310083 14.000000
29.592127 19.335052 0.289974 10.000000
24.243639 -6.305959 -0.857268 15.000000
16.890034 -13.377278 -1.019847 9.000000
25.806116 39.890182 1.385161 10.000000
29.696163 19.558708 0.328934 7.000000
24.295490 -6.224464 -0.862671 10.000000
9.168088 -7.206804 -0.560145 24.000000
25.688631 40.029522 1.436573 5.000000
29.632463 19.672855 0.347650 6.000000
24.409904 -6.158526 -0.874724 10.000000
9.162551 -7.148273 -0.568367 28.000000
25.517681 40.101051 1.493739 10.000000
29.580023 19.787151 0.372691 5.000000
24.606899 -6.112385 -0.880975 10.000000
9.172738 -7.102293 -0.571440 23.000000
21.284431 33.694679 1.287284 9.000000
29.627356 19.976379 0.392919 6.000000
13.227038 -3.234189 -0.475506 4.000000
9.285501 -7.135321 -0.585027 1.000000
21.110226 33.678696 1.325519 10.000000
13.160910 -3.166944 -0.477439 2.000000
17.132929 -13.075438 -1.091796 8.000000
20.964916 33.720890 1.358837 8.000000
13.211246 -3.127876 -0.481218 4.000000
17.180685 -13.003080 -1.106585 8.000000
20.869804 33.830704 1.408941 10.000000
13.149623 -3.062433 -0.478562 3.000000
17.227762 -12.939672 -1.117867 8.000000
23.914946 39.071552 1.671752 6.000000
29.042379 20.200018 0.493982 10.000000
13.199642 -3.023122 -0.482342 3.000000
17.226404 -12.840166 -1.129758 7.000000
28.979439 20.306700 0.531178 6.000000
38.103470 7.517049 -0.406724 6.000000
13.161722 -2.963709 -0.485272 2.000000
17.301132 -12.797491 -1.139108 7.000000
38.139450 7.669483 -0.400615 9.000000
13.279911 -2.939222 -0.486852 2.000000
17.327150 -12.718748 -1.152792 7.000000
24.348764 40.764507 1.882201 9.000000
33.781403 6.922038 -0.343064 35.000000
13.242105 -2.877563 -0.489793 4.000000
17.348783 -12.637041 -1.166170 7.000000
20.667871 34.877956 1.642499 10.000000
60.496410 43.375088 1.260355 1.000000
33.702023 7.034581 -0.336508 80.000000
13.096107 -2.795610 -0.486351 1.000000
17.402411 -12.578739 -1.181704 7.000000
20.614944 35.081184 1.691183 10.000000
60.332058 43.592941 1.325227 7.000000
33.649330 7.140110 -0.318204 107.000000
13.370261 -2.802936 -0.498535 1.000000
17.407326 -12.485413 -1.190173 7.000000
33.556976 7.261406 -0.305618 121.000000
13.385339 -2.754920 -0.498718 1.000000
17.403482 -12.386306 -1.201758 8.000000
60.265839 44.172569 1.460804 2.000000
33.523098 7.370532 -0.287557 147.000000
13.356079 -2.697910 -0.499637 1.000000
17.501192 -12.368620 -1.213170 7.000000
19.171629 33.434944 1.723197 1.000000
59.854034 44.241173 1.507097 7.000000
33.486149 7.491179 -0.281484 179.000000
84.076569 -16.662859 -3.157890 18.000000
17.525475 -12.280587 -1.226415 6.000000
19.085850 33.556248 1.773266 4.000000
36.871937 27.453476 0.962932 7.000000
33.474518 7.611368 -0.269624 221.000000
9.704911 -6.747602 -0.685684 7.000000
59.801849 44.867867 1.631317 15.000000
33.441658 7.732912 -0.251613 243.000000
9.696511 -6.689175 -0.687480 8.000000
19.025915 34.014980 1.885711 9.000000
59.718765 45.132187 1.737908 1.000000
33.393784 7.850890 -0.227518 236.000000
38.945087 -7.274306 -1.445825 7.000000
9.726676 -6.662488 -0.692178 13.000000
59.639141 45.383522 1.805398 1.000000
39.010807 -7.138710 -1.447284 8.000000
9.775599 -6.643491 -0.698062 14.000000
33.418644 7.986102 -0.161917 51.000000
38.978355 -7.132772 -1.390681 8.000000
9.767941 -6.638286 -0.685105 9.000000
19.112705 34.170147 1.935411 9.000000
33.423401 7.857853 -0.149814 255.000000
85.841438 -16.049282 -2.988552 6.000000
9.719421 -6.657519 -0.671031 10.000000
59.769718 44.794865 1.825450 18.000000
33.471489 7.739810 -0.143905 255.000000
84.246155 -16.070814 -2.920057 18.000000
9.695338 -6.693362 -0.662806 8.000000
18.963299 33.340782 1.828971 5.000000
36.899269 27.453810 1.091894 6.000000
33.494705 7.615958 -0.155875 255.000000
84.232330 -16.388365 -2.876658 25.000000
9.736780 -6.774802 -0.656949 6.000000
19.159698 33.414139 1.809702 7.000000
59.949490 44.263210 1.743139 7.000000
33.527298 7.494239 -0.149901 255.000000
84.079063 -16.678604 -2.858514 27.000000
17.458685 -12.242877 -1.158575 7.000000
60.011868 43.986416 1.688505 11.000000
33.574051 7.375591 -0.155988 255.000000
84.008537 -16.984873 -2.828263 1.000000
17.455124 -12.336063 -1.146366 7.000000
33.605694 7.253531 -0.168012 255.000000
17.430616 -12.414786 -1.136500 8.000000
20.633938 35.099483 1.799027 10.000000
33.622295 7.128242 -0.161964 221.000000
75.974434 -15.968782 -2.507581 1.000000
17.357559 -12.458896 -1.112270 8.000000
20.736755 34.994205 1.761765 10.000000
60.137543 43.101894 1.562757 7.000000
33.716667 7.019217 -0.174316 68.000000
17.300264 -12.514101 -1.096584 8.000000
60.491734 43.036926 1.542122 13.000000
33.766693 6.900603 -0.168427 29.000000
17.230837 -12.560336 -1.076438 9.000000
60.594997 42.745068 1.514472 18.000000
38.145058 7.649832 -0.183335 9.000000
83.711586 -18.558413 -2.649677 19.000000
17.205410 -12.638630 -1.062794 14.000000
23.889585 39.353329 1.873178 8.000000
29.008720 20.312126 0.698516 6.000000
38.166588 7.515662 -0.190100 9.000000
83.441277 -18.789001 -2.598253 27.000000
17.131611 -12.681354 -1.042454 23.000000
23.909477 39.062618 1.815461 9.000000
29.043480 20.193262 0.673032 10.000000
38.117603 7.374796 -0.203286 9.000000
83.372734 -19.094906 -2.568397 27.000000
17.137636 -12.783310 -1.030703 23.000000
20.906445 33.890099 1.550604 8.000000
61.002567 42.051434 1.383832 6.000000
38.255009 7.242190 -0.197067 9.000000
83.368851 -19.446560 -2.555707 34.000000
17.105743 -12.852695 -1.009020 30.000000
21.015532 33.789146 1.507768 8.000000
60.947598 41.700451 1.327702 7.000000
83.244385 -19.739511 -2.524202 32.000000
17.039169 -12.900654 -0.992922 21.000000
21.086273 33.640484 1.469714 10.000000
60.862804 41.346790 1.284323 5.000000
83.149734 -20.008537 -2.508391 30.000000
17.039970 -12.999789 -0.980744 36.000000
21.220917 33.581146 1.428855 9.000000
61.176338 41.232899 1.236222 13.000000
9.290372 -7.141643 -0.528017 18.000000
29.630455 19.805918 0.572328 7.000000
24.602085 -6.111189 -0.721366 6.000000
9.165698 -7.099401 -0.514297 30.000000
29.694761 19.691820 0.553512 7.000000
24.495220 -6.189147 -0.710129 34.000000
9.151711 -7.142386 -0.506857 10.000000
29.622259 19.502625 0.538569 8.000000
24.450710 -6.264231 -0.696211 28.000000
9.129742 -7.179239 -0.496940 1.000000
25.669643 39.377151 1.526473 4.000000
29.588394 19.317879 0.511926 8.000000
24.411091 -6.358613 -0.686992 19.000000
16.868158 -13.364745 -0.905758 26.000000
25.649849 39.033314 1.475977 10.000000
29.627340 19.203482 0.493005 9.000000
24.438311 -6.452317 -0.683942 29.000000
16.854691 -13.454922 -0.892594 33.000000
25.993719 39.257336 1.438517 14.000000
29.664097 19.073271 0.473981 13.000000
24.405071 -6.539319 -0.674852 16.000000
16.836885 -13.542043 -0.879164 31.000000
29.717216 18.953836 0.449105 10.000000
44.836262 -12.190146 -1.224814 6.000000
16.803255 -13.616723 -0.861103 30.000000
46.275372 68.813118 2.388746 10.000000
29.707346 18.801985 0.429550 8.000000
85.492188 -23.580580 -2.322288 10.000000
16.757565 -13.681753 -0.846199 29.000000
63.973068 40.161350 0.896506 22.000000
85.368210 -23.883421 -2.259355 28.000000
16.727165 -13.759416 -0.828276 29.000000
26.978487 39.504532 1.286095 6.000000
64.332436 40.058994 0.859792 21.000000
125.348961 17.661270 -0.861664 56.000000
85.218353 -24.178633 -2.226778 28.000000
16.688713 -13.830652 -0.809934 28.000000
27.061251 39.315540 1.249818 4.000000
64.747063 39.988598 0.836801 21.000000
85.177567 -24.504738 -2.212565 28.000000
16.671452 -13.914795 -0.796268 25.000000
27.236204 39.275459 1.193128 8.000000
65.061630 39.869820 0.772466 18.000000
84.732826 -24.713413 -2.172522 28.000000
16.636059 -13.989023 -0.781826 31.000000
27.082642 38.749947 1.147146 14.000000
65.433998 39.768856 0.748420 23.000000
73.026619 9.471542 -0.501248 1.000000
16.604149 -14.066402 -0.767533 34.000000
27.209782 38.643875 1.097290 14.000000
65.785393 39.652969 0.683735 20.000000
73.045700 9.201914 -0.539695 181.000000
80.088173 -23.997135 -1.999487 26.000000
16.598497 -14.166437 -0.754413 30.000000
50.638931 71.361351 1.970437 1.000000
66.082382 39.518166 0.658505 24.000000
73.118729 8.938993 -0.527131 247.000000
80.124702 -24.328472 -1.973366 9.000000
16.573481 -14.250410 -0.736548 35.000000
50.853024 71.161873 1.893210 1.000000
66.596901 39.495197 0.621641 17.000000
73.250214 8.682697 -0.540721 255.000000
99.653603 -30.657450 -2.384259 1.000000
16.532949 -14.321290 -0.717966 32.000000
50.807255 70.575729 1.791216 1.000000
66.823380 39.299164 0.581813 12.000000
73.369484 8.437236 -0.541381 33.000000
99.812576 -31.107267 -2.390775 1.000000
16.492109 -14.392054 -0.699357 28.000000
50.926590 70.145912 1.709806 1.000000
99.408302 -31.381470 -2.329220 1.000000
16.462132 -14.472521 -0.685012 32.000000
51.319714 70.170883 1.623699 1.000000
33.800571 19.554117 0.245357 9.000000
83.744339 9.008825 -0.646834 1.000000
40.019218 -12.794855 -0.924103 8.000000
16.419352 -14.536835 -0.670015 29.000000
83.721985 8.696133 -0.661102 13.000000
40.033886 -12.961464 -0.925533 6.000000
16.411150 -14.637222 -0.652657 35.000000
31.358505 42.239662 0.890713 17.000000
63.918404 36.354988 0.385027 154.000000
83.708519 8.384733 -0.660749 8.000000
39.806206 -13.049133 -0.892110 8.000000
16.361441 -14.700912 -0.637450 23.000000
31.459942 42.083992 0.843761 11.000000
64.251732 36.233543 0.347608 141.000000
16.356030 -14.804753 -0.620081 50.000000
20.528067 27.261457 0.518222 8.000000
64.587471 36.126308 0.297074 53.000000
16.305666 -14.868257 -0.604816 24.000000
20.609978 27.162487 0.488012 8.000000
95.227547 52.807217 0.380097 25.000000
33.986511 -11.556715 -0.726876 8.000000
8.429362 -7.743055 -0.305719 40.000000
20.685400 27.055378 0.451776 8.000000
95.201530 52.337486 0.322341 24.000000
34.109604 -11.738220 -0.717827 7.000000
8.413483 -7.782791 -0.296118 25.000000
20.810730 27.003777 0.422489 8.000000
95.010895 51.780113 0.264394 24.000000
34.586014 -12.044126 -0.709594 3.000000
7.858470 -7.323016 -0.270023 146.000000
20.958574 27.009893 0.399799 1.000000
34.773132 -12.252377 -0.688601 5.000000
7.874446 -7.386842 -0.260099 26.000000
49.756821 63.662922 0.860275 6.000000
94.762169 50.768448 0.150105 17.000000
112.603905 8.387677 -0.965693 168.000000
49.975193 63.415993 0.803268 1.000000
94.559013 50.214428 0.130805 28.000000
112.529327 7.967504 -0.945106 151.000000
7.839490 -7.468055 -0.243814 18.000000
73.451630 38.661140 0.057948 24.000000
112.363213 7.541951 -0.943472 1.000000
30.717314 -11.198406 -0.576400 24.000000
73.322441 38.250610 -0.014434 194.000000
30.990328 -11.426791 -0.582305 10.000000
73.260086 37.893349 -0.057582 173.000000
30.957890 -11.543899 -0.565182 10.000000
73.402901 37.626846 -0.100774 29.000000
7.241984 -7.101786 -0.198299 32.000000
93.948097 47.724461 -0.147131 18.000000
7.156824 -7.067449 -0.186104 34.000000
49.949665 60.680050 0.370369 20.000000
93.644432 47.139210 -0.201278 23.000000
30.657196 -11.817334 -0.516142 7.000000
7.152250 -7.114899 -0.177856 29.000000
50.262321 60.584278 0.288523 6.000000
93.847710 46.811195 -0.292866 29.000000
27.413570 -10.682593 -0.457053 10.000000
7.168565 -7.183595 -0.173599 34.000000
94.660278 46.804581 -0.350182 36.000000
27.309259 -10.757402 -0.445720 17.000000
7.177455 -7.245422 -0.167335 38.000000
94.943390 46.512287 -0.369049 36.000000
7.420884 -7.546276 -0.162568 44.000000
94.694710 45.960857 -0.422540 18.000000
7.289805 -7.464926 -0.151159 27.000000
28.222490 33.055973 0.007586 9.000000
7.039739 -7.261910 -0.141227 32.000000
28.442013 33.078568 -0.030456 1.000000
27.382603 -11.247176 -0.387517 9.000000
7.016657 -7.291386 -0.128934 35.000000
27.036428 -11.220975 -0.383198 55.000000
6.996838 -7.324332 -0.123758 24.000000
94.692696 44.276714 -0.656808 11.000000
26.672556 -11.184731 -0.363473 37.000000
7.084851 -7.468485 -0.116791 24.000000
87.213791 40.390823 -0.654229 184.000000
26.567049 -11.255161 -0.352522 37.000000
7.074622 -7.512659 -0.109870 32.000000
87.356491 40.068718 -0.687743 179.000000
26.613115 -11.389905 -0.338525 44.000000
6.975403 -7.461905 -0.099838 29.000000
92.177528 41.871788 -0.777498 24.000000
6.888141 -7.420310 -0.090123 49.000000
18.218775 20.283781 -0.157034 7.000000
92.024498 41.396065 -0.827760 29.000000
39.747936 -17.357185 -0.469353 25.000000
6.844008 -7.427177 -0.081087 26.000000
18.265720 20.200891 -0.180628 12.000000
91.800819 40.891560 -0.859477 27.000000
39.514938 -17.428165 -0.452276 14.000000
6.813410 -7.448573 -0.072238 22.000000
91.775406 40.516048 -0.910508 26.000000
39.211994 -17.458305 -0.427027 1.000000
6.800848 -7.487150 -0.065319 29.000000
91.652451 40.099136 -0.942888 25.000000
6.798737 -7.529593 -0.058431 89.000000
91.360222 39.554031 -0.990444 30.000000
39.113888 -17.726385 -0.389751 8.000000
91.311089 39.135983 -1.040372 30.000000
38.919857 -17.827120 -0.366111 8.000000
6.687616 -7.521860 -0.040403 34.000000
25.581474 27.279642 -0.411226 9.000000
91.384537 38.771614 -1.074238 31.000000
38.777225 -17.934023 -0.350471 8.000000
6.806943 -7.710104 -0.032311 23.000000
25.585791 27.103556 -0.435873 9.000000
91.373802 38.410011 -1.124513 32.000000
76.941612 -1.517656 -0.725320 6.000000
38.495682 -17.959011 -0.326220 8.000000
6.774760 -7.725134 -0.023313 23.000000
25.676586 27.010231 -0.461832 9.000000
91.199463 37.906658 -1.120486 29.000000
76.806137 -1.783212 -0.697277 119.000000
37.936710 -17.867838 -0.300078 13.000000
6.743708 -7.752282 -0.012553 34.000000
25.777536 26.899357 -0.500723 9.000000
91.073303 37.463345 -1.203191 25.000000
107.175507 -2.918803 -1.010510 168.000000
36.242538 -17.240238 -0.266183 8.000000
6.690463 -7.745508 -0.005359 7.000000
25.952034 26.883505 -0.534810 9.000000
90.973030 37.032829 -1.268648 30.000000
106.994957 -3.268991 -1.046273 166.000000
34.619659 -16.624125 -0.248007 7.000000
6.759666 -7.883853 0.001813 34.000000
90.723976 36.581211 -1.297628 26.000000
76.616486 -2.621954 -0.749300 215.000000
33.277420 -16.115604 -0.225866 8.000000
6.698316 -7.870494 0.010823 9.000000
90.649506 36.147148 -1.345676 27.000000
76.910240 -2.941150 -0.738848 204.000000
32.013409 -15.662426 -0.199050 7.000000
6.651429 -7.870903 0.019784 10.000000
56.235138 57.045776 -1.342277 1.000000
90.480133 35.732311 -1.375359 33.000000
77.014954 -3.200953 -0.739951 180.000000
30.665529 -15.129220 -0.173076 7.000000
6.551346 -7.804823 0.026677 30.000000
56.548851 56.945023 -1.400817 8.000000
90.344376 35.296478 -1.422117 23.000000
77.107841 -3.487961 -0.714016 145.000000
29.495480 -14.686625 -0.149522 7.000000
30.188391 30.188391 -0.782475 10.000000
28.525635 -14.334426 -0.133727 7.000000
30.255663 30.034685 -0.826020 19.000000
90.037102 34.381828 -1.497207 1.000000
91.045166 -4.787409 -0.859291 1.000000
26.169638 -13.276615 -0.102433 21.000000
90.068481 34.016079 -1.529261 1.000000
90.847298 -5.110964 -0.857595 1.000000
26.067436 -13.345123 -0.086890 35.000000
6.376112 -7.826249 0.063428 71.000000
90.081947 33.680260 -1.561164 10.000000
90.967705 -5.452278 -0.858914 3.000000
25.658735 -13.243461 -0.075594 11.000000
6.356386 -7.855087 0.070546 43.000000
89.920448 33.209068 -1.589512 32.000000
24.745298 -12.887077 -0.058434 9.000000
6.262163 -7.802493 0.080324 34.000000
57.002857 54.970161 -1.783242 1.000000
89.756683 32.810760 -1.651422 27.000000
85.118813 -5.728197 -0.789173 2.000000
23.932184 -12.575336 -0.051903 9.000000
6.197452 -7.777324 0.088521 32.000000
57.506111 55.050125 -1.862170 21.000000
23.234421 -12.322767 -0.032132 10.000000
6.265000 -7.921490 0.098714 32.000000
22.602772 -12.094116 -0.017897 9.000000
6.212565 -7.911797 0.105346 28.000000
78.426964 -6.131019 -0.768896 1.000000
21.889509 -11.815871 -0.013025 10.000000
6.217285 -7.977833 0.112983 124.000000
85.769287 80.289566 -3.055941 10.000000
78.419304 -6.419683 -0.727845 19.000000
21.402548 -11.654514 0.008507 8.000000
6.236867 -8.063745 0.124552 28.000000
86.153870 80.115173 -3.162899 34.000000
93.298363 32.161633 -1.929332 4.000000
78.539589 -6.719409 -0.742944 3.000000
20.770058 -11.404279 0.012407 9.000000
6.172089 -8.037811 0.130894 236.000000
86.526077 79.871933 -3.248065 34.000000
93.791832 31.984156 -1.971936 21.000000
20.211519 -11.184989 0.024190 8.000000
6.178663 -8.101851 0.142275 45.000000
38.960587 35.700802 -1.494523 94.000000
93.978828 31.663897 -2.008045 23.000000
19.677029 -10.983602 0.035398 9.000000
6.270979 -8.282702 0.154133 32.000000
39.093891 35.560234 -1.540784 22.000000
94.586861 31.483198 -2.053371 25.000000
19.200930 -10.810339 0.046150 9.000000
6.063479 -8.075795 0.160406 42.000000
39.193069 35.388813 -1.594917 6.000000
95.085243 31.262438 -2.114120 27.000000
72.816322 -7.306544 -0.664197 167.000000
18.739408 -10.641140 0.056418 9.000000
