VERSION .7
FIELDS x y z intensity
SIZE 4 4 4 4
TYPE F F F F
COUNT 1 1 1 1
WIDTH 1230
HEIGHT 1
VIEWPOINT 0 0 0 1 0 0 0
POINTS 1230
DATA ascii
60.829487 42.831032 8.805314 6.000000
131.203583 25.669785 14.405471 21.000000
80.341576 -18.356409 6.399131 23.000000
9.314865 -6.910265 0.396912 22.000000
20.787813 34.365356 4.270977 10.000000
60.770012 42.456852 8.734764 6.000000
80.180412 -18.629065 6.406143 20.000000
9.293365 -6.947268 0.401133 28.000000
20.435511 33.518192 4.146816 10.000000
80.435547 -18.999334 6.446561 5.000000
9.303478 -7.008128 0.412852 31.000000
20.296715 33.017662 4.066710 9.000000
60.537254 41.652786 8.606235 13.000000
9.270823 -7.034388 0.418592 30.000000
20.390768 32.886944 4.032913 9.000000
78.025650 -19.020603 6.334682 4.000000
9.268503 -7.086306 0.429852 22.000000
20.757151 33.231289 4.048998 10.000000
130.295212 23.068365 14.234534 10.000000
77.601143 -19.218718 6.319933 24.000000
9.262079 -7.135336 0.436894 24.000000
20.050358 31.839430 3.868427 9.000000
60.997223 41.003883 8.517028 20.000000
130.305435 22.577925 14.226513 28.000000
77.379265 -19.465044 6.321645 24.000000
9.243576 -7.175222 0.443394 30.000000
20.096188 31.666523 3.829461 10.000000
60.966015 40.674652 8.453906 13.000000
77.532227 -19.805956 6.368139 24.000000
9.236709 -7.224299 0.450481 31.000000
130.650009 21.675827 14.246836 16.000000
76.698441 -19.892702 6.347354 21.000000
9.241248 -7.282598 0.462284 32.000000
22.530184 34.946606 4.186859 10.000000
61.671459 40.510574 8.459117 14.000000
131.064743 21.251331 14.260027 26.000000
76.285248 -20.069992 6.332774 23.000000
9.210326 -7.313110 0.470299 26.000000
22.608587 34.787582 4.141137 8.000000
62.031330 40.422287 8.448826 1.000000
131.012909 20.773848 14.222995 25.000000
9.191070 -7.352907 0.476861 26.000000
21.164240 32.305420 3.827638 9.000000
62.972565 40.723186 8.517836 12.000000
131.152298 20.350328 14.207293 10.000000
44.883789 -12.161015 3.774146 6.000000
9.187200 -7.405197 0.484254 32.000000
21.157366 32.050297 3.785833 9.000000
29.612295 19.010756 3.990667 7.000000
74.383606 -20.418839 6.273910 23.000000
9.144155 -7.425954 0.493714 21.000000
21.235163 31.913130 3.745025 9.000000
29.783228 18.959396 3.985140 8.000000
74.073174 -20.639799 6.267875 16.000000
9.141176 -7.476639 0.501154 22.000000
19.022699 28.372900 3.313275 9.000000
29.770254 18.798162 3.955489 7.000000
73.913391 -20.887518 6.287780 23.000000
9.155847 -7.544814 0.511768 31.000000
74.558640 -21.365263 6.362918 2.000000
9.127924 -7.578149 0.517980 32.000000
19.558435 28.714638 3.308636 8.000000
74.366669 -21.577370 6.366212 2.000000
9.134432 -7.640279 0.524100 23.000000
19.270844 28.081228 3.225389 9.000000
65.088890 40.121292 8.481896 13.000000
74.565796 -21.945906 6.445059 7.000000
9.128932 -7.692722 0.535837 23.000000
19.375231 28.012714 3.195668 26.000000
65.745331 40.209915 8.508249 5.000000
74.469452 -22.214462 6.457383 7.000000
9.088965 -7.716188 0.543488 17.000000
19.344921 27.750933 3.156003 10.000000
9.090697 -7.775172 0.553661 23.000000
19.505884 27.774670 3.142528 11.000000
9.101049 -7.839198 0.564359 22.000000
66.538445 39.712109 8.472649 15.000000
46.460831 -14.408692 4.084734 9.000000
9.064487 -7.865761 0.570173 21.000000
19.365854 27.159952 3.035738 9.000000
67.050949 39.685421 8.478048 9.000000
46.407028 -14.578669 4.093224 9.000000
9.031533 -7.895380 0.578311 134.000000
19.390947 26.985359 3.000758 8.000000
67.270050 39.498672 8.446939 9.000000
46.138271 -14.680249 4.091258 9.000000
8.526333 -7.509043 0.553683 19.000000
19.440989 26.846806 2.975758 8.000000
67.761429 39.485607 8.492153 17.000000
46.281727 -14.895087 4.133976 25.000000
9.025180 -8.007298 0.596423 17.000000
20.976921 28.755997 3.170426 9.000000
67.907784 39.222382 8.450017 13.000000
46.279659 -15.090771 4.156052 16.000000
9.014153 -8.056752 0.603987 20.000000
21.225409 28.873764 3.160447 9.000000
66.954819 38.345387 8.273026 22.000000
38.488132 -12.706381 3.474760 8.000000
9.010144 -8.112770 0.616314 20.000000
68.346848 38.810635 8.399643 6.000000
38.459629 -12.853485 3.483546 8.000000
8.966654 -8.130465 0.623749 18.000000
19.634766 26.313293 2.849297 9.000000
68.334114 38.488579 8.339983 20.000000
93.418610 8.699073 9.960517 5.000000
45.425934 -15.358159 4.136224 27.000000
8.973336 -8.196654 0.634807 22.000000
20.576834 27.365957 2.941328 6.000000
68.320969 38.152008 8.293635 9.000000
93.350822 8.347761 9.949960 11.000000
45.542351 -15.583752 4.168926 28.000000
8.965034 -8.249549 0.642751 140.000000
20.654163 27.260221 2.914029 8.000000
91.633766 7.855784 9.747578 24.000000
45.540726 -15.769890 4.182515 11.000000
8.930744 -8.278649 0.650990 76.000000
95.500092 52.479919 11.453184 15.000000
8.932932 -8.341761 0.659791 15.000000
20.850500 27.133657 2.873497 8.000000
95.182640 51.852165 11.373117 23.000000
91.343910 7.172881 9.727208 27.000000
50.241749 -17.781668 4.672134 9.000000
8.939793 -8.406776 0.671054 11.000000
95.044518 51.347507 11.277944 31.000000
91.141510 6.820971 9.702927 1.000000
50.351284 -18.048201 4.707835 9.000000
8.919451 -8.449462 0.680451 31.000000
20.795403 26.645645 2.790743 9.000000
95.051620 50.859486 11.216433 20.000000
50.645344 -18.363358 4.741590 10.000000
8.888163 -8.481849 0.686884 167.000000
20.900579 26.578985 2.762060 10.000000
94.780266 50.268314 11.067964 30.000000
8.903452 -8.559009 0.699134 190.000000
94.536201 49.758968 10.983469 34.000000
100.762306 6.445369 10.665643 1.000000
8.853739 -8.573879 0.706326 191.000000
27.459269 34.409946 3.534302 9.000000
94.413666 49.253410 10.948185 26.000000
100.926254 6.102194 10.698523 1.000000
7.883605 -7.687917 0.636853 9.000000
22.305502 27.742449 2.832840 8.000000
94.275757 48.721874 10.854269 21.000000
101.240845 5.748871 10.729564 23.000000
42.714188 -16.182959 4.092637 13.000000
7.766037 -7.628998 0.637236 1.000000
22.295120 27.542009 2.795013 15.000000
94.068344 48.220100 10.774636 24.000000
101.379456 5.401789 10.742189 19.000000
42.481186 -16.272982 4.092007 10.000000
16.050148 -15.882946 1.337569 26.000000
93.974487 47.737869 10.688013 22.000000
102.049126 5.062452 10.811110 1.000000
42.267742 -16.352158 4.092597 11.000000
7.737464 -7.713194 0.656736 8.000000
27.914318 33.983444 3.407104 10.000000
93.819542 47.247875 10.614523 24.000000
102.206314 4.730541 10.807984 1.000000
42.043446 -16.434336 4.076408 21.000000
16.089899 -16.151800 1.378433 9.000000
27.878094 33.686852 3.356881 12.000000
93.750565 46.783176 10.550303 28.000000
41.803154 -16.534163 4.091155 23.000000
16.166769 -16.348372 1.406253 25.000000
93.667686 46.313797 10.466539 15.000000
41.538673 -16.589060 4.086376 13.000000
16.095560 -16.396124 1.421378 27.000000
93.675674 45.911514 10.412683 35.000000
41.314671 -16.675436 4.086006 21.000000
16.107626 -16.529167 1.448003 23.000000
22.014133 26.022560 2.544926 9.000000
93.255798 45.282585 10.310945 25.000000
116.862007 3.733787 12.330225 2.000000
41.103401 -16.757252 4.078685 10.000000
7.334426 -7.581769 0.669219 70.000000
22.100811 25.931662 2.520024 8.000000
93.062798 44.768097 10.216789 28.000000
117.073715 3.311064 12.351200 2.000000
40.870052 -16.837076 4.077187 14.000000
7.224629 -7.520625 0.668902 109.000000
48.743858 56.790146 5.469671 1.000000
93.410370 44.534447 10.201343 25.000000
117.323669 2.887818 12.376370 3.000000
40.645882 -16.919247 4.076481 8.000000
7.131428 -7.478276 0.666429 129.000000
48.970470 56.632843 5.419225 1.000000
93.274704 44.050922 10.132471 29.000000
117.372810 2.479104 12.380566 3.000000
40.461338 -17.008381 4.079356 10.000000
7.226365 -7.628321 0.685027 16.000000
48.865704 56.094810 5.332637 12.000000
93.165382 43.582382 10.048802 18.000000
40.255367 -17.095682 4.080278 9.000000
7.256855 -7.722362 0.698280 12.000000
92.978333 43.099945 10.012339 30.000000
40.053875 -17.183666 4.081558 8.000000
7.181784 -7.696133 0.702864 24.000000
92.460449 42.448875 9.903899 29.000000
39.836376 -17.255251 4.088439 8.000000
6.983686 -7.539055 0.693383 23.000000
28.281921 31.765249 2.974067 11.000000
92.472176 42.044582 9.816998 29.000000
39.580017 -17.316771 4.083830 9.000000
6.857758 -7.457756 0.690695 27.000000
28.202045 31.464821 2.925037 14.000000
92.562500 41.696365 9.775308 35.000000
39.437576 -17.426941 4.090881 12.000000
6.816763 -7.467925 0.692865 29.000000
28.465973 31.526031 2.903165 11.000000
92.903343 41.479862 9.760880 1.000000
39.147911 -17.462532 4.082231 22.000000
6.833876 -7.539359 0.704412 113.000000
38.947784 -17.528345 4.082446 13.000000
6.911969 -7.676519 0.722328 115.000000
92.106705 40.336185 9.558061 27.000000
38.732445 -17.602430 4.081596 21.000000
6.956571 -7.783235 0.737289 140.000000
91.660240 39.740921 9.496551 35.000000
38.483994 -17.651857 4.076799 10.000000
6.821651 -7.688816 0.734987 31.000000
91.712265 39.364784 9.451777 30.000000
38.282265 -17.729445 4.077149 9.000000
25.601120 27.348381 2.429081 4.000000
91.763550 39.008034 9.372741 23.000000
25.654409 27.204767 2.398447 7.000000
91.472992 38.489281 9.293645 23.000000
35.987640 -16.980551 3.866640 8.000000
6.544253 -7.538926 0.733114 230.000000
25.700109 27.053881 2.367276 5.000000
91.524521 38.116726 9.249714 28.000000
6.530584 -7.576441 0.741562 71.000000
25.833185 27.004560 2.351191 9.000000
91.383842 37.684364 9.187343 31.000000
32.913307 -15.825956 3.574430 4.000000
6.531606 -7.634028 0.751904 33.000000
26.026617 27.007893 2.333483 9.000000
31.879652 -15.466179 3.492992 2.000000
6.935714 -8.166749 0.809387 54.000000
91.169563 36.816387 9.069191 21.000000
30.231319 -14.803629 3.324242 7.000000
31.773376 32.513947 2.764587 10.000000
91.291206 36.495396 9.033955 11.000000
29.230171 -14.446451 3.231450 7.000000
6.505189 -7.771845 0.779849 69.000000
31.910851 32.416084 2.742288 9.000000
26.511385 -13.218089 2.946408 10.000000
6.399856 -7.703191 0.777635 30.000000
32.177361 32.436741 2.714453 13.000000
62.854496 24.594450 6.154404 1.000000
26.323606 -13.245152 2.946498 24.000000
6.618597 -8.026146 0.815089 39.000000
32.236370 32.281414 2.686414 13.000000
63.044495 24.428034 6.141245 1.000000
26.063351 -13.228413 2.932822 10.000000
6.593336 -8.052614 0.822746 16.000000
30.441195 30.239969 2.481591 8.000000
90.587898 34.700897 8.742962 31.000000
25.257053 -12.935814 2.852411 9.000000
6.566648 -8.080258 0.828592 36.000000
30.492020 30.069214 2.461735 32.000000
90.318649 34.218678 8.704812 31.000000
24.429901 -12.625415 2.783597 10.000000
90.025192 33.730694 8.647640 22.000000
23.705502 -12.356083 2.715383 10.000000
6.243127 -7.795484 0.808823 67.000000
89.821136 33.297153 8.549409 25.000000
23.016851 -12.104623 2.646150 10.000000
6.353700 -7.993421 0.834114 37.000000
29.799736 28.777273 2.294344 10.000000
90.609383 33.212132 8.578837 18.000000
22.382729 -11.876064 2.587171 16.000000
6.395076 -8.106294 0.848883 35.000000
30.028700 28.786428 2.274704 10.000000
91.435692 33.135361 8.611300 26.000000
79.203972 -5.691307 8.388177 1.000000
21.725962 -11.624959 2.528969 10.000000
6.470841 -8.261475 0.870139 24.000000
30.008560 28.556797 2.236230 10.000000
92.027176 32.986744 8.621716 15.000000
79.014008 -5.968831 8.370318 1.000000
21.065308 -11.370971 2.465346 10.000000
6.452376 -8.300390 0.879131 39.000000
92.564644 32.833416 8.644547 20.000000
78.410202 -6.212328 8.322594 1.000000
20.504532 -11.160871 2.416615 26.000000
6.467089 -8.382544 0.894621 34.000000
56.040131 52.569992 4.053812 15.000000
93.300262 32.673290 8.666154 23.000000
78.046127 -6.457703 8.286291 1.000000
19.978859 -10.969852 2.367425 9.000000
6.482848 -8.463895 0.908379 255.000000
93.995537 32.548874 8.685140 14.000000
77.945549 -6.737110 8.250564 1.000000
19.380592 -10.733995 2.312905 22.000000
6.599116 -8.681423 0.936791 21.000000
94.366432 32.327251 8.656833 22.000000
18.930529 -10.571244 2.263584 18.000000
6.605957 -8.756858 0.948098 21.000000
94.817429 32.093929 8.652152 24.000000
18.431355 -10.381296 2.219629 10.000000
6.554049 -8.751422 0.952718 20.000000
56.476986 51.444183 3.816521 19.000000
95.258545 31.854578 8.646368 27.000000
18.188578 -10.324155 2.201884 10.000000
6.304642 -8.483020 0.928412 36.000000
86.887230 78.591309 5.770974 21.000000
95.945946 31.675367 8.662129 25.000000
18.165058 -10.403227 2.214939 16.000000
6.264156 -8.493390 0.936309 21.000000
87.124908 78.227623 5.706222 10.000000
96.345528 31.453352 8.670920 14.000000
79.231758 -8.285651 8.443298 1.000000
18.125484 -10.460536 2.221718 19.000000
6.266445 -8.558877 0.948576 33.000000
79.020866 -8.556505 8.396055 1.000000
18.110630 -10.544870 2.228543 22.000000
6.243521 -8.593471 0.955474 21.000000
31.466106 27.838860 1.981297 10.000000
98.409843 31.293074 8.744047 19.000000
78.974236 -8.830466 8.408349 1.000000
18.075138 -10.613103 2.240047 24.000000
6.268439 -8.691405 0.971466 223.000000
31.576212 27.730618 1.959765 10.000000
98.482056 30.975704 8.705481 26.000000
79.295235 -9.132699 8.445704 1.000000
18.028194 -10.661844 2.245764 15.000000
6.233388 -8.703494 0.978037 10.000000
31.791609 27.714052 1.937309 10.000000
99.233986 30.812971 8.743642 13.000000
79.470062 -9.448098 8.453833 4.000000
18.022818 -10.748020 2.253691 22.000000
31.621788 27.362684 1.898895 9.000000
18.005960 -10.831908 2.267897 16.000000
31.646120 27.191141 1.865457 13.000000
17.973173 -10.893518 2.279438 18.000000
32.164371 27.432156 1.867889 19.000000
94.381905 28.190285 8.167571 1.000000
79.710335 -10.352565 8.519184 1.000000
17.928205 -10.956313 2.286233 12.000000
6.380514 -9.187198 1.053402 47.000000
32.138237 27.226292 1.824291 20.000000
94.702415 27.908361 8.151701 1.000000
79.603233 -10.621339 8.525822 1.000000
17.905756 -11.028624 2.299408 14.000000
32.546551 27.348543 1.811488 11.000000
94.551819 27.487741 8.112710 13.000000
79.888008 -10.985913 8.532512 1.000000
17.869444 -11.105448 2.304167 11.000000
6.229001 -9.114280 1.057149 79.000000
32.578720 27.172478 1.770636 11.000000
95.341019 27.338598 8.119490 3.000000
79.608414 -11.216573 8.520764 1.000000
17.827280 -11.161366 2.314636 12.000000
6.093463 -8.983111 1.045198 18.000000
32.428669 26.846401 1.735040 10.000000
17.817293 -11.241875 2.322142 10.000000
5.973852 -8.876636 1.039679 9.000000
32.475765 26.704386 1.710761 10.000000
95.178276 26.556347 8.037155 1.000000
17.791714 -11.317118 2.335374 19.000000
5.880392 -8.800628 1.035947 23.000000
32.551117 26.566969 1.680209 7.000000
95.280357 26.208803 7.968168 21.000000
17.768147 -11.389439 2.344943 16.000000
6.055588 -9.131672 1.078213 7.000000
26.068857 21.110144 1.312097 7.000000
95.612816 25.923676 7.970569 25.000000
17.741945 -11.464605 2.358212 17.000000
14.023715 -21.332834 2.534681 9.000000
33.010826 26.550871 1.634845 10.000000
95.414810 25.494942 7.928872 1.000000
17.709803 -11.531665 2.363010 10.000000
14.013680 -21.480547 2.559967 9.000000
33.016472 26.337839 1.600347 10.000000
17.670290 -11.607211 2.378881 10.000000
13.933881 -21.530260 2.577871 10.000000
58.313728 46.202324 2.767079 10.000000
86.130096 -14.351428 9.239083 1.000000
9.975184 -6.597425 1.345703 1.000000
13.904454 -21.641792 2.603832 17.000000
33.041431 25.963713 1.533534 13.000000
85.972397 -14.649204 9.243256 1.000000
9.937946 -6.625281 1.350280 5.000000
6.497213 -10.198580 1.232560 6.000000
33.116161 25.845268 1.510992 10.000000
9.929503 -6.672349 1.358791 1.000000
6.409725 -10.135264 1.230792 2.000000
33.290707 25.785713 1.477840 1.000000
85.248550 -15.154380 9.176856 1.000000
17.594591 -11.912434 2.417142 20.000000
13.778983 -21.974100 2.680315 11.000000
59.497799 45.736813 2.581310 14.000000
88.078819 21.503878 7.055952 9.000000
84.885338 -15.395674 9.158713 1.000000
17.541904 -11.970763 2.423425 12.000000
13.752519 -22.111544 2.709288 22.000000
59.690289 45.537708 2.529927 8.000000
87.532974 21.030968 6.990195 2.000000
84.815239 -15.704265 9.142076 1.000000
17.515339 -12.042461 2.436823 16.000000
13.702981 -22.204350 2.733196 12.000000
87.445572 20.671257 6.898236 32.000000
17.491148 -12.120481 2.443384 12.000000
13.670080 -22.316286 2.755234 26.000000
59.517857 44.719765 2.404598 1.000000
85.384232 -16.442411 9.215853 7.000000
17.452456 -12.184060 2.447670 13.000000
13.628501 -22.432583 2.781935 20.000000
60.175480 44.869759 2.372049 4.000000
85.722260 19.601528 6.704463 15.000000
17.431005 -12.264356 2.462257 16.000000
13.567075 -22.508158 2.803972 11.000000
86.153511 19.383936 6.686354 28.000000
85.420586 -17.099728 9.202308 4.000000
17.424206 -12.350727 2.471149 16.000000
13.542402 -22.654615 2.829993 19.000000
60.296539 44.276012 2.233278 6.000000
86.928429 19.223822 6.694100 30.000000
17.374075 -12.411118 2.478027 16.000000
13.500517 -22.764605 2.851847 17.000000
86.719124 18.844416 6.625892 19.000000
17.338360 -12.477238 2.482908 11.000000
13.442646 -22.848431 2.875176 10.000000
17.336384 -12.572521 2.492996 10.000000
13.400377 -22.968794 2.902907 13.000000
85.037025 -18.261410 9.095475 9.000000
17.304422 -12.641747 2.494731 10.000000
13.367170 -23.096727 2.917874 21.000000
86.805908 18.182138 6.326237 6.000000
85.280830 -18.329336 8.937245 8.000000
17.303904 -12.641368 2.456755 12.000000
13.356244 -23.077848 2.887235 10.000000
60.577927 43.802788 1.918371 1.000000
86.912636 18.537277 6.292158 20.000000
85.111679 -17.966877 8.835857 10.000000
17.328402 -12.562118 2.427191 16.000000
13.397397 -22.954481 2.845078 14.000000
60.230179 43.872314 1.938224 1.000000
86.808319 18.847935 6.242822 21.000000
85.336044 -17.718849 8.806898 1.000000
17.340080 -12.473883 2.399753 14.000000
13.440067 -22.834930 2.808285 12.000000
60.060917 44.086861 1.937964 18.000000
85.687614 -17.480068 8.759740 2.000000
17.381172 -12.411605 2.380557 22.000000
13.478301 -22.718105 2.767056 10.000000
60.051083 44.419243 1.968978 3.000000
86.657684 19.465591 6.226269 20.000000
85.516525 -17.118935 8.689657 5.000000
17.432289 -12.351886 2.362468 11.000000
13.555298 -22.658226 2.737845 26.000000
60.135780 44.823826 2.003328 3.000000
17.440390 -12.266408 2.338916 19.000000
13.562407 -22.482660 2.699461 12.000000
59.798393 44.914227 2.036747 13.000000
85.266571 -16.435188 8.590865 17.000000
17.466518 -12.189343 2.317604 10.000000
13.603259 -22.373432 2.668942 16.000000
86.512047 20.418699 6.200136 21.000000
17.496054 -12.114842 2.300584 14.000000
13.673625 -22.304588 2.639011 10.000000
59.661137 45.482525 2.095519 9.000000
86.432838 20.734734 6.184275 17.000000
17.523497 -12.043566 2.279880 10.000000
13.683485 -22.138161 2.597708 12.000000
59.378506 45.612148 2.117607 1.000000
86.212448 21.000389 6.204838 22.000000
86.270309 -15.662417 8.535355 3.000000
17.560287 -11.974326 2.267685 13.000000
13.735562 -22.049944 2.570073 10.000000
86.140785 21.317690 6.189699 20.000000
86.007874 -15.273878 8.488136 1.000000
17.595377 -11.908487 2.248084 10.000000
13.761898 -21.912849 2.537155 10.000000
33.459633 26.094538 1.237115 11.000000
85.895508 21.591396 6.208786 24.000000
86.041351 -14.985672 8.455715 1.000000
9.907726 -6.652697 1.256424 4.000000
13.822236 -21.830856 2.506195 10.000000
33.245529 26.124090 1.247503 18.000000
85.724014 21.866711 6.186352 1.000000
86.080429 -14.667614 8.408069 1.000000
9.928631 -6.614066 1.247573 4.000000
6.451822 -10.111747 1.152848 2.000000
33.099411 26.187273 1.267390 30.000000
86.157097 -14.371384 8.395220 1.000000
9.964647 -6.587955 1.242878 3.000000
6.467841 -10.055384 1.138588 1.000000
58.267597 46.431217 2.289344 16.000000
94.653297 24.884808 6.860889 3.000000
86.475899 -14.098988 8.405759 1.000000
17.691238 -11.603300 2.190090 10.000000
6.513207 -10.044805 1.131652 1.000000
94.714500 25.272396 6.889187 1.000000
17.733229 -11.542513 2.171626 14.000000
26.016888 21.045515 1.057473 7.000000
94.707558 25.625004 6.895146 1.000000
17.747114 -11.459167 2.156992 12.000000
32.761135 26.700293 1.350333 10.000000
17.756748 -11.373389 2.138208 10.000000
6.042158 -9.101070 1.001866 31.000000
32.751148 26.892525 1.383591 11.000000
17.788887 -11.306599 2.126163 19.000000
32.574978 26.948366 1.395085 10.000000
95.449722 26.955578 7.005131 12.000000
17.810728 -11.229042 2.105281 12.000000
5.907556 -8.761611 0.952390 25.000000
32.814167 27.339733 1.431796 11.000000
95.091316 27.213121 6.985756 1.000000
79.466324 -11.196552 7.543582 1.000000
17.846529 -11.164746 2.093761 19.000000
5.982177 -8.802506 0.947978 10.000000
32.617474 27.379013 1.449905 9.000000
79.860016 -10.967862 7.577273 10.000000
17.888567 -11.100028 2.079064 15.000000
6.137144 -8.963073 0.958017 87.000000
17.913105 -11.024527 2.066086 30.000000
32.193916 27.428249 1.491710 7.000000
17.935411 -10.952118 2.053128 19.000000
32.206520 27.643354 1.511813 4.000000
17.976349 -10.886864 2.042124 10.000000
18.017349 -10.821636 2.027451 16.000000
14.389982 -20.376442 2.116645 13.000000
28.031099 24.410040 1.369450 8.000000
99.008934 30.648386 7.429299 19.000000
18.017443 -10.736289 2.012149 17.000000
14.436744 -20.284468 2.090691 14.000000
98.451515 30.890579 7.414420 27.000000
18.057577 -10.670714 2.001167 19.000000
6.320803 -8.815795 0.901367 39.000000
98.221085 31.214178 7.441795 26.000000
18.087326 -10.603286 1.985580 12.000000
6.274641 -8.684021 0.882709 34.000000
31.714647 28.236868 1.638701 2.000000
18.126963 -10.537442 1.974602 26.000000
6.236564 -8.565019 0.861761 34.000000
87.229248 78.238853 4.562900 10.000000
96.595146 31.460238 7.353296 4.000000
18.149401 -10.461675 1.958102 19.000000
6.234353 -8.499474 0.849943 25.000000
86.949516 78.537354 4.644506 10.000000
95.842125 31.603994 7.340154 25.000000
18.156443 -10.381467 1.943894 11.000000
6.277665 -8.493074 0.844178 27.000000
56.554672 51.460789 3.071085 25.000000
95.417404 31.815147 7.350963 16.000000
18.186590 -10.310439 1.932023 18.000000
56.603863 51.886063 3.124334 1.000000
94.879639 32.022732 7.318527 28.000000
18.585686 -10.446868 1.955329 10.000000
6.575488 -8.764097 0.856529 20.000000
84.926460 78.422783 4.764103 10.000000
94.449898 32.245369 7.311528 23.000000
19.035490 -10.612431 1.994905 16.000000
84.614052 78.710838 4.843547 10.000000
93.683479 32.404194 7.262209 13.000000
19.537434 -10.798594 2.027633 10.000000
56.118881 52.570263 3.263222 15.000000
93.495796 32.723442 7.291673 16.000000
20.075659 -11.000212 2.067209 10.000000
6.473995 -8.437075 0.803360 25.000000
55.971813 52.818993 3.306275 1.000000
92.518372 32.744301 7.258759 27.000000
78.764175 -6.240373 7.162756 1.000000
20.661840 -11.227805 2.111107 9.000000
6.450320 -8.342729 0.789219 17.000000
92.167442 32.964432 7.274118 17.000000
21.295406 -11.471190 2.163020 10.000000
6.487320 -8.327332 0.782596 27.000000
91.368431 33.056877 7.254678 28.000000
21.890160 -11.693167 2.201807 15.000000
6.519846 -8.309093 0.773749 19.000000
30.450075 29.364239 1.906129 30.000000
90.818192 33.234737 7.254558 6.000000
22.479702 -11.902390 2.243280 9.000000
6.566053 -8.305121 0.768185 19.000000
30.136778 29.255610 1.914617 10.000000
89.686867 33.176182 7.173395 18.000000
23.137081 -12.152391 2.295654 16.000000
30.057158 29.413599 1.953822 10.000000
90.059555 33.725647 7.247733 30.000000
23.904875 -12.438788 2.352859 10.000000
6.235849 -7.772486 0.709042 50.000000
30.069265 29.621284 1.975749 10.000000
90.309776 34.161247 7.293894 26.000000
24.650515 -12.723079 2.412327 9.000000
30.413280 30.180616 2.035588 11.000000
90.536873 34.608887 7.355976 30.000000
25.425430 -13.005252 2.468414 20.000000
90.769745 35.079746 7.419459 28.000000
26.280264 -13.315442 2.536062 28.000000
26.330465 -13.219821 2.515494 25.000000
91.010315 35.960056 7.512509 33.000000
26.848280 -13.356817 2.544454 6.000000
6.422354 -7.713823 0.673723 28.000000
91.014343 36.347874 7.558202 30.000000
29.429144 -14.512848 2.772693 7.000000
6.629053 -7.905800 0.685272 27.000000
91.184601 36.766941 7.582423 33.000000
30.459080 -14.895391 2.841221 7.000000
6.677686 -7.904772 0.678230 22.000000
26.189772 27.139256 1.936973 8.000000
91.457642 37.267323 7.651114 34.000000
32.012508 -15.496136 2.974047 5.000000
6.648785 -7.812296 0.663392 30.000000
25.844879 26.997911 1.945627 9.000000
91.534744 37.709209 7.739154 25.000000
33.406101 -16.027035 3.085276 6.000000
25.685921 27.010609 1.953440 8.000000
91.510452 38.054649 7.747727 31.000000
34.653465 -16.484331 3.168437 8.000000
6.548577 -7.583923 0.633915 30.000000
25.734041 27.251070 2.003682 8.000000
91.583855 38.479500 7.800718 26.000000
36.181648 -17.033504 3.280803 8.000000
25.639851 27.351460 2.030389 8.000000
91.708015 38.908855 7.857805 34.000000
91.782166 39.337887 7.911534 30.000000
38.370453 -17.745895 3.438531 16.000000
91.671417 39.688763 7.949564 26.000000
38.560295 -17.646141 3.434268 13.000000
6.771649 -7.616376 0.616191 31.000000
91.820778 40.134598 8.027419 18.000000
38.800316 -17.592440 3.427702 22.000000
6.813124 -7.606694 0.610269 14.000000
38.954994 -17.507069 3.421215 14.000000
6.878704 -7.628858 0.606677 22.000000
39.241573 -17.479681 3.426183 10.000000
6.886836 -7.581815 0.595970 38.000000
92.623955 41.665726 8.207322 31.000000
39.425037 -17.388514 3.421477 26.000000
7.014683 -7.668608 0.595614 30.000000
92.454559 41.978168 8.276600 28.000000
39.596207 -17.299158 3.415893 25.000000
6.932008 -7.527948 0.582887 28.000000
92.475441 42.397144 8.310199 30.000000
39.841393 -17.216148 3.400567 18.000000
6.942204 -7.478550 0.570496 35.000000
40.073486 -17.158962 3.400191 13.000000
6.939150 -7.420527 0.560891 37.000000
40.265709 -17.066904 3.395813 22.000000
7.040577 -7.476506 0.559785 31.000000
48.835907 56.397598 4.602136 9.000000
40.495110 -16.997633 3.410135 16.000000
7.068199 -7.450932 0.552616 28.000000
59.533386 28.344967 5.490513 7.000000
40.706100 -16.910982 3.399441 22.000000
7.103413 -7.438493 0.548036 19.000000
93.165924 44.757652 8.642987 25.000000
117.528000 3.323912 10.410558 14.000000
40.934895 -16.830370 3.397833 14.000000
7.151661 -7.434272 0.542431 27.000000
93.369263 45.277279 8.731903 21.000000
41.193592 -16.768873 3.391003 20.000000
7.121333 -7.346079 0.530825 10.000000
41.408485 -16.679693 3.387964 20.000000
41.662033 -16.587761 3.379620 17.000000
16.045950 -16.311384 1.155091 10.000000
27.996372 33.781734 2.891091 12.000000
94.115509 46.903759 8.941064 31.000000
41.902893 -16.522888 3.386789 10.000000
7.648859 -7.718595 0.540969 11.000000
27.794123 33.764969 2.912418 11.000000
93.956665 47.214191 8.977770 31.000000
42.096115 -16.429520 3.381887 17.000000
7.708597 -7.730155 0.535833 9.000000
27.726152 33.959301 2.957986 12.000000
93.923157 47.649937 9.084569 27.000000
102.000061 5.095710 9.078683 21.000000
42.357170 -16.352764 3.382084 11.000000
7.736290 -7.695889 0.527970 9.000000
27.602638 34.025665 2.979244 9.000000
101.776794 5.458590 9.060531 1.000000
42.548347 -16.247635 3.376585 21.000000
7.737160 -7.645875 0.518685 8.000000
27.770163 34.489784 3.049773 10.000000
101.787964 5.797762 9.063188 1.000000
42.848461 -16.191084 3.379820 9.000000
27.405571 34.293522 3.054310 12.000000
94.792435 49.387882 9.351376 29.000000
93.219040 5.652530 8.318429 14.000000
30.754442 -11.492497 2.411001 7.000000
8.866925 -8.634761 0.575009 126.000000
27.250332 34.369038 3.090158 12.000000
94.879776 49.876385 9.434520 35.000000
30.712950 -11.348879 2.392981 7.000000
8.871567 -8.573160 0.564539 88.000000
20.911171 26.573360 2.406058 8.000000
94.671410 50.210583 9.469735 20.000000
30.684868 -11.210852 2.376111 7.000000
8.877981 -8.516653 0.554351 29.000000
20.843397 26.668737 2.432173 9.000000
94.937836 50.734676 9.531215 15.000000
91.494667 6.542368 8.154257 1.000000
8.910069 -8.490876 0.545983 36.000000
20.974831 27.050335 2.489639 8.000000
95.392242 51.470860 9.692840 29.000000
92.955864 7.005702 8.319617 16.000000
50.545650 -18.058163 3.885108 9.000000
8.900796 -8.414122 0.534774 28.000000
20.819738 27.054510 2.506943 8.000000
95.601326 52.015358 9.732475 24.000000
91.594040 7.240778 8.200054 6.000000
50.462929 -17.820316 3.845536 9.000000
8.952235 -8.403769 0.527510 24.000000
20.731869 27.125971 2.531146 8.000000
95.615952 52.434998 9.809170 23.000000
91.633949 7.533681 8.221880 11.000000
45.624622 -15.932831 3.455617 6.000000
8.954679 -8.350374 0.519597 63.000000
20.656342 27.243336 2.564679 8.000000
95.551163 52.899490 9.901098 18.000000
91.513664 7.893759 8.213863 22.000000
45.674419 -15.762640 3.438037 9.000000
20.615788 27.377951 2.594964 8.000000
68.391945 38.144680 7.140560 24.000000
91.237534 8.174835 8.207584 10.000000
45.761341 -15.605173 3.423290 9.000000
8.971969 -8.244370 0.502167 20.000000
68.278389 38.441502 7.186129 20.000000
93.345596 8.692275 8.399900 14.000000
45.870785 -15.455053 3.418726 9.000000
8.990542 -8.195117 0.490728 18.000000
23.556356 31.753382 3.056094 8.000000
68.135368 38.659100 7.212105 7.000000
93.281921 9.031324 8.413581 1.000000
38.406185 -12.790929 2.844848 9.000000
23.500607 31.922081 3.091861 10.000000
68.289917 39.094181 7.285852 3.000000
46.019238 -15.139256 3.404634 9.000000
21.206263 29.027802 2.829235 9.000000
67.052620 38.681644 7.208373 26.000000
76.277748 -24.784143 5.622419 22.000000
9.005610 -8.037813 0.467938 20.000000
23.432564 32.311413 3.176335 10.000000
67.115868 39.046684 7.244177 18.000000
76.249260 -24.495640 5.558117 24.000000
20.803246 28.908173 2.859291 9.000000
67.527763 39.634144 7.360151 5.000000
76.014671 -24.098673 5.534231 13.000000
8.999935 -7.909420 0.449814 19.000000
19.227360 26.925932 2.685302 8.000000
67.028442 39.640511 7.361152 13.000000
9.063990 -7.912596 0.443290 19.000000
19.339653 27.284071 2.737773 8.000000
66.638359 39.724438 7.374483 18.000000
73.761444 -22.790665 5.317261 23.000000
9.072851 -7.864695 0.436083 23.000000
20.072336 28.538866 2.886936 8.000000
73.808075 -22.509062 5.287579 23.000000
9.079118 -7.812031 0.426632 138.000000
19.393286 27.789288 2.827722 12.000000
73.960503 -22.301823 5.279907 23.000000
9.088916 -7.762667 0.417398 21.000000
19.470362 28.108290 2.889309 8.000000
65.635132 40.095306 7.419425 13.000000
74.553284 -22.154478 5.288558 23.000000
9.086978 -7.703591 0.409764 22.000000
19.275766 28.046412 2.899596 19.000000
65.169548 40.171009 7.425424 12.000000
74.692314 -21.898178 5.279043 6.000000
9.106572 -7.657586 0.400942 23.000000
19.572136 28.691681 2.989758 9.000000
75.665199 -21.882563 5.314479 24.000000
9.128240 -7.624275 0.394547 22.000000
21.238577 31.381042 3.288516 7.000000
63.376678 39.694485 7.332379 25.000000
74.801773 -21.350197 5.234930 1.000000
9.130723 -7.567022 0.385107 24.000000
21.182896 31.547255 3.331188 15.000000
76.024216 -21.398079 5.287264 9.000000
9.139304 -7.517800 0.376034 31.000000
21.225695 31.850666 3.389043 9.000000
63.815384 40.576633 7.508209 10.000000
9.160364 -7.484332 0.373811 58.000000
21.091022 31.901340 3.413097 9.000000
63.344582 40.604076 7.510063 12.000000
9.152999 -7.422539 0.364163 29.000000
22.957846 35.003208 3.772758 10.000000
63.073772 40.741821 7.534482 1.000000
45.007187 -12.143871 3.104453 7.000000
9.180290 -7.389060 0.357992 19.000000
22.771603 34.984932 3.791579 10.000000
75.837074 -20.164513 5.212111 4.000000
9.203599 -7.352398 0.349617 32.000000
61.648117 40.464447 7.477422 8.000000
76.751999 -20.106878 5.242074 17.000000
9.207129 -7.300098 0.342574 24.000000
20.521009 32.026196 3.528556 9.000000
29.510040 19.517460 3.618768 8.000000
76.719383 -19.812414 5.248981 24.000000
9.213014 -7.252531 0.337753 31.000000
20.071362 31.554316 3.495548 9.000000
29.445002 19.629953 3.638316 8.000000
77.298035 -19.688654 5.270092 9.000000
9.227902 -7.209628 0.329146 28.000000
19.919735 31.570869 3.515561 9.000000
60.834358 40.863583 7.573240 16.000000
9.234650 -7.160547 0.322325 30.000000
21.092930 33.716450 3.780452 10.000000
130.187103 23.072657 12.335119 10.000000
9.249082 -7.117610 0.315801 27.000000
21.028795 33.863163 3.831186 10.000000
9.267249 -7.077662 0.311460 23.000000
20.146242 32.708862 3.719281 18.000000
60.495350 41.592850 7.729105 16.000000
9.273382 -7.028681 0.302669 32.000000
20.167778 33.001255 3.778571 9.000000
9.279234 -6.979717 0.295939 34.000000
20.243214 33.399200 3.856907 10.000000
87.719666 16.860392 8.459458 1.000000
9.296824 -6.939742 0.291635 24.000000
60.785759 42.768513 7.969184 14.000000
87.543480 17.159483 8.464187 1.000000
45.550007 -10.373792 3.037387 162.000000
9.297018 -6.889481 0.284822 28.000000
60.690067 43.034603 8.016669 17.000000
87.388855 17.446156 8.470767 1.000000
45.722782 -10.245392 3.038292 203.000000
9.326352 -6.858408 0.278884 4.000000
60.541851 43.247883 8.082671 13.000000
46.032379 -10.137721 3.064637 195.000000
17.297863 -12.623071 0.508388 29.000000
20.146366 34.338646 4.072068 10.000000
60.528748 43.574467 8.141704 20.000000
46.352596 -10.030254 3.075175 191.000000
17.437342 -12.627170 0.499844 35.000000
19.983561 34.348988 4.099626 10.000000
60.348667 43.765465 8.177483 13.000000
17.528440 -12.595462 0.486052 28.000000
20.264446 35.113201 4.218128 10.000000
60.296749 44.065937 8.231853 12.000000
17.562346 -12.522475 0.481950 35.000000
19.960894 34.881912 4.216981 10.000000
17.555346 -12.420680 0.465485 27.000000
19.722757 34.760696 4.235878 10.000000
87.336212 19.409956 8.709269 13.000000
47.628372 -9.586265 3.141755 119.000000
17.559904 -12.327576 0.460658 30.000000
19.545835 34.730778 4.259064 10.000000
87.326561 19.727943 8.762444 17.000000
47.763798 -9.440162 3.157029 199.000000
17.566046 -12.240575 0.452219 33.000000
59.928707 45.126732 8.507565 15.000000
87.412224 20.084307 8.794170 4.000000
48.053337 -9.314514 3.165310 209.000000
17.606874 -12.173401 0.440905 37.000000
19.659664 35.540081 4.419402 7.000000
35.078529 26.616402 5.032537 9.000000
48.321892 -9.182936 3.189382 71.000000
17.655621 -12.111700 0.433535 33.000000
18.531605 33.778656 4.233129 9.000000
34.867455 26.648539 5.054371 16.000000
113.244347 26.832445 11.534199 8.000000
34.870411 26.650801 5.109139 21.000000
19.654255 35.530300 4.475560 9.000000
35.022575 26.573948 5.117811 7.000000
48.311920 -9.189778 3.318141 75.000000
17.687809 -12.133782 0.479269 32.000000
19.740561 35.394066 4.445576 7.000000
60.030952 45.203720 8.708112 15.000000
48.022690 -9.317269 3.309176 208.000000
17.626564 -12.187015 0.490043 36.000000
87.176910 19.662153 9.061785 3.000000
47.732044 -9.442542 3.317106 201.000000
17.569118 -12.242716 0.508388 31.000000
19.685293 34.708782 4.313662 10.000000
47.661179 -9.610180 3.340183 84.000000
17.577009 -12.344165 0.524925 34.000000
19.830774 34.668560 4.296512 10.000000
17.559826 -12.428450 0.544554 34.000000
20.177061 34.989994 4.309397 10.000000
60.308483 44.074516 8.550296 16.000000
17.566820 -12.530292 0.557497 36.000000
20.331297 34.960732 4.293526 10.000000
60.328865 43.767170 8.491939 16.000000
17.553007 -12.617761 0.569849 30.000000
20.108059 34.300785 4.185987 10.000000
60.510235 43.561138 8.481756 24.000000
17.445681 -12.637850 0.579153 35.000000
20.335979 34.399967 4.186005 10.000000
60.606091 43.309753 8.421276 20.000000
46.139172 -10.178127 3.320508 9.000000
17.293871 -12.624784 0.594344 38.000000
60.757519 43.082432 8.407154 20.000000
45.736660 -10.256886 3.318762 28.000000
9.324040 -6.859215 0.331414 24.000000
60.738083 42.750820 8.370636 17.000000
45.586357 -10.398810 3.318801 8.000000
9.306726 -6.899192 0.337766 27.000000
60.665745 42.368252 8.299976 5.000000
45.265022 -10.500194 3.314489 6.000000
9.309262 -6.954087 0.344870 29.000000
20.420389 33.440842 3.986941 10.000000
60.803398 42.149387 8.272480 1.000000
9.287460 -6.990983 0.355163 30.000000
20.168348 32.757557 3.893914 10.000000
60.465618 41.587952 8.166826 25.000000
130.274185 24.050833 13.433030 10.000000
9.277451 -7.036866 0.365935 30.000000
20.982464 33.814888 3.986185 9.000000
130.363770 23.573610 13.409908 10.000000
77.919205 -18.965841 5.818737 5.000000
9.271297 -7.085878 0.372831 29.000000
21.089256 33.710579 3.954937 10.000000
60.669956 41.092091 8.076825 1.000000
130.276123 23.088434 13.369192 10.000000
77.983734 -19.284580 5.842889 10.000000
9.276782 -7.144084 0.380239 28.000000
19.974306 31.681858 3.698680 9.000000
60.813072 40.864689 8.062942 20.000000
130.352371 22.609493 13.345097 22.000000
77.886353 -19.563702 5.869108 24.000000
9.250323 -7.177873 0.388413 36.000000
20.008923 31.480417 3.657407 9.000000
61.000210 40.682083 8.030021 1.000000
77.513565 -19.772369 5.860474 14.000000
9.228989 -7.213070 0.394712 28.000000
20.533413 32.057873 3.705969 9.000000
77.553444 -20.085569 5.911190 14.000000
9.241472 -7.277547 0.406661 24.000000
29.601276 19.437010 3.840756 5.000000
76.123810 -19.999113 5.793695 11.000000
9.214625 -7.311281 0.410767 28.000000
29.572916 19.263636 3.821657 8.000000
9.191386 -7.347899 0.421211 29.000000
22.867033 34.891304 3.965452 9.000000
29.629129 19.153275 3.801570 8.000000
44.940086 -12.159430 3.467880 6.000000
9.183678 -7.397071 0.428280 23.000000
21.122749 31.949329 3.606977 9.000000
63.553108 40.753395 8.094985 6.000000
9.171848 -7.443132 0.435190 26.000000
21.154783 31.768282 3.580997 9.000000
63.763268 40.574764 8.090322 14.000000
9.151944 -7.482780 0.445875 32.000000
21.106396 31.457047 3.520850 2.000000
64.133766 40.481041 8.078287 10.000000
9.139640 -7.528780 0.454896 28.000000
21.256390 31.430992 3.499914 6.000000
63.353912 39.664837 7.922113 12.000000
75.718895 -21.669146 5.977180 5.000000
9.119490 -7.568458 0.461485 17.000000
19.477623 28.585268 3.166234 10.000000
63.415245 39.395775 7.873012 25.000000
74.989571 -21.758102 5.966984 3.000000
9.123432 -7.625668 0.471342 21.000000
19.298792 28.100924 3.096404 18.000000
65.174507 40.158375 8.046079 20.000000
74.387001 -21.879177 5.938990 5.000000
9.125804 -7.684640 0.479174 18.000000
19.426165 28.065411 3.064280 8.000000
65.445160 40.010632 8.021595 20.000000
74.052162 -22.061834 5.918369 1.000000
9.104939 -7.724282 0.487911 23.000000
19.371399 27.778580 3.016495 14.000000
75.052177 -22.659590 6.032417 6.000000
9.095359 -7.773663 0.495196 18.000000
19.710318 28.024147 3.027622 8.000000
75.189644 -23.002132 6.091617 24.000000
9.094025 -7.835913 0.507326 28.000000
19.201628 27.099371 2.911569 13.000000
66.625816 39.748489 8.017303 14.000000
75.817383 -23.483902 6.163015 24.000000
9.064975 -7.868958 0.515707 21.000000
19.315710 27.069632 2.891847 9.000000
66.953247 39.611816 8.011736 9.000000
75.895210 -23.813213 6.204328 24.000000
9.053671 -7.911945 0.522861 29.000000
19.386885 26.959841 2.864333 8.000000
67.420738 39.571331 8.009733 11.000000
76.009628 -24.155483 6.248888 24.000000
20.843975 28.773672 3.039766 9.000000
67.661110 39.379704 8.007281 15.000000
75.983879 -24.454285 6.296152 13.000000
9.022501 -7.999295 0.539113 25.000000
23.415138 32.074879 3.369637 10.000000
67.114967 38.733227 7.884799 27.000000
46.071232 -15.005018 3.838875 20.000000
9.011465 -8.048694 0.548665 19.000000
21.174929 28.784033 3.006924 7.000000
66.919724 38.309780 7.818910 1.000000
45.797543 -15.101766 3.829126 8.000000
9.007536 -8.104731 0.560827 20.000000
38.370110 -12.808680 3.226233 8.000000
8.955275 -8.117300 0.567879 15.000000
68.257027 38.429474 7.859962 1.000000
45.484753 -15.369200 3.846022 31.000000
8.976877 -8.197015 0.577529 19.000000
20.641258 27.431700 2.810389 8.000000
68.491043 38.231300 7.843067 14.000000
45.566959 -15.574407 3.866005 28.000000
8.969967 -8.248307 0.587460 19.000000
20.642029 27.234329 2.767514 8.000000
95.366951 52.819256 10.842921 27.000000
92.021957 7.905244 9.170004 6.000000
45.513783 -15.724983 3.882814 26.000000
8.976162 -8.314927 0.594139 14.000000
20.782204 27.211510 2.748857 8.000000
95.284492 52.296497 10.772321 30.000000
91.834770 7.517920 9.148269 5.000000
45.768875 -16.019064 3.927068 9.000000
8.938679 -8.347128 0.604569 17.000000
20.849237 27.092844 2.726556 8.000000
95.267387 51.833664 10.729722 26.000000
50.386745 -17.842882 4.357046 9.000000
8.954302 -8.417477 0.616111 18.000000
20.984539 27.072613 2.707811 8.000000
94.992859 51.255363 10.621520 22.000000
92.571869 6.944266 9.233135 1.000000
50.394535 -18.043856 4.363139 9.000000
8.919451 -8.446508 0.624437 89.000000
20.845461 26.690573 2.653434 8.000000
94.854248 50.732582 10.547248 26.000000
92.715797 6.613422 9.245011 1.000000
8.896901 -8.484256 0.631382 160.000000
20.885998 26.541370 2.616541 9.000000
94.644310 50.175049 10.446759 26.000000
8.912237 -8.561470 0.643344 169.000000
94.553398 49.704815 10.379869 25.000000
93.239029 5.980475 9.276213 6.000000
8.880473 -8.593763 0.651971 181.000000
27.346498 34.244110 3.333560 9.000000
94.766220 49.374226 10.326820 23.000000
92.889450 5.616273 9.222921 15.000000
94.627548 48.903683 10.256454 29.000000
92.992012 5.313035 9.231304 8.000000
42.754562 -16.172659 3.814369 15.000000
42.535526 -16.268263 3.816129 10.000000
7.749478 -7.663395 0.595977 7.000000
27.748541 33.986725 3.237430 12.000000
93.872391 47.624180 10.042874 27.000000
42.300808 -16.364948 3.800681 10.000000
7.721041 -7.691451 0.603585 9.000000
27.883854 33.898083 3.207892 12.000000
93.935364 47.224030 9.975479 28.000000
42.052464 -16.446323 3.815504 9.000000
16.082558 -16.138794 1.281800 10.000000
27.914352 33.694733 3.167141 12.000000
94.245308 46.968441 9.953836 32.000000
41.786797 -16.519258 3.812665 10.000000
16.173943 -16.349916 1.301904 25.000000
94.080711 46.456730 9.881450 19.000000
41.579590 -16.605400 3.814767 23.000000
16.081150 -16.370012 1.315099 27.000000
41.296661 -16.651407 3.809511 15.000000
7.210399 -7.393932 0.599105 8.000000
93.217056 45.243668 9.703433 29.000000
41.146465 -16.766436 3.816922 12.000000
7.186356 -7.423518 0.608411 17.000000
93.056313 44.744976 9.596850 23.000000
40.920616 -16.841202 3.816962 19.000000
7.193387 -7.485487 0.618598 30.000000
59.378059 28.271013 6.077659 9.000000
40.704285 -16.943558 3.818603 20.000000
7.180697 -7.524680 0.627049 23.000000
48.902885 56.514801 5.108069 3.000000
93.480705 44.128262 9.516825 1.000000
40.407845 -16.977594 3.811468 22.000000
7.104790 -7.499984 0.628246 29.000000
93.524765 43.690830 9.467041 1.000000
40.208172 -17.075640 3.814155 20.000000
7.217123 -7.674711 0.648045 9.000000
40.008179 -17.147528 3.815867 10.000000
7.239794 -7.755582 0.658205 23.000000
92.495193 42.406200 9.278143 33.000000
39.741287 -17.222301 3.812211 18.000000
92.497719 42.036713 9.228603 20.000000
39.600594 -17.317537 3.819407 22.000000
7.021139 -7.630084 0.661442 36.000000
92.675003 41.688686 9.194488 28.000000
122.001045 0.340692 12.048350 10.000000
39.368587 -17.396458 3.818587 17.000000
93.082375 41.501358 9.149472 1.000000
122.175674 -0.021324 12.065550 10.000000
39.149323 -17.471354 3.811046 19.000000
6.900871 -7.610600 0.666153 30.000000
92.990097 41.091091 9.091185 1.000000
121.997826 -0.447147 12.026567 10.000000
38.945610 -17.519194 3.818796 15.000000
6.833197 -7.583709 0.669074 40.000000
38.737896 -17.588596 3.819396 25.000000
6.868237 -7.679008 0.682480 170.000000
91.793236 39.779556 8.875718 30.000000
38.558788 -17.678019 3.823026 13.000000
6.862913 -7.729885 0.692010 47.000000
91.722969 39.350422 8.802251 34.000000
38.321404 -17.739450 3.813341 20.000000
6.893586 -7.821990 0.705301 26.000000
25.614250 27.343275 2.265301 8.000000
91.621826 38.910034 8.743785 35.000000
37.409870 -17.476315 3.743214 8.000000
6.888909 -7.871910 0.714966 39.000000
25.602333 27.130564 2.229300 9.000000
91.585434 38.517784 8.692478 30.000000
35.948246 -16.954294 3.617146 8.000000
6.807343 -7.836475 0.716758 181.000000
25.691074 27.034918 2.202668 8.000000
91.590828 38.125580 8.644775 25.000000
34.499493 -16.425859 3.497579 7.000000
25.839369 26.992155 2.180709 9.000000
91.414932 37.659851 8.580315 31.000000
33.049564 -15.877274 3.369089 4.000000
26.043123 27.006151 2.163256 8.000000
91.267242 37.226894 8.519539 18.000000
91.077843 36.760860 8.454684 28.000000
30.326614 -14.843731 3.138180 7.000000
91.145302 36.400173 8.413994 29.000000
32.023827 32.496796 2.542801 9.000000
90.951874 35.936962 8.349535 30.000000
26.711555 -13.312070 2.789644 7.000000
6.356914 -7.646072 0.726714 77.000000
32.168579 32.405258 2.512872 13.000000
26.299339 -13.221439 2.761763 31.000000
32.436642 32.436642 2.492387 6.000000
26.178383 -13.281052 2.769660 10.000000
30.432325 30.220604 2.300229 11.000000
90.533859 34.643959 8.174018 31.000000
25.295671 -12.950021 2.691282 10.000000
30.476461 30.043381 2.265265 29.000000
90.285461 34.188080 8.089860 30.000000
24.484747 -12.642933 2.614537 10.000000
90.128159 33.751335 8.030797 27.000000
6.246551 -7.796970 0.766981 85.000000
89.763245 33.240055 7.953728 16.000000
23.023649 -12.103067 2.490830 9.000000
6.346195 -7.978261 0.789790 27.000000
90.331596 33.074547 7.959484 30.000000
22.395643 -11.872901 2.436288 10.000000
30.512571 29.219639 2.117961 10.000000
91.390846 33.101067 8.008428 25.000000
21.745232 -11.630388 2.383187 10.000000
6.443731 -8.223906 0.822251 24.000000
91.978638 32.933121 8.014972 19.000000
78.658524 -5.941977 7.776212 1.000000
21.104397 -11.382559 2.317294 10.000000
6.460537 -8.304905 0.835482 28.000000
56.098686 52.938721 3.758961 1.000000
92.655708 32.792908 8.028904 24.000000
78.920372 -6.280470 7.818480 4.000000
20.545641 -11.178598 2.272788 11.000000
56.122932 52.574059 3.693836 19.000000
93.396523 32.688698 8.065776 31.000000
19.941069 -10.944573 2.218347 10.000000
6.471427 -8.445930 0.861695 160.000000
84.509720 78.641296 5.484389 10.000000
93.813019 32.449001 8.021662 22.000000
19.444565 -10.760559 2.179026 14.000000
6.519985 -8.571110 0.879707 27.000000
84.939590 78.462387 5.412679 10.000000
94.448013 32.281544 8.030719 27.000000
18.956804 -10.581577 2.136349 10.000000
6.587234 -8.725700 0.900774 26.000000
56.510349 51.836651 3.522442 1.000000
94.950836 32.065216 8.028217 32.000000
18.492012 -10.411210 2.099475 10.000000
56.479721 51.428642 3.468681 18.000000
95.517365 31.885532 8.048970 23.000000
18.186956 -10.323234 2.072605 21.000000
6.398982 -8.603682 0.898502 73.000000
86.882774 78.477066 5.234581 10.000000
95.835052 31.601664 8.030478 27.000000
77.971718 -7.878833 7.739367 1.000000
18.144051 -10.386992 2.079410 25.000000
6.281229 -8.510319 0.893779 39.000000
87.217819 78.201134 5.135036 10.000000
96.319160 31.370352 8.007981 22.000000
78.104279 -8.181527 7.769289 1.000000
18.136900 -10.467124 2.093839 19.000000
6.336598 -8.648358 0.911601 36.000000
31.511955 28.046545 1.827103 10.000000
18.084566 -10.525468 2.103303 13.000000
6.260350 -8.610311 0.916396 21.000000
31.635443 27.968994 1.806725 10.000000
98.285202 31.234552 8.080203 28.000000
18.062393 -10.601380 2.112614 19.000000
6.254604 -8.669034 0.927718 24.000000
98.481216 30.899900 8.068829 20.000000
18.042086 -10.674310 2.118280 14.000000
6.253026 -8.730913 0.937665 28.000000
28.025337 24.422230 1.532032 6.000000
98.867912 30.623642 8.054912 18.000000
18.001886 -10.739798 2.129256 12.000000
6.258014 -8.805882 0.952746 6.000000
17.980383 -10.812247 2.142263 14.000000
6.225312 -8.828213 0.960288 4.000000
17.944244 -10.880266 2.150096 10.000000
14.353108 -20.505980 2.238282 20.000000
32.066654 27.329489 1.648037 27.000000
17.928324 -10.952086 2.163645 14.000000
32.247364 27.280090 1.630025 10.000000
95.100441 27.953514 7.540140 3.000000
17.902756 -11.031085 2.169364 11.000000
6.076217 -8.814559 0.972432 112.000000
32.612015 27.384134 1.613600 20.000000
95.118591 27.580505 7.498743 1.000000
80.104973 -11.015750 8.013778 9.000000
17.878136 -11.106524 2.182437 12.000000
6.189653 -9.049921 1.003606 15.000000
32.812096 27.357414 1.581431 11.000000
94.951950 27.191168 7.461120 1.000000
79.749138 -11.236400 7.967669 1.000000
17.830183 -11.154520 2.184561 12.000000
5.963146 -8.787693 0.979572 21.000000
32.708546 27.068480 1.556808 11.000000
17.813124 -11.234897 2.202363 14.000000
5.909986 -8.768517 0.984667 20.000000
32.773819 26.920721 1.518147 10.000000
17.800875 -11.318581 2.209685 19.000000
5.987751 -8.961302 1.011199 22.000000
32.795830 26.738096 1.477645 10.000000
17.777678 -11.391171 2.215454 14.000000
6.046827 -9.118460 1.034250 17.000000
26.065201 21.092123 1.153322 5.000000
94.864212 25.667389 7.285869 14.000000
17.734680 -11.464299 2.230719 14.000000
94.586334 25.255884 7.206515 24.000000
17.706259 -11.524958 2.239145 12.000000
58.383900 46.540554 2.476857 16.000000
94.172112 24.740730 7.150245 1.000000
17.679649 -11.608943 2.252854 17.000000
6.482295 -10.008608 1.152395 7.000000
33.108826 26.194723 1.363633 10.000000
94.385262 24.427265 7.125368 1.000000
9.938683 -6.575776 1.273575 5.000000
13.896306 -21.629110 2.502619 9.000000
33.134418 26.018080 1.338669 29.000000
85.777306 21.864361 6.453908 1.000000
86.298965 -14.735850 8.707592 5.000000
9.938960 -6.628462 1.280933 9.000000
