VERSION .7
FIELDS x y z intensity
SIZE 4 4 4 4
TYPE F F F F
COUNT 1 1 1 1
WIDTH 1225
HEIGHT 1
VIEWPOINT 0 0 0 1 0 0 0
POINTS 1225
DATA ascii
35.957073 -1.173972 3.540180 29.000000
42.367912 -20.545347 4.326654 36.000000
28.461126 -33.489052 3.119495 6.000000
44.283749 17.873817 4.094033 3.000000
35.919182 -1.298264 3.524206 23.000000
42.316254 -20.703051 4.353608 39.000000
49.781082 50.888042 3.992498 27.000000
44.197609 17.650944 4.063327 10.000000
35.942787 -1.431045 3.539691 22.000000
42.332470 -20.903627 4.379751 57.000000
49.822033 50.557869 3.931185 13.000000
44.258690 17.487522 4.046290 10.000000
36.017727 -1.559972 3.541233 16.000000
42.227463 -21.044636 4.393450 50.000000
48.238560 -58.021160 5.501329 23.000000
49.361744 49.724922 3.831397 1.000000
46.204594 18.070181 4.200956 9.000000
36.000591 -1.691448 3.552836 10.000000
42.191719 -21.210999 4.422349 50.000000
49.222198 -59.647640 5.706251 9.000000
42.144772 -21.381264 4.425612 58.000000
44.146786 16.893343 3.969258 25.000000
49.482281 -2.679865 4.885088 17.000000
42.165272 -21.586348 4.469406 10.000000
44.131584 16.711153 3.954328 10.000000
49.386826 -2.856275 4.885383 17.000000
18.872183 -9.744832 2.015215 7.000000
32.499023 -40.262100 3.917738 26.000000
44.777103 16.768202 3.989828 10.000000
49.614418 -3.051931 4.908970 17.000000
18.773916 -9.781413 2.015993 9.000000
51.126396 -63.816174 6.263184 4.000000
55.161102 53.585659 3.949599 20.000000
18.741411 -9.851981 2.027553 9.000000
54.773197 52.820011 3.854676 10.000000
45.004368 16.478167 3.965518 10.000000
18.675493 -9.900688 2.031595 9.000000
31.814934 -40.299152 4.004799 23.000000
54.439331 52.132538 3.778784 13.000000
43.512081 15.759745 3.812891 10.000000
31.456230 -40.146473 4.013968 10.000000
54.212551 51.535774 3.684469 18.000000
43.708107 15.649768 3.792388 10.000000
54.370243 51.307636 3.630066 28.000000
44.475182 15.740753 3.845623 13.000000
18.867018 -10.265283 2.087096 6.000000
32.158070 -41.652740 4.206149 9.000000
54.305080 50.906757 3.562339 17.000000
44.977982 15.742253 3.867580 10.000000
41.949974 -23.024069 4.666730 1.000000
31.942322 -41.688274 4.244014 17.000000
54.254784 50.451958 3.493886 20.000000
45.027233 15.574478 3.850140 10.000000
42.019592 -23.253506 4.708862 9.000000
31.182325 -40.991985 4.198216 28.000000
44.874325 15.337669 3.798910 27.000000
40.334408 -22.514431 4.537373 4.000000
53.520744 49.059914 3.322326 16.000000
44.765591 15.117491 3.776690 23.000000
40.415005 -22.754103 4.572136 3.000000
53.430004 48.651669 3.256108 27.000000
44.464748 14.843187 3.730448 18.000000
41.451466 -4.035137 4.112920 26.000000
34.802402 -46.793194 4.876472 19.000000
53.712982 48.550434 3.224500 9.000000
44.699966 14.739840 3.729091 10.000000
41.530457 -4.196541 4.122257 32.000000
37.173283 -21.280724 4.260267 8.000000
34.427444 -46.645096 4.888614 10.000000
45.503956 14.837831 3.766821 25.000000
41.327461 -4.329106 4.096332 24.000000
37.230591 -21.469107 4.282119 10.000000
30.550737 -41.681206 4.394071 14.000000
52.404652 46.641644 3.026221 8.000000
45.757702 14.717624 3.782906 10.000000
41.068279 -4.446939 4.086716 33.000000
37.262562 -21.687328 4.318575 17.000000
33.992054 -46.751724 4.955462 16.000000
52.541500 46.452106 2.988423 1.000000
46.177109 14.674857 3.779286 10.000000
40.735939 -4.562069 4.048057 23.000000
37.601334 -22.069393 4.390241 8.000000
33.850502 -46.917618 5.000552 16.000000
45.332275 14.223654 3.697508 11.000000
40.575722 -4.687595 4.040936 27.000000
37.565559 -22.225060 4.410486 21.000000
33.777294 -47.162231 5.054830 10.000000
51.685856 45.040806 2.813471 1.000000
45.242470 14.013538 3.669337 10.000000
40.505318 -4.829967 4.021282 28.000000
37.474640 -22.357105 4.417098 21.000000
33.610809 -47.295006 5.096640 1.000000
51.814278 44.819656 2.763593 1.000000
46.362644 14.174482 3.738925 16.000000
36.762939 -4.520435 3.657895 9.000000
36.759205 -22.104626 4.364529 8.000000
31.052420 -44.035923 4.780524 29.000000
51.384186 44.119415 2.696492 1.000000
46.456665 14.026094 3.716976 10.000000
36.628460 -4.633746 3.646101 54.000000
36.305950 -22.013657 4.342725 8.000000
30.377317 -43.399426 4.727843 4.000000
51.410072 43.815327 2.642174 10.000000
36.585934 -4.764670 3.650084 72.000000
36.197884 -22.121307 4.353972 8.000000
30.236040 -43.536385 4.767961 13.000000
51.583504 43.637760 2.583799 25.000000
48.535572 14.266387 3.848194 11.000000
36.549126 -4.896173 3.641679 52.000000
30.171951 -43.769413 4.828689 10.000000
51.770916 43.471760 2.549741 17.000000
36.521954 -5.022368 3.640696 50.000000
52.108746 14.912419 4.094388 14.000000
36.468185 -5.151234 3.643685 48.000000
35.526115 -22.242313 4.353624 8.000000
32.069031 -47.259083 5.268012 13.000000
51.510109 42.628014 2.416639 23.000000
52.702152 14.893338 4.108273 14.000000
36.430569 -5.269198 3.648140 39.000000
35.308502 -22.269388 4.343347 27.000000
33.220047 -49.324986 5.527212 12.000000
51.412132 42.230404 2.369883 21.000000
52.556332 14.624564 4.073148 14.000000
36.394676 -5.406755 3.653083 40.000000
35.078152 -22.312834 4.347523 28.000000
51.292866 41.818535 2.311045 21.000000
52.448143 14.387551 4.032014 14.000000
36.351280 -5.536559 3.637778 39.000000
35.232807 -22.593019 4.399080 19.000000
32.078396 -48.373402 5.466254 17.000000
51.089348 41.341820 2.260580 24.000000
52.347706 14.173514 4.001624 14.000000
36.312428 -5.653913 3.642223 43.000000
35.093746 -22.668427 4.405824 12.000000
51.051136 41.002178 2.195018 26.000000
61.136883 16.324411 4.658008 20.000000
36.293095 -5.780733 3.635809 50.000000
35.038769 -22.806644 4.416267 23.000000
31.380901 -48.083157 5.498320 31.000000
50.975323 40.634827 2.151169 24.000000
61.421314 16.136497 4.641275 11.000000
36.224773 -5.919051 3.637785 48.000000
34.538330 -22.678814 4.379217 30.000000
31.129608 -48.063847 5.524001 18.000000
50.983990 40.337021 2.099847 24.000000
61.532406 15.947741 4.645648 20.000000
36.179787 -6.034947 3.641721 38.000000
34.501675 -22.810190 4.412835 29.000000
51.215454 40.215816 2.046411 19.000000
61.520321 15.704205 4.606937 6.000000
36.154221 -6.160473 3.634826 45.000000
34.371696 -22.905741 4.414209 32.000000
51.284504 39.967045 2.009226 7.000000
60.786594 15.279816 4.514778 19.000000
36.082378 -6.284405 3.629895 39.000000
34.211185 -22.971634 4.425692 31.000000
40.646786 -64.272011 7.496616 2.000000
50.515945 39.085426 1.917968 23.000000
60.497368 14.982792 4.467518 19.000000
36.036354 -6.406075 3.621041 38.000000
34.207821 -23.151730 4.450788 16.000000
40.428642 -64.373878 7.547235 1.000000
50.477821 38.761002 1.855527 23.000000
60.903019 14.846557 4.460435 20.000000
36.062210 -6.547112 3.619566 40.000000
34.766865 -23.707457 4.541696 9.000000
40.091560 -64.409782 7.572634 1.000000
50.385780 38.397575 1.813760 23.000000
60.765297 14.577240 4.413521 19.000000
36.071594 -6.685474 3.629409 38.000000
34.838860 -23.944086 4.569999 8.000000
50.316139 38.053799 1.751124 23.000000
60.959827 14.387827 4.412805 19.000000
36.112225 -6.823476 3.629395 39.000000
36.097332 -25.004301 4.770331 8.000000
50.388283 37.818844 1.704782 23.000000
61.097000 14.183999 4.385938 20.000000
36.092476 -6.956849 3.623471 39.000000
39.516663 -65.019051 7.755345 12.000000
50.319057 37.479351 1.653947 23.000000
61.505795 14.041524 4.378367 17.000000
36.100292 -7.095683 3.633325 41.000000
39.149719 -64.899231 7.765624 1.000000
50.191940 37.099426 1.590784 22.000000
61.015701 13.705729 4.318113 19.000000
36.090561 -7.224708 3.628376 45.000000
36.303524 -25.723356 4.880647 8.000000
50.149933 36.811844 1.563846 22.000000
60.945950 13.455603 4.276824 19.000000
36.107098 -7.365762 3.639222 54.000000
35.694626 -25.488937 4.819062 26.000000
50.290718 36.605442 1.487601 20.000000
61.279797 13.293949 4.263817 19.000000
36.130436 -7.508563 3.624815 37.000000
35.551620 -25.574665 4.827250 25.000000
49.919056 36.055763 1.418921 22.000000
36.099758 -7.633738 3.617886 54.000000
35.482468 -25.722795 4.822888 22.000000
49.868923 35.768513 1.349818 22.000000
60.897930 12.744427 4.143368 14.000000
35.519535 -25.939293 4.855743 26.000000
49.779591 35.664974 1.250660 22.000000
35.435337 -25.877806 4.751235 22.000000
49.883781 36.017040 1.245843 22.000000
61.659664 13.128663 4.021493 20.000000
36.101414 -7.640671 3.481684 39.000000
35.494362 -25.721968 4.692302 20.000000
38.768848 -66.371521 7.902534 1.000000
50.038082 36.408195 1.274630 22.000000
61.727001 13.368406 4.006768 20.000000
36.106586 -7.503607 3.460027 35.000000
35.616589 -25.611971 4.649558 32.000000
38.849400 -65.953194 7.788631 1.000000
50.081680 36.721409 1.279161 22.000000
61.254314 13.501262 3.968279 19.000000
36.086723 -7.368167 3.423216 38.000000
35.802155 -25.556290 4.623294 35.000000
39.117237 -65.880928 7.701609 1.000000
50.165943 37.053139 1.306388 22.000000
61.209965 13.726923 3.957647 20.000000
36.100594 -7.233269 3.402550 43.000000
36.625278 -25.941742 4.677682 8.000000
50.262020 37.409599 1.334333 23.000000
61.203022 13.961164 3.960480 20.000000
36.099297 -7.095487 3.380527 45.000000
36.853195 -25.910469 4.655474 10.000000
39.496777 -65.422913 7.520068 1.000000
50.395935 37.797092 1.374556 23.000000
61.315014 14.212058 3.959884 20.000000
36.070644 -6.959170 3.369083 43.000000
39.723129 -65.281723 7.452404 1.000000
50.252689 37.978241 1.396434 23.000000
61.194012 14.398005 3.966147 20.000000
36.102531 -6.828171 3.350302 40.000000
34.352119 -23.777666 4.258443 9.000000
50.200256 38.228504 1.420898 23.000000
60.956173 14.600531 3.954499 19.000000
36.025047 -6.683351 3.321583 40.000000
34.405155 -23.637169 4.217961 14.000000
50.411949 38.682449 1.475278 23.000000
60.864441 14.792143 3.940733 19.000000
36.015575 -6.545140 3.312034 38.000000
34.584423 -23.574209 4.199801 20.000000
50.479012 39.028690 1.503702 23.000000
61.183716 15.118776 3.987221 15.000000
36.016510 -6.409032 3.290627 69.000000
34.581783 -23.396027 4.167457 23.000000
50.495644 39.323944 1.541807 11.000000
58.873463 14.755225 3.829199 14.000000
36.049034 -6.285081 3.285137 41.000000
34.624863 -23.240637 4.125604 15.000000
51.259140 40.221199 1.592367 14.000000
58.682934 14.936279 3.830952 18.000000
36.102982 -6.158226 3.268643 62.000000
34.508659 -22.979626 4.079776 20.000000
50.961494 40.290310 1.633079 24.000000
36.160255 -6.031690 3.265356 68.000000
34.698387 -22.931541 4.070730 16.000000
51.004601 40.629059 1.661998 24.000000
36.202435 -5.908914 3.247925 52.000000
34.822609 -22.830704 4.038778 10.000000
51.042000 40.965538 1.690959 24.000000
52.272461 13.928166 3.431885 6.000000
36.269791 -5.783512 3.232663 45.000000
50.995754 41.236633 1.728785 11.000000
52.332550 14.130205 3.429389 14.000000
36.299603 -5.658405 3.233540 52.000000
35.562717 -22.953762 4.045813 10.000000
53.296173 43.420849 1.860180 23.000000
52.580143 14.394164 3.467992 14.000000
36.355125 -5.530651 3.230191 54.000000
53.012405 43.498417 1.879519 25.000000
52.006958 14.461914 3.443447 14.000000
36.395412 -5.400372 3.225519 38.000000
52.351070 43.277802 1.897275 25.000000
52.040047 14.676812 3.449177 13.000000
36.445290 -5.277821 3.208858 40.000000
31.877657 -47.242779 4.875901 16.000000
52.099159 43.391979 1.929426 25.000000
52.556675 15.010839 3.496277 14.000000
36.457657 -5.156237 3.208424 39.000000
42.954453 -63.181831 6.482673 20.000000
51.808666 43.441826 1.959423 25.000000
52.666920 15.241364 3.507128 15.000000
36.512512 -5.027564 3.192164 38.000000
51.720589 43.722759 2.010036 25.000000
36.545204 -4.902142 3.187023 52.000000
36.556019 -22.489412 3.936229 10.000000
51.688545 44.021523 2.050629 17.000000
47.553963 14.158380 3.199886 25.000000
36.560204 -4.754830 3.180158 38.000000
36.580799 -22.329016 3.907853 19.000000
52.061031 44.653236 2.107523 21.000000
46.559772 14.030626 3.153147 10.000000
36.596634 -4.636209 3.169000 35.000000
36.817493 -22.288685 3.901664 8.000000
31.148024 -44.417953 4.412572 14.000000
52.289448 45.182842 2.159678 18.000000
46.381657 14.153745 3.144411 13.000000
36.678993 -4.503614 3.168114 15.000000
31.209276 -44.160103 4.350791 9.000000
52.361214 45.549007 2.193119 22.000000
45.628220 14.106842 3.105187 10.000000
45.718010 14.318393 3.131643 10.000000
40.691769 -4.693805 3.490043 25.000000
52.539333 46.417526 2.313434 23.000000
46.052990 14.600024 3.158060 10.000000
41.335690 -4.636540 3.536691 19.000000
34.140102 -47.232086 4.535470 5.000000
52.216179 46.441246 2.342603 19.000000
45.409588 14.579423 3.125942 25.000000
34.124054 -46.847267 4.469792 8.000000
52.189117 46.777317 2.386168 6.000000
45.359554 14.746965 3.142919 24.000000
41.241570 -4.320109 3.503966 33.000000
34.398132 -46.861656 4.432137 6.000000
41.092823 -4.159565 3.490073 10.000000
55.286503 -74.769997 7.024601 1.000000
44.485001 14.815438 3.106027 14.000000
41.296829 -4.027360 3.498829 10.000000
55.373287 -74.370201 6.939157 1.000000
44.600082 15.035587 3.126140 10.000000
35.909294 -3.369136 3.041310 8.000000
41.568130 -23.355574 4.087626 7.000000
45.045177 15.369729 3.161265 27.000000
41.839573 -23.335455 4.073401 1.000000
53.224388 49.441845 2.689173 20.000000
44.883751 15.498540 3.170550 10.000000
41.992088 -23.219143 4.054631 5.000000
31.781910 -41.734829 3.787876 8.000000
44.800064 15.644882 3.185116 22.000000
41.667458 -22.840630 3.998471 1.000000
32.009529 -41.715630 3.750634 14.000000
44.205154 15.619143 3.163308 10.000000
18.906670 -10.278306 1.799511 6.000000
32.345390 -41.819870 3.724776 3.000000
54.083382 51.359104 2.891301 27.000000
43.720135 15.628254 3.132679 11.000000
50.448654 -64.734192 5.724541 16.000000
54.205608 51.836220 2.959932 20.000000
44.983395 16.266005 3.260993 10.000000
50.596222 -64.435059 5.642612 13.000000
44.700386 16.340328 3.261283 19.000000
18.683899 -9.888440 1.730537 10.000000
32.002815 -40.464481 3.517071 1.000000
50.924675 49.418430 2.887316 16.000000
44.747807 16.543839 3.269145 29.000000
18.726477 -9.831620 1.716587 9.000000
50.684589 49.547443 2.933547 15.000000
44.316689 16.569332 3.258657 10.000000
18.762917 -9.763195 1.709204 9.000000
50.620594 49.831627 2.977149 3.000000
44.350838 16.758785 3.282078 12.000000
49.811474 -2.889557 4.119668 17.000000
18.855255 -9.727756 1.703331 8.000000
32.688019 -40.438446 3.417233 10.000000
50.056583 49.638973 3.003962 11.000000
43.571014 16.646866 3.237042 10.000000
51.089798 -2.775868 4.233514 9.000000
42.126545 -21.538691 3.790127 35.000000
48.584190 -59.676353 5.003270 22.000000
50.173210 50.120697 3.071567 7.000000
43.672035 16.869152 3.257329 10.000000
51.265331 -2.596990 4.229202 19.000000
42.145309 -21.353798 3.751554 55.000000
48.694580 -59.366199 4.924913 15.000000
49.441891 49.753525 3.087002 1.000000
46.302135 18.071070 3.475616 8.000000
51.215199 -2.397331 4.224275 18.000000
42.214790 -21.185692 3.733879 60.000000
49.319466 -59.638180 4.909612 10.000000
49.429569 50.107109 3.146912 18.000000
42.233013 -21.019802 3.704451 51.000000
49.347576 50.374496 3.189866 20.000000
43.947029 17.524197 3.341581 10.000000
70.948196 -2.824769 5.850101 25.000000
42.284100 -20.852211 3.685645 39.000000
49.265511 50.660831 3.245979 12.000000
43.719509 17.619465 3.345705 10.000000
70.102547 -2.533789 5.767242 28.000000
42.304619 -20.679062 3.656314 70.000000
48.779591 50.530392 3.275280 1.000000
69.819901 -2.255170 5.718686 28.000000
42.351006 -20.509764 3.620755 39.000000
28.539671 -33.522148 2.646444 10.000000
48.627022 50.743233 3.326676 7.000000
69.846924 -2.024204 5.720318 23.000000
42.418037 -20.350634 3.603565 73.000000
28.606106 -33.375317 2.619228 15.000000
22.297277 23.414448 1.553052 5.000000
70.262375 -1.778529 5.753770 22.000000
42.444923 -20.181576 3.583341 48.000000
28.739508 -33.283295 2.581747 13.000000
22.181780 23.481190 1.574164 92.000000
43.684948 18.336552 3.412667 10.000000
70.412636 -1.536409 5.765601 22.000000
42.466175 -20.001175 3.554202 65.000000
28.946163 -33.251839 2.557416 1.000000
43.138317 18.293362 3.399841 10.000000
70.597168 -1.281580 5.780287 3.000000
42.540325 -19.845919 3.537817 52.000000
43.711624 18.725796 3.467099 10.000000
42.605930 -19.695728 3.521057 91.000000
43.220547 18.703199 3.450088 14.000000
42.634167 -19.519447 3.492765 69.000000
49.762543 -55.970150 4.187171 1.000000
43.332096 18.931326 3.480842 10.000000
42.683823 -19.353260 3.474549 84.000000
49.862972 -55.690403 4.126892 1.000000
44.372139 19.561195 3.586599 20.000000
42.746475 -19.193096 3.457453 59.000000
47.575119 52.597034 3.741656 1.000000
42.767754 -19.041431 3.421460 67.000000
50.053017 -55.084755 3.978804 13.000000
47.350327 52.661755 3.785829 8.000000
42.942223 19.299002 3.506879 10.000000
42.893105 -18.909172 3.409470 50.000000
47.328098 53.026653 3.849330 1.000000
43.746372 19.853441 3.595331 10.000000
43.017513 -18.776011 3.405631 22.000000
43.670082 19.993725 3.611350 10.000000
43.038105 -18.606419 3.385646 23.000000
44.364132 20.508503 3.700674 10.000000
43.076084 -18.435740 3.350415 27.000000
44.376945 20.702740 3.724940 26.000000
43.126068 -18.270409 3.332639 27.000000
26.313419 -27.942657 1.917491 15.000000
48.950436 56.509930 4.271537 4.000000
44.197601 20.835514 3.734032 10.000000
78.636597 1.660933 6.411268 10.000000
43.129421 -18.085667 3.311346 98.000000
26.332054 -27.748198 1.884299 9.000000
48.594772 56.476692 4.309007 4.000000
54.333065 25.857367 4.629993 16.000000
43.193352 -17.935448 3.295021 40.000000
26.434481 -27.652441 1.857593 11.000000
54.137653 25.996532 4.642134 18.000000
78.522675 2.234484 6.403143 8.000000
43.232178 -17.766077 3.276597 106.000000
26.526155 -27.545504 1.830168 11.000000
48.443722 57.122875 4.436685 17.000000
54.318886 26.305574 4.686322 18.000000
77.050003 2.461778 6.283717 1.000000
43.279579 -17.600418 3.258890 85.000000
26.597376 -27.436779 1.802057 6.000000
47.872532 56.870602 4.442494 26.000000
54.416611 26.623100 4.735848 18.000000
77.084190 2.745721 6.300835 1.000000
43.309418 -17.436621 3.240158 78.000000
55.113514 -56.417786 3.664229 22.000000
77.496872 3.044860 6.335437 2.000000
43.420422 -17.296642 3.227305 29.000000
54.880272 -55.768639 3.580368 28.000000
53.199295 26.501009 4.698478 18.000000
43.452084 -17.124992 3.208591 29.000000
52.948929 26.618959 4.705768 17.000000
71.613953 3.327123 5.856300 8.000000
43.459824 -16.944279 3.188196 28.000000
48.181778 58.929562 4.789033 14.000000
52.951275 26.852097 4.745562 16.000000
71.500725 3.584538 5.860654 20.000000
43.524403 -16.794668 3.172252 30.000000
54.003910 -53.684391 3.324670 10.000000
47.916187 59.045033 4.837412 1.000000
60.015533 3.197800 4.898935 24.000000
43.558731 -16.624752 3.153943 30.000000
54.166824 -53.509064 3.271079 17.000000
47.838177 59.392479 4.904939 1.000000
60.190762 3.428418 4.935416 10.000000
54.403431 -53.350231 3.220245 1.000000
52.715054 27.430029 4.822948 17.000000
63.817986 3.869736 5.245197 6.000000
35.712620 -13.331093 2.551954 16.000000
52.554562 27.591763 4.848769 17.000000
63.580299 4.078125 5.226799 18.000000
35.670853 -13.173820 2.532335 42.000000
52.271030 27.687769 4.852727 17.000000
61.083984 4.142868 5.022797 15.000000
35.621311 -13.007357 2.512121 33.000000
74.363548 95.078354 8.144223 16.000000
61.102310 4.369149 5.036350 17.000000
35.580406 -12.844821 2.492637 34.000000
29.603207 38.136726 3.291260 1.000000
60.980728 4.595868 5.027746 1.000000
35.545967 -12.692314 2.473873 33.000000
53.064476 -50.145504 2.843033 1.000000
29.297432 38.029758 3.306411 7.000000
55.536121 30.191315 5.252524 20.000000
35.493851 -12.527217 2.460437 36.000000
52.740135 -49.508968 2.766268 12.000000
29.162743 38.129490 3.348303 3.000000
55.159836 30.236677 5.282164 22.000000
35.399403 -12.362024 2.437890 33.000000
52.480335 -48.904469 2.693070 1.000000
28.566029 37.634350 3.328755 1.000000
54.915413 30.364977 5.302469 26.000000
35.383503 -12.197334 2.420284 36.000000
51.806999 -47.906666 2.599728 19.000000
28.243093 37.493462 3.348284 6.000000
54.852600 30.580744 5.306679 26.000000
35.294418 -12.028951 2.398234 32.000000
51.775219 -47.559750 2.553344 17.000000
28.012081 37.458149 3.369200 5.000000
54.562393 30.681627 5.344468 19.000000
35.253151 -11.870846 2.392457 28.000000
27.412201 36.937489 3.353662 6.000000
54.271095 30.780176 5.337918 21.000000
59.313007 5.752988 4.930716 10.000000
35.198177 -11.708875 2.366296 29.000000
46.382774 -41.983631 2.184708 10.000000
27.290030 37.055901 3.387609 12.000000
53.965473 30.856306 5.362139 19.000000
59.306583 5.961403 4.942356 21.000000
35.171234 -11.570516 2.348915 35.000000
46.563477 -41.837734 2.142229 15.000000
27.214668 37.225010 3.434824 9.000000
53.715801 30.975342 5.381286 19.000000
59.120785 6.161687 4.928721 7.000000
35.078541 -11.390942 2.326861 31.000000
46.616653 -41.577728 2.104905 4.000000
27.070780 37.314484 3.466266 9.000000
53.414314 31.062916 5.395051 19.000000
35.034908 -11.234990 2.314772 31.000000
46.594242 -41.266613 2.053875 4.000000
27.054394 37.580925 3.522423 10.000000
53.199993 31.187292 5.416903 19.000000
57.489632 6.407858 4.806602 17.000000
34.990990 -11.079634 2.296309 39.000000
26.925699 37.651054 3.561681 13.000000
52.852169 31.244236 5.414708 19.000000
34.960861 -10.942671 2.291939 34.000000
26.878027 37.877029 3.614488 13.000000
52.555183 31.329176 5.428297 22.000000
58.399326 6.943024 4.907455 10.000000
34.915295 -10.788058 2.279941 36.000000
26.800694 38.062881 3.655523 14.000000
52.289375 31.418627 5.444331 21.000000
52.294880 6.402475 4.414853 8.000000
34.867580 -10.640129 2.261611 31.000000
26.631563 38.104542 3.691396 12.000000
51.966984 31.484722 5.454811 22.000000
52.119343 6.556481 4.411077 9.000000
34.849384 -10.495108 2.251544 36.000000
26.536066 38.265839 3.722111 13.000000
51.726818 31.586576 5.473135 21.000000
52.461380 6.794923 4.432806 20.000000
34.787907 -10.337678 2.232393 38.000000
26.337940 38.264687 3.761994 14.000000
51.425106 31.661686 5.495960 18.000000
52.045635 6.925880 4.418149 19.000000
34.763676 -10.191961 2.222080 34.000000
26.111715 38.235321 3.782211 7.000000
51.141277 31.746019 5.509804 18.000000
52.685543 7.207654 4.484030 10.000000
34.708698 -10.044407 2.203651 33.000000
18.310623 27.024355 2.700988 8.000000
50.853073 31.788868 5.521152 26.000000
51.330814 7.214076 4.380063 19.000000
34.620506 -9.881512 2.195737 36.000000
18.240412 27.124142 2.721814 8.000000
50.558376 31.887621 5.534574 30.000000
51.218151 7.398899 4.381938 8.000000
34.612217 -9.729055 2.186419 33.000000
50.351868 32.003597 5.555672 21.000000
34.568073 -9.593072 2.169040 35.000000
48.748627 -39.800934 1.669937 1.000000
17.700790 26.753122 2.733202 153.000000
49.875492 31.958069 5.547283 17.000000
51.462074 7.810471 4.434927 8.000000
34.475037 -9.424835 2.154655 22.000000
48.758289 -39.497776 1.621224 7.000000
17.555960 26.726395 2.752618 222.000000
49.617584 32.049942 5.562828 17.000000
51.297283 7.959576 4.432101 8.000000
34.434177 -9.291055 2.143917 32.000000
48.500217 -39.023056 1.575716 5.000000
17.388844 26.684612 2.764134 214.000000
49.035717 31.917221 5.540957 17.000000
42.794662 6.800980 3.707219 27.000000
34.454254 -9.161129 2.130572 32.000000
48.581272 -38.795803 1.530288 2.000000
17.215836 26.621819 2.779265 229.000000
48.828579 32.037796 5.561637 22.000000
42.822895 6.966479 3.719480 14.000000
17.106339 26.666330 2.799637 71.000000
48.737289 32.221821 5.615469 17.000000
42.827164 7.120713 3.729620 8.000000
34.311481 -8.860777 2.111561 31.000000
48.201427 -37.917164 1.455977 7.000000
49.107582 32.725925 5.723895 17.000000
42.921623 7.298182 3.763116 9.000000
34.261143 -8.713953 2.112675 35.000000
47.977989 -37.457550 1.423813 1.000000
49.294632 33.112133 5.791191 18.000000
42.933193 7.462160 3.774165 12.000000
47.787579 -37.027782 1.382454 8.000000
16.601124 26.505547 2.851775 184.000000
49.485310 33.491478 5.858877 18.000000
42.936314 7.617200 3.776754 12.000000
47.840511 -36.788975 1.337922 3.000000
16.452255 26.472830 2.864001 216.000000
49.573437 33.816704 5.915670 18.000000
42.936867 7.779729 3.786959 9.000000
34.757431 -8.440822 2.112462 2.000000
47.595699 -36.337036 1.296151 1.000000
16.270201 26.395195 2.876420 208.000000
50.092213 34.427425 6.024018 16.000000
42.903900 7.928534 3.794141 29.000000
34.924419 -8.345940 2.114449 19.000000
47.402546 -35.915337 1.245760 18.000000
16.112045 26.354378 2.898146 215.000000
49.873116 34.546665 6.044936 18.000000
42.960697 8.101978 3.824830 34.000000
35.105400 -8.253292 2.123561 24.000000
47.602135 -35.792690 1.226751 34.000000
15.946354 26.289122 2.911902 209.000000
49.872349 34.817318 6.113880 19.000000
42.969193 8.266785 3.835953 24.000000
35.340027 -8.171883 2.129575 30.000000
47.813641 -35.678150 1.197573 32.000000
15.779565 26.230486 2.920545 213.000000
50.325687 35.395737 6.217107 11.000000
42.933865 8.415508 3.850789 25.000000
35.559921 -8.085543 2.134639 34.000000
48.097248 -35.616077 1.170050 35.000000
15.627666 26.184473 2.941557 214.000000
50.087444 35.503273 6.236184 22.000000
42.998432 8.591934 3.882516 33.000000
35.846462 -8.019203 2.143713 33.000000
48.352993 -35.531803 1.131189 37.000000
15.464374 26.128008 2.955571 209.000000
50.125614 35.793869 6.299902 10.000000
62.296772 12.685745 5.640391 24.000000
35.998219 -7.914721 2.138130 42.000000
48.592117 -35.433983 1.123237 36.000000
15.301705 26.070700 2.969357 210.000000
50.560307 36.358036 6.413589 16.000000
62.260906 12.904946 5.652372 24.000000
36.007103 -7.778434 2.143401 37.000000
48.831635 -35.335224 1.083678 36.000000
15.153956 26.026655 2.990144 215.000000
50.371632 36.503189 6.439502 20.000000
61.508610 12.984323 5.621535 26.000000
36.000828 -7.639079 2.147791 35.000000
49.091068 -35.249535 1.065459 33.000000
14.995226 25.972492 2.998732 213.000000
50.424225 36.837421 6.508327 20.000000
61.237968 13.150643 5.611981 26.000000
36.003208 -7.508348 2.139916 39.000000
49.295681 -35.136311 1.035525 32.000000
14.872668 25.948135 3.016873 126.000000
50.489460 37.142490 6.587906 31.000000
61.159016 13.346004 5.619783 26.000000
36.011292 -7.372408 2.132339 39.000000
49.579670 -35.065403 1.006978 32.000000
22.440063 39.517712 4.632115 10.000000
50.579506 37.481537 6.661126 20.000000
61.233196 13.597500 5.664251 20.000000
36.003448 -7.233415 2.136721 45.000000
49.863647 -34.992775 0.988864 68.000000
22.280478 39.573772 4.677141 10.000000
50.613335 37.794769 6.728376 20.000000
61.333035 13.844495 5.711114 25.000000
36.019920 -7.099476 2.136140 68.000000
50.065697 -34.861401 0.969030 29.000000
22.117983 39.607929 4.720040 11.000000
50.694901 38.132034 6.812863 22.000000
61.452686 14.108413 5.771416 24.000000
35.980412 -6.961304 2.138761 40.000000
50.324890 -34.768696 0.960895 29.000000
21.873247 39.476631 4.743502 9.000000
50.529278 38.298237 6.876593 23.000000
60.752747 14.182325 5.743464 26.000000
36.015121 -6.831172 2.145741 57.000000
50.646072 -34.717052 0.943153 25.000000
21.737574 39.573215 4.801280 8.000000
50.616833 38.657516 6.963984 15.000000
60.751263 14.405780 5.802995 20.000000
36.014275 -6.694358 2.163461 38.000000
50.872189 -34.598667 0.944996 25.000000
21.748329 39.592796 4.827577 8.000000
50.653481 38.685505 7.047837 20.000000
60.725941 14.399776 5.866502 17.000000
36.005951 -6.699312 2.201519 34.000000
50.911060 -34.638103 0.988830 28.000000
21.914442 39.583565 4.811326 8.000000
50.558270 38.320213 7.003792 23.000000
61.109802 14.254430 5.931647 26.000000
35.999249 -6.834671 2.228302 38.000000
50.617962 -34.710770 1.049892 37.000000
22.107430 39.605270 4.791293 8.000000
50.733387 38.174850 6.987117 24.000000
61.586124 14.139048 5.973054 22.000000
36.002201 -6.972039 2.249324 37.000000
50.308674 -34.770466 1.099497 36.000000
22.266682 39.549267 4.754313 8.000000
50.597115 37.782658 6.915768 20.000000
61.211243 13.817002 5.920695 21.000000
35.995605 -7.107738 2.256952 38.000000
50.069664 -34.877136 1.129020 32.000000
22.430374 39.516708 4.735732 7.000000
50.542957 37.468124 6.868223 20.000000
61.202148 13.579396 5.926000 18.000000
36.023228 -7.243931 2.279568 39.000000
49.789284 -34.953564 1.178686 37.000000
14.906995 26.039618 3.105974 39.000000
50.480721 37.136059 6.830155 20.000000
61.279369 13.372268 5.917877 22.000000
36.025379 -7.381845 2.287844 37.000000
49.525661 -35.040173 1.207255 37.000000
14.971800 25.942373 3.074173 210.000000
50.468403 36.856190 6.777932 20.000000
61.122536 13.103537 5.909061 26.000000
36.026215 -7.519707 2.308977 39.000000
49.334972 -35.177303 1.258640 36.000000
15.125137 25.987589 3.070171 202.000000
50.423931 36.541092 6.731935 19.000000
61.147808 12.874719 5.884896 17.000000
36.027306 -7.657840 2.317284 36.000000
49.095558 -35.278736 1.287491 36.000000
15.295146 26.069944 3.059540 207.000000
50.586319 36.390133 6.703607 19.000000
61.917690 12.811267 5.965783 10.000000
36.012432 -7.792743 2.337519 38.000000
48.847584 -35.372746 1.337035 39.000000
15.439538 26.096437 3.053231 207.000000
50.126438 35.781246 6.603495 11.000000
62.331131 12.658755 5.989908 11.000000
36.007599 -7.929962 2.345537 37.000000
48.589973 -35.445408 1.364870 34.000000
15.593056 26.147217 3.038688 205.000000
50.140263 35.527565 6.556394 26.000000
43.015869 8.571999 4.122976 18.000000
35.862038 -8.029260 2.350747 36.000000
48.366516 -35.554737 1.393692 36.000000
15.769361 26.223886 3.032720 207.000000
50.299545 35.364227 6.549376 11.000000
43.010624 8.414964 4.127350 34.000000
35.631695 -8.114944 2.356795 31.000000
48.094303 -35.626900 1.441862 33.000000
15.918641 26.264105 3.022129 207.000000
49.897419 34.808922 6.448146 19.000000
42.970562 8.259272 4.113150 39.000000
35.343681 -8.185725 2.346072 36.000000
47.798557 -35.679886 1.468156 35.000000
16.080767 26.313532 3.012842 206.000000
49.925713 34.595993 6.427005 28.000000
42.936237 8.089605 4.114692 36.000000
35.079121 -8.260037 2.349454 32.000000
47.598515 -35.802971 1.518042 33.000000
16.254801 26.390829 3.000866 208.000000
49.994102 34.347149 6.375191 13.000000
42.899155 7.912172 4.100515 21.000000
34.829861 -8.336197 2.341068 29.000000
47.322136 -35.893433 1.555303 19.000000
16.412910 26.430096 2.990229 208.000000
49.611088 33.829704 6.279466 18.000000
42.960148 7.776204 4.096171 10.000000
34.596134 -8.408045 2.339798 30.000000
47.563671 -36.325729 1.598551 1.000000
16.579449 26.481213 2.980855 208.000000
49.523273 33.504570 6.221117 21.000000
42.882469 7.584490 4.093496 12.000000
34.381714 -8.502246 2.346210 29.000000
47.622261 -36.674076 1.657947 1.000000
16.741951 26.534386 2.971299 9.000000
49.228081 33.067432 6.138842 18.000000
42.916603 7.451560 4.086830 9.000000
34.188400 -8.574847 2.341125 35.000000
47.953915 -37.183464 1.705574 6.000000
49.169319 32.754677 6.105363 17.000000
42.849670 7.278254 4.085542 16.000000
34.252239 -8.724420 2.366260 36.000000
48.208614 -37.691807 1.773446 10.000000
17.129742 26.723331 2.961395 31.000000
48.760567 32.224983 6.008973 17.000000
42.857117 7.118007 4.076087 22.000000
34.272758 -8.863539 2.376113 36.000000
48.200436 -37.943626 1.809911 21.000000
17.213030 26.637865 2.925397 230.000000
48.783878 31.996288 5.967177 17.000000
42.815010 6.957527 4.046837 21.000000
34.357422 -9.013501 2.384149 26.000000
48.034317 -38.112495 1.830578 15.000000
17.355646 26.654005 2.917010 226.000000
49.099396 31.946470 5.960418 17.000000
42.784740 6.791748 4.056850 32.000000
34.424988 -9.166215 2.397398 37.000000
47.647366 -38.090885 1.863765 21.000000
17.525658 26.700569 2.901013 229.000000
49.654457 32.061478 6.003755 17.000000
51.335651 7.956353 4.855703 9.000000
34.466591 -9.312709 2.427696 30.000000
47.665722 -38.392761 1.923438 20.000000
17.706669 26.762007 2.897779 190.000000
49.909721 31.992292 5.990399 22.000000
34.494358 -9.456004 2.438348 38.000000
50.323158 31.997681 5.994363 25.000000
34.580887 -9.609631 2.453114 35.000000
18.175241 27.047611 2.891115 10.000000
50.551743 31.871109 5.996435 18.000000
51.073364 7.359784 4.814124 19.000000
34.606190 -9.753436 2.482648 34.000000
18.298876 27.027327 2.867051 91.000000
51.115292 31.990019 6.018776 4.000000
52.623383 7.386369 4.957642 18.000000
34.646534 -9.902020 2.494448 47.000000
18.483168 27.085155 2.857285 66.000000
51.460255 31.931585 6.012890 12.000000
52.167553 7.127516 4.902936 15.000000
34.695400 -10.053685 2.513273 40.000000
49.597977 -41.470345 2.246365 14.000000
18.637358 27.097254 2.836833 9.000000
51.441441 31.684128 5.966437 28.000000
51.837650 6.898203 4.860430 19.000000
34.729683 -10.201746 2.524796 34.000000
49.749813 -41.878395 2.293610 2.000000
26.516127 38.265602 3.982980 14.000000
51.786213 31.622845 5.960220 18.000000
52.278164 6.761916 4.890099 20.000000
34.783848 -10.349689 2.544075 36.000000
49.827461 -42.271717 2.350332 26.000000
26.678146 38.199589 3.945305 14.000000
52.288342 31.691898 5.984334 17.000000
52.075371 6.541717 4.868854 17.000000
34.812111 -10.497137 2.555316 33.000000
50.263588 -42.929157 2.412261 9.000000
26.700697 37.948994 3.904557 9.000000
52.353825 31.444916 5.945052 29.000000
58.180470 7.102437 5.447624 6.000000
34.902378 -10.677389 2.577871 34.000000
26.925150 37.971516 3.876096 6.000000
52.607113 31.372580 5.951802 19.000000
57.999397 6.864681 5.417996 9.000000
34.908360 -10.805943 2.600175 37.000000
26.906363 37.651783 3.820969 1.000000
53.182785 31.452211 5.971193 15.000000
34.955227 -10.954304 2.619350 35.000000
27.086151 37.625038 3.787096 1.000000
53.310143 31.251865 5.939319 19.000000
57.355217 6.372608 5.343266 13.000000
35.014225 -11.113894 2.633251 35.000000
27.137238 37.406090 3.750687 7.000000
53.422710 31.055325 5.906487 19.000000
35.081581 -11.276974 2.654336 48.000000
27.174469 37.197269 3.706393 9.000000
53.729820 30.995922 5.907195 19.000000
57.324955 5.964408 5.326292 10.000000
35.096035 -11.423713 2.671530 36.000000
27.206688 36.942734 3.651119 9.000000
53.920666 30.855667 5.905359 19.000000
58.951580 5.904934 5.485710 11.000000
35.154076 -11.578472 2.698491 30.000000
46.607426 -41.936066 2.583927 13.000000
27.330933 36.854858 3.611080 9.000000
54.262100 30.787594 5.886408 20.000000
59.141232 5.725908 5.480642 11.000000
35.206017 -11.738788 2.705762 58.000000
46.378231 -42.008984 2.611751 8.000000
27.959864 37.401936 3.650574 5.000000
54.514313 30.667114 5.890521 20.000000
59.737854 5.541713 5.544386 25.000000
35.232735 -11.891364 2.724196 35.000000
46.145100 -42.106735 2.650984 15.000000
28.181204 37.438488 3.630330 10.000000
54.858467 30.609119 5.882945 20.000000
59.789680 5.357124 5.547607 25.000000
35.325306 -12.067010 2.741306 40.000000
51.788754 -47.605518 3.034409 18.000000
28.568275 37.637310 3.619221 4.000000
54.885849 30.361139 5.840780 20.000000
59.846397 5.120124 5.540345 25.000000
35.361275 -12.217299 2.773650 32.000000
51.861183 -48.023987 3.110744 15.000000
28.906374 37.821648 3.612718 1.000000
55.198429 30.282894 5.840592 20.000000
35.437721 -12.389287 2.796366 34.000000
29.346939 38.121540 3.617348 10.000000
55.596027 30.236456 5.837477 20.000000
35.480461 -12.550354 2.816560 34.000000
52.806202 -49.605671 3.264661 1.000000
29.701544 38.290997 3.618218 3.000000
35.513569 -12.708706 2.829487 31.000000
52.770687 -49.937660 3.337292 1.000000
74.369263 95.119850 8.909096 27.000000
35.589954 -12.876360 2.852423 26.000000
74.851585 95.085243 8.844116 27.000000
52.304329 27.717096 5.397532 11.000000
35.643646 -13.043722 2.887188 39.000000
75.169312 94.772095 8.755660 31.000000
52.354328 27.498293 5.371441 13.000000
35.637680 -13.189850 2.890602 31.000000
75.703636 94.764442 8.672920 10.000000
52.615902 27.401777 5.357115 10.000000
60.587669 3.663246 5.588075 17.000000
35.721218 -13.362723 2.914534 8.000000
52.722065 27.211887 5.336855 10.000000
60.321716 3.435878 5.562406 18.000000
54.217258 -53.204800 3.755044 1.000000
52.633007 26.933672 5.287084 17.000000
71.730812 3.796915 6.613006 20.000000
54.101254 -53.518963 3.801802 14.000000
47.477894 58.110043 5.207792 1.000000
52.661942 26.705374 5.259348 17.000000
71.658470 3.554832 6.605213 17.000000
53.998196 -53.753712 3.859735 16.000000
48.295044 58.690853 5.208277 2.000000
52.842030 26.553665 5.236369 17.000000
71.577095 3.300372 6.583999 18.000000
43.668209 -17.060652 3.656809 9.000000
54.793705 -54.946934 3.971702 4.000000
53.270393 26.536425 5.248670 10.000000
77.120407 3.272755 7.092748 8.000000
43.716854 -17.246973 3.682158 9.000000
54.811295 -55.368969 4.042197 1.000000
47.717999 57.130852 4.996333 1.000000
77.171692 2.991615 7.096408 1.000000
43.712082 -17.448196 3.687625 9.000000
54.882469 -55.848808 4.117329 25.000000
48.205193 57.306381 4.973855 10.000000
78.470421 2.767673 7.214902 26.000000
43.654335 -17.602055 3.704446 9.000000
55.160011 -56.544300 4.208972 5.000000
48.262318 56.949257 4.905837 10.000000
54.080105 26.213247 5.226203 10.000000
78.565895 2.482759 7.208961 3.000000
43.523705 -17.735117 3.715360 9.000000
26.741919 -27.605162 2.074785 7.000000
54.259109 26.054853 5.202486 17.000000
76.961876 2.149740 7.061009 1.000000
43.526337 -17.922489 3.737702 9.000000
26.518433 -27.575987 2.092062 11.000000
48.826458 56.786037 4.803615 1.000000
78.805649 1.925969 7.229509 1.000000
43.471508 -18.077641 3.754928 9.000000
26.392723 -27.666702 2.117664 10.000000
49.198708 56.796543 4.793388 7.000000
78.916718 1.639290 7.239100 10.000000
43.494431 -18.274443 3.795815 9.000000
26.284668 -27.746714 2.143518 10.000000
43.731720 20.420321 4.120749 10.000000
43.418602 -18.412218 3.811075 9.000000
26.273582 -27.919876 2.177003 10.000000
46.867863 53.311024 4.403718 8.000000
43.708736 20.214790 4.086176 10.000000
43.288761 -18.562532 3.814462 9.000000
46.936596 53.014870 4.343142 16.000000
44.505020 20.394783 4.136726 20.000000
42.820026 -18.538754 3.795233 1.000000
46.957577 52.685513 4.291802 1.000000
43.787655 19.890612 4.063893 10.000000
42.970505 19.311710 3.939425 10.000000
42.874050 -18.918648 3.844570 40.000000
47.772205 52.814926 4.218487 1.000000
43.108387 19.202106 3.929619 11.000000
42.786213 -19.076498 3.859696 92.000000
49.991840 -55.094658 4.485027 16.000000
48.149342 52.859810 4.197902 1.000000
44.252281 19.526808 4.010654 10.000000
42.692986 -19.204903 3.889915 58.000000
49.960991 -55.428913 4.537941 1.000000
52.239304 56.929348 4.482139 1.000000
44.411591 19.402948 4.001587 21.000000
42.665363 -19.362846 3.893228 92.000000
52.656940 56.963955 4.432108 7.000000
43.436317 18.787573 3.890850 10.000000
42.580402 -19.521805 3.908751 90.000000
52.982883 56.916683 4.401946 8.000000
43.283005 18.542179 3.854748 14.000000
42.581402 -19.693411 3.939553 91.000000
49.595585 -56.235363 4.730538 10.000000
43.136272 18.292494 3.819219 10.000000
42.548321 -19.867737 3.959710 58.000000
49.288349 -56.301628 4.773335 1.000000
22.383678 23.694916 1.793849 3.000000
43.420849 18.225697 3.813655 10.000000
42.474968 -20.032495 3.976523 40.000000
29.022804 -33.386917 2.852996 2.000000
22.394176 23.549101 1.765667 4.000000
42.429546 -20.183342 3.995034 62.000000
28.690321 -33.249786 2.863062 9.000000
42.393814 -20.357220 4.023471 39.000000
28.550728 -33.334248 2.892077 9.000000
48.909981 50.665459 3.727604 23.000000
42.354408 -20.538797 4.043738 57.000000
28.423811 -33.433319 2.922385 8.000000
42.298222 -20.685081 4.061458 72.000000
49.370884 50.433491 3.636994 20.000000
43.968307 17.550472 3.750811 10.000000
71.184631 -2.834182 6.533592 7.000000
42.287212 -20.872099 4.092596 59.000000
49.434410 50.094521 3.577568 22.000000
71.329102 -3.101823 6.535286 18.000000
42.242424 -21.052092 4.096054 57.000000
49.385250 49.731236 3.525895 10.000000
46.368584 18.115658 3.909166 11.000000
42.178715 -21.195240 4.129875 39.000000
49.182175 -59.556778 5.360453 20.000000
50.063377 50.045898 3.511648 21.000000
43.619965 16.866539 3.656029 10.000000
42.134350 -21.366732 4.158098 24.000000
48.632343 -59.332554 5.378011 25.000000
50.114338 49.730957 3.428302 1.000000
43.824738 16.743807 3.634579 32.000000
51.170288 -2.780241 4.690785 18.000000
18.859158 -9.646565 1.864459 4.000000
48.799313 -59.983345 5.475004 12.000000
50.037827 49.292351 3.373822 9.000000
44.496090 16.831423 3.677255 23.000000
51.234013 -2.963107 4.706579 19.000000
18.929022 -9.769997 1.886134 8.000000
32.579918 -40.333504 3.698339 22.000000
44.544678 16.663433 3.659498 10.000000
49.627533 -3.052738 4.559998 8.000000
18.812992 -9.797598 1.885600 8.000000
51.046738 -63.671181 5.892652 1.000000
44.912346 16.622494 3.668098 23.000000
18.614668 -9.777063 1.880228 8.000000
50.764519 -63.796890 5.929939 1.000000
44.923717 16.421968 3.646820 10.000000
18.644133 -9.879893 1.894274 8.000000
54.278957 51.942646 3.398412 16.000000
44.468102 16.088451 3.588881 10.000000
41.600971 -22.240850 4.259880 7.000000
54.162846 51.452549 3.327052 20.000000
43.741226 15.653014 3.509476 10.000000
41.491749 -22.369038 4.264959 9.000000
50.393536 -64.756660 6.155303 24.000000
54.399574 51.299427 3.290794 28.000000
44.330612 15.680881 3.535622 10.000000
18.914951 -10.287085 1.955718 6.000000
32.204010 -41.682152 3.997525 1.000000
54.372139 50.916161 3.226260 10.000000
44.907455 15.682386 3.559882 10.000000
36.003773 -2.998010 3.313373 7.000000
41.812313 -22.939022 4.357042 4.000000
31.912807 -41.619656 4.017114 9.000000
45.041805 15.544320 3.540904 10.000000
35.942364 -3.125587 3.315104 9.000000
42.083561 -23.279314 4.410677 8.000000
53.356117 49.235607 3.030223 15.000000
44.959465 15.358006 3.513945 10.000000
35.941151 -3.251927 3.316018 7.000000
41.991585 -23.429846 4.435399 1.000000
53.390404 48.906151 2.971336 4.000000
44.718960 15.093050 3.474235 29.000000
35.865150 -3.364994 3.316358 10.000000
40.355404 -22.701998 4.279070 9.000000
44.438679 14.817245 3.439998 16.000000
41.280102 -4.025728 3.803803 10.000000
40.417850 -22.932550 4.310935 9.000000
55.272491 -74.261879 7.350734 1.000000
45.559517 15.005646 3.505647 10.000000
41.253773 -4.183131 3.810127 27.000000
39.752560 -22.748081 4.273029 10.000000
55.044250 -74.523964 7.421749 1.000000
52.041794 46.645271 2.733634 1.000000
45.453129 14.777387 3.459525 20.000000
41.352051 -4.346276 3.820650 34.000000
51.945423 46.216667 2.658889 1.000000
45.517628 14.614111 3.443560 24.000000
41.083527 -4.463099 3.804530 10.000000
34.096523 -46.861004 4.723857 9.000000
52.003483 45.927956 2.604720 1.000000
46.288933 14.692607 3.489687 10.000000
41.098190 -4.602637 3.807280 10.000000
33.931351 -46.995090 4.765543 9.000000
52.014690 45.599598 2.560624 1.000000
45.678501 14.314775 3.406099 10.000000
40.379364 -4.672052 3.735096 35.000000
33.753536 -47.111691 4.815711 1.000000
52.303425 45.514774 2.518138 11.000000
45.573997 14.098793 3.386062 10.000000
40.500404 -4.836550 3.747906 29.000000
52.194866 45.117027 2.445411 7.000000
46.349083 14.161491 3.422954 10.000000
36.649017 -4.506427 3.386435 19.000000
52.126255 44.709179 2.386133 13.000000
46.410797 13.994570 3.415197 28.000000
36.616848 -4.638770 3.391507 48.000000
36.583534 -22.173233 4.104039 8.000000
31.117666 -44.424129 4.621271 9.000000
51.510712 43.854553 2.315119 22.000000
47.726170 14.200583 3.473204 11.000000
36.574917 -4.769727 3.389220 66.000000
36.444614 -22.263351 4.119716 9.000000
51.760117 43.740692 2.271742 25.000000
36.537716 -4.894645 3.393824 46.000000
36.229572 -22.314739 4.127112 29.000000
51.741631 43.400993 2.204935 23.000000
36.504147 -5.026412 3.398880 44.000000
51.924541 43.261898 2.171179 25.000000
52.144337 14.902914 3.725708 14.000000
36.482620 -5.153273 3.385560 38.000000
36.011673 -22.537565 4.150497 4.000000
42.879593 -63.142799 6.704516 16.000000
52.288025 43.241051 2.132319 24.000000
51.978992 14.649799 3.691093 14.000000
36.413631 -5.279726 3.387407 39.000000
31.833063 -47.230011 5.053154 17.000000
52.687084 43.246872 2.082574 25.000000
52.201180 14.506108 3.693570 14.000000
36.369995 -5.409576 3.378697 39.000000
53.353325 43.436432 2.065943 21.000000
52.442879 14.366426 3.687853 14.000000
36.365074 -5.538659 3.386490 38.000000
35.577080 -22.805021 4.180737 10.000000
50.983772 41.226944 1.923070 20.000000
52.306740 14.133033 3.646288 14.000000
36.334106 -5.670280 3.391992 52.000000
35.484108 -22.920574 4.186634 24.000000
51.030716 40.971127 1.885140 24.000000
52.136433 13.882176 3.630845 5.000000
36.249165 -5.793198 3.386021 40.000000
35.567722 -23.159779 4.243892 8.000000
50.945812 40.567699 1.819095 18.000000
36.224392 -5.918989 3.379156 43.000000
34.799877 -22.841860 4.169572 8.000000
50.974949 40.315403 1.781296 24.000000
58.379848 15.087186 3.994408 15.000000
36.177319 -6.047516 3.383266 43.000000
34.552128 -22.852215 4.171330 10.000000
51.088192 40.101475 1.723387 10.000000
58.460274 14.879607 3.975003 9.000000
36.106415 -6.171782 3.372280 59.000000
34.504784 -23.003132 4.183076 21.000000
58.562260 14.688093 3.946679 18.000000
36.084068 -6.297678 3.378673 50.000000
34.510391 -23.181280 4.200870 24.000000
50.528709 39.067116 1.594414 23.000000
61.057709 15.076332 4.100079 7.000000
36.024349 -6.410427 3.368613 53.000000
34.608730 -23.431873 4.245375 17.000000
40.180374 -63.978561 7.181438 9.000000
50.420021 38.660686 1.552787 23.000000
60.915852 14.804637 4.053920 19.000000
36.036934 -6.562016 3.378673 64.000000
34.546047 -23.565716 4.262499 19.000000
50.370049 38.357803 1.492040 23.000000
61.093765 14.610940 4.018133 17.000000
36.055889 -6.682564 3.375947 41.000000
34.359886 -23.606066 4.263868 13.000000
50.260078 37.983826 1.429642 23.000000
61.103870 14.376796 4.004304 20.000000
36.070866 -6.822182 3.373207 39.000000
34.325069 -23.767805 4.285056 15.000000
50.439537 37.829796 1.397764 26.000000
61.143604 14.149837 3.970489 6.000000
36.079262 -6.960833 3.382823 46.000000
39.704151 -65.301857 7.480052 1.000000
50.310139 37.445412 1.335610 23.000000
61.271149 13.954205 3.964573 20.000000
36.089523 -7.093566 3.379612 40.000000
39.470684 -65.431305 7.532914 1.000000
50.194637 37.074333 1.274448 22.000000
61.260593 13.715818 3.927610 20.000000
36.098030 -7.232756 3.376389 50.000000
36.672577 -25.975243 4.652010 20.000000
39.151939 -65.444038 7.558130 1.000000
50.121056 36.736828 1.236601 22.000000
61.381348 13.506795 3.888105 9.000000
36.106010 -7.372105 3.373154 57.000000
35.782440 -25.542215 4.566450 31.000000
39.366798 -66.327606 7.712233 1.000000
49.961262 36.338963 1.164645 25.000000
61.822659 13.366531 3.879685 20.000000
36.109882 -7.504292 3.369452 34.000000
35.643959 -25.631655 4.567914 23.000000
39.106918 -66.443405 7.736160 1.000000
49.799000 35.942604 1.104171 22.000000
61.487537 13.058363 3.822590 20.000000
36.082710 -7.636712 3.363015 39.000000
35.387413 -25.644463 4.562471 30.000000
38.724026 -66.321358 7.760324 1.000000
49.748413 35.629505 1.036048 22.000000
61.464939 12.818306 3.763247 20.000000
36.109741 -7.780818 3.348669 49.000000
35.398739 -25.841606 4.567801 20.000000
38.376236 -66.255768 7.763929 3.000000
49.749676 35.630409 0.939928 22.000000
61.408375 12.806509 3.638932 17.000000
36.092171 -7.777033 3.269092 38.000000
35.497524 -25.913721 4.503023 23.000000
38.395924 -66.289757 7.673369 15.000000
49.890358 36.008541 0.945073 22.000000
61.228432 12.992168 3.598052 19.000000
36.092640 -7.645395 3.234252 40.000000
35.499378 -25.716152 4.444890 27.000000
38.645836 -66.160927 7.580262 1.000000
49.978539 36.338192 0.959927 22.000000
61.240173 13.229406 3.579626 16.000000
36.084152 -7.505515 3.198597 38.000000
35.706409 -25.676563 4.405285 35.000000
39.073540 -66.307236 7.519221 1.000000
50.070572 36.686394 0.985944 22.000000
61.313766 13.480706 3.575799 19.000000
36.093533 -7.369557 3.177579 52.000000
35.779091 -25.530401 4.363940 35.000000
50.156700 37.032787 1.012075 23.000000
61.144543 13.667425 3.568691 20.000000
36.086472 -7.236991 3.155301 55.000000
36.456257 -25.812466 4.395601 33.000000
39.443779 -65.879654 7.339458 4.000000
50.280910 37.410023 1.050164 23.000000
61.338036 13.946918 3.571929 20.000000
36.064415 -7.095169 3.144615 40.000000
36.716190 -25.804569 4.376516 9.000000
39.668861 -65.682037 7.266790 8.000000
50.375454 37.767994 1.055023 23.000000
61.502327 14.221545 3.551350 20.000000
36.052505 -6.962198 3.109164 38.000000
37.054489 -25.839956 4.365728 17.000000
50.252045 37.963978 1.099327 23.000000
61.421936 14.429007 3.571689 20.000000
36.029366 -6.820846 3.098545 64.000000
40.302219 -27.896173 4.702335 9.000000
39.727505 -64.753265 7.047413 1.000000
50.267387 38.265766 1.124783 23.000000
61.518555 14.689831 3.591488 14.000000
36.026321 -6.683588 3.076834 52.000000
40.398685 -27.744490 4.667168 9.000000
39.943031 -64.547218 6.961462 9.000000
50.454376 38.687031 1.165282 23.000000
61.833599 15.004824 3.601926 3.000000
36.025444 -6.553428 3.068352 40.000000
