VERSION .7
FIELDS x y z intensity
SIZE 4 4 4 4
TYPE F F F F
COUNT 1 1 1 1
WIDTH 1228
HEIGHT 1
VIEWPOINT 0 0 0 1 0 0 0
POINTS 1228
DATA ascii
8.802368 9.057998 -1.463630 27.000000
13.348284 5.344338 -2.161697 8.000000
14.592807 -0.596312 -2.300139 6.000000
17.296541 -20.789450 -2.508785 8.000000
8.862224 9.052964 -1.481502 33.000000
13.184473 5.220102 -2.134438 83.000000
14.570672 -0.651457 -2.297028 6.000000
11.441529 -5.744485 -1.774236 28.000000
17.453852 -21.128098 -2.513341 9.000000
8.932786 9.058391 -1.498993 19.000000
13.162843 5.150513 -2.135141 113.000000
14.612741 -0.712126 -2.301475 6.000000
11.491918 -5.822619 -1.778473 35.000000
17.386337 -21.219275 -2.486899 9.000000
9.022528 9.085738 -1.524584 9.000000
13.129179 5.081931 -2.139212 70.000000
14.638688 -0.769743 -2.311254 6.000000
11.523499 -5.894335 -1.777642 5.000000
17.524639 -21.541008 -2.483220 9.000000
9.097291 9.100468 -1.543499 8.000000
13.112603 5.025581 -2.141308 83.000000
14.627398 -0.817799 -2.302026 9.000000
11.542537 -5.957547 -1.774697 9.000000
17.645412 -21.836987 -2.485886 9.000000
9.167442 9.097310 -1.567489 9.000000
13.125780 4.972913 -2.150353 39.000000
14.633208 -0.874499 -2.308696 60.000000
11.411050 -5.942748 -1.755530 7.000000
17.660822 -22.012798 -2.474048 9.000000
9.273994 9.135828 -1.591500 16.000000
13.214007 4.945773 -2.169099 19.000000
14.555965 -0.923436 -2.297028 72.000000
11.438520 -6.010451 -1.753946 27.000000
17.842550 -22.407068 -2.475734 3.000000
9.351301 9.154274 -1.611415 9.000000
13.267051 4.915530 -2.177646 5.000000
14.513288 -0.976693 -2.288266 77.000000
11.194221 -5.934541 -1.710802 40.000000
15.124122 -19.129858 -2.082067 33.000000
9.447066 9.174047 -1.637893 10.000000
13.186601 4.828220 -2.173929 5.000000
14.553152 -1.032971 -2.300352 45.000000
11.125379 -5.950384 -1.694635 79.000000
15.079849 -19.218225 -2.059890 6.000000
9.551388 9.214008 -1.662435 10.000000
13.147743 4.759416 -2.169631 5.000000
14.574105 -1.090717 -2.301695 34.000000
11.129133 -6.007463 -1.694214 39.000000
18.455643 -23.690252 -2.505908 1.000000
13.142410 4.697902 -2.173105 5.000000
14.555438 -1.145538 -2.296813 72.000000
11.151344 -6.072338 -1.694204 5.000000
18.819792 -24.358751 -2.519926 10.000000
13.170908 4.656303 -2.187605 5.000000
14.610213 -1.203745 -2.306137 36.000000
11.416769 -6.271234 -1.728756 31.000000
19.214590 -25.031895 -2.561129 10.000000
13.066281 4.565508 -2.169908 5.000000
14.635411 -1.262417 -2.308235 65.000000
11.356260 -6.292287 -1.709240 98.000000
19.173187 -25.168406 -2.523426 10.000000
11.896919 11.140732 -2.111066 2.000000
13.044930 4.501919 -2.173347 5.000000
14.606487 -1.313873 -2.301795 55.000000
11.329314 -6.331740 -1.704058 6.000000
19.215826 -25.407877 -2.512720 3.000000
11.914530 11.075541 -2.121409 5.000000
13.088310 4.463273 -2.185256 5.000000
14.660350 -1.375485 -2.311098 67.000000
15.030018 -8.472436 -2.253089 6.000000
20.050449 -26.704691 -2.598847 2.000000
11.738585 10.839643 -2.097852 6.000000
13.028977 4.389799 -2.177568 5.000000
14.684305 -1.432046 -2.318325 9.000000
15.013158 -8.535594 -2.242975 6.000000
20.365377 -27.332205 -2.610742 5.000000
11.619491 10.651033 -2.086371 6.000000
13.044654 4.339378 -2.184766 5.000000
14.605386 -1.480986 -2.304121 6.000000
15.056257 -8.633272 -2.241807 5.000000
16.612696 -22.458967 -2.110281 17.000000
11.618054 10.575323 -2.099006 8.000000
13.012112 4.275648 -2.186481 5.000000
14.752551 -1.550556 -2.325565 6.000000
16.534733 -22.525785 -2.076520 7.000000
11.596545 10.478282 -2.102051 10.000000
12.994469 4.214638 -2.188117 6.000000
14.840352 -1.612178 -2.340279 6.000000
11.559460 10.368069 -2.104984 10.000000
12.966786 4.153196 -2.185753 5.000000
14.829258 -1.671230 -2.336900 6.000000
11.345650 -6.675099 -1.676958 136.000000
7.870039 7.007023 -1.437818 247.000000
12.976122 4.103808 -2.192086 5.000000
14.827232 -1.728683 -2.340279 6.000000
11.339176 -6.727358 -1.670281 121.000000
7.916615 6.996644 -1.454783 252.000000
12.783002 3.988806 -2.166451 9.000000
14.860437 -1.787785 -2.343862 6.000000
11.327713 -6.776812 -1.667559 6.000000
7.944973 6.970007 -1.464689 53.000000
12.735494 3.922816 -2.160722 20.000000
14.848156 -1.844172 -2.345700 6.000000
15.135445 -9.130283 -2.220472 9.000000
14.556287 -20.589045 -1.741091 5.000000
8.031373 6.996346 -1.489371 1.000000
12.781705 3.883379 -2.177982 98.000000
14.876665 -1.897828 -2.348504 6.000000
15.158633 -9.220218 -2.213091 7.000000
14.519754 -20.690210 -1.718756 4.000000
10.718829 9.268581 -1.994040 1.000000
12.729675 3.816664 -2.166718 98.000000
14.878786 -1.961471 -2.347431 6.000000
15.219110 -9.333591 -2.214243 6.000000
14.562695 -20.906221 -1.701198 5.000000
10.788702 9.260109 -2.015898 1.000000
12.704928 3.756136 -2.169531 55.000000
14.867710 -2.010193 -2.344040 6.000000
15.535757 -9.606320 -2.258946 6.000000
14.801849 -21.416494 -1.710912 2.000000
10.760942 9.168000 -2.017004 1.000000
12.679625 3.698175 -2.169983 55.000000
14.888833 -2.071294 -2.351295 6.000000
15.640752 -9.750668 -2.266330 6.000000
14.304626 -20.852320 -1.635249 1.000000
11.065219 9.357457 -2.080500 1.000000
12.673400 3.646011 -2.171344 67.000000
14.929708 -2.138106 -2.356390 6.000000
15.753651 -9.901414 -2.271451 6.000000
11.108858 9.324743 -2.100353 1.000000
12.628894 3.580760 -2.170761 36.000000
14.942110 -2.193137 -2.356841 7.000000
15.806639 -10.015725 -2.271111 6.000000
14.335864 -21.221819 -1.597795 2.000000
10.921073 9.099095 -2.071196 1.000000
12.641203 3.534245 -2.175343 40.000000
14.934379 -2.247949 -2.354205 6.000000
15.840951 -10.111243 -2.274190 6.000000
14.137712 -21.086802 -1.552770 1.000000
11.101067 9.180338 -2.116912 1.000000
12.625416 3.477619 -2.175009 33.000000
14.920754 -2.304522 -2.353435 8.000000
15.896956 -10.229188 -2.274209 6.000000
14.026057 -21.078972 -1.526402 1.000000
11.240257 9.226283 -2.149959 5.000000
12.574735 3.414123 -2.173457 31.000000
15.000449 -2.373154 -2.364646 33.000000
15.990680 -10.380502 -2.276684 8.000000
11.134507 9.071379 -2.136167 5.000000
12.634291 3.378258 -2.188531 33.000000
14.976189 -2.428296 -2.364987 32.000000
16.031630 -10.482815 -2.280669 9.000000
13.830081 -21.110445 -1.468433 1.000000
11.066255 8.948491 -2.129461 7.000000
12.703069 3.346810 -2.203020 7.000000
14.905046 -2.472860 -2.347065 31.000000
16.011343 -10.553527 -2.266300 8.000000
13.852648 -21.306774 -1.443115 3.000000
10.746064 8.624628 -2.078965 8.000000
12.652290 3.281530 -2.201395 5.000000
14.856472 -2.523454 -2.340925 39.000000
16.152111 -10.739566 -2.278579 7.000000
10.242592 8.159006 -1.987453 7.000000
12.673040 3.237385 -2.207622 5.000000
14.871865 -2.582185 -2.342128 40.000000
16.217422 -10.868918 -2.276127 8.000000
10.149194 8.026861 -1.977746 7.000000
12.665131 3.183611 -2.211131 5.000000
14.841981 -2.635742 -2.341692 32.000000
16.342493 -11.031453 -2.291827 9.000000
10.161634 7.976335 -1.985998 6.000000
12.575475 3.112115 -2.198125 5.000000
14.857331 -2.694678 -2.340259 80.000000
16.402159 -11.159454 -2.288370 8.000000
10.122616 7.885918 -1.988761 5.000000
12.628940 3.073934 -2.214727 5.000000
14.914487 -2.764237 -2.353627 111.000000
16.509283 -11.321079 -2.302009 9.000000
10.067998 7.784241 -1.983786 5.000000
12.624990 3.024001 -2.216739 5.000000
14.880787 -2.814444 -2.344508 59.000000
16.555145 -11.441964 -2.296443 8.000000
10.000756 7.673851 -1.978505 1.000000
12.553452 2.955946 -2.211437 5.000000
14.879673 -2.870760 -2.348683 103.000000
16.636408 -11.597087 -2.303399 9.000000
9.897774 7.537353 -1.963778 1.000000
12.481837 2.890839 -2.201544 5.000000
14.917825 -2.937578 -2.351033 39.000000
16.741495 -11.753029 -2.308869 10.000000
9.903713 7.484686 -1.975048 1.000000
12.539386 2.853482 -2.218989 5.000000
14.911400 -2.993126 -2.354452 16.000000
16.837200 -11.912580 -2.317137 9.000000
9.838578 7.378961 -1.969859 1.000000
12.471698 2.790040 -2.212078 5.000000
14.919161 -3.054324 -2.357512 6.000000
16.842960 -12.009532 -2.313005 8.000000
9.474435 -15.768108 -0.844991 3.000000
9.738611 7.253651 -1.958062 1.000000
12.461363 2.742088 -2.213121 5.000000
15.038608 -3.133512 -2.380846 7.000000
16.929605 -12.165155 -2.312593 9.000000
9.578359 -16.067846 -0.839628 1.000000
9.749841 7.201344 -1.969688 1.000000
12.451495 2.687559 -2.218597 5.000000
15.041220 -3.197110 -2.377776 6.000000
16.998589 -12.309448 -2.317040 9.000000
9.476887 -16.024540 -0.816097 4.000000
9.665121 7.089354 -1.956403 1.000000
12.426855 2.632344 -2.219243 5.000000
14.972013 -3.237063 -2.368607 7.000000
17.098867 -12.477854 -2.325709 8.000000
9.433959 -16.079792 -0.797669 2.000000
8.223264 5.981132 -1.672426 53.000000
12.362576 2.571419 -2.215151 5.000000
14.992270 -3.304495 -2.376635 8.000000
17.130075 -12.597106 -2.324951 7.000000
9.428199 -16.205772 -0.779252 4.000000
8.365593 6.042339 -1.708390 9.000000
12.313320 2.511888 -2.211364 1.000000
14.946893 -3.349245 -2.371280 7.000000
17.124704 -12.690125 -2.319226 9.000000
9.289501 -16.096376 -0.756182 1.000000
12.213959 2.445024 -2.205346 1.000000
14.890352 -3.393939 -2.369727 7.000000
9.285707 -16.220324 -0.744141 1.000000
12.142221 2.430663 -2.216921 1.000000
14.721159 -3.358078 -2.375290 8.000000
14.819921 -11.070588 -2.035698 30.000000
9.203083 -16.082504 -0.757180 5.000000
8.429814 6.090964 -1.742242 10.000000
12.080938 2.464483 -2.202924 1.000000
14.694580 -3.292707 -2.374331 8.000000
16.743280 -12.412003 -2.312042 8.000000
9.244247 -16.011505 -0.781363 4.000000
8.234842 5.991751 -1.700562 35.000000
12.037278 2.503757 -2.198915 2.000000
14.579934 -3.210942 -2.361901 6.000000
16.485865 -12.127800 -2.299275 8.000000
9.231095 -15.873353 -0.804929 6.000000
8.443157 6.193045 -1.742843 4.000000
12.042021 2.553021 -2.201555 1.000000
14.497193 -3.142351 -2.357413 7.000000
16.315901 -11.910851 -2.287319 9.000000
9.285943 -15.840174 -0.827362 7.000000
9.420724 6.963338 -1.943585 1.000000
12.022960 2.595063 -2.199795 1.000000
14.381975 -3.059607 -2.347275 9.000000
16.234110 -11.764494 -2.298438 9.000000
9.320255 -15.772255 -0.851143 3.000000
9.408363 7.007670 -1.935803 1.000000
12.018464 2.642431 -2.196380 1.000000
14.281532 -2.983567 -2.331693 52.000000
16.037561 -11.532648 -2.282078 9.000000
9.333744 -15.669936 -0.872897 4.000000
9.427101 7.075495 -1.936530 1.000000
12.022638 2.691785 -2.199015 1.000000
14.199393 -2.909552 -2.326820 80.000000
16.017128 -11.429126 -2.294077 9.000000
9.464867 -15.764644 -0.905743 1.000000
9.475436 7.168817 -1.945710 1.000000
12.007892 2.734739 -2.198137 1.000000
14.179730 -2.851410 -2.329638 40.000000
15.835809 -11.216528 -2.286520 9.000000
9.499205 7.246941 -1.943703 4.000000
12.006669 2.787413 -2.195591 1.000000
14.117617 -2.780003 -2.322735 119.000000
15.692700 -11.029014 -2.273582 9.000000
9.495497 7.294054 -1.941449 8.000000
12.058654 2.846101 -2.206990 1.000000
14.039361 -2.708637 -2.318375 82.000000
15.604492 -10.881796 -2.278581 6.000000
9.532492 7.378183 -1.943734 1.000000
12.005937 2.877938 -2.196944 1.000000
14.013924 -2.655559 -2.315262 48.000000
15.536821 -10.750183 -2.276312 6.000000
9.557328 7.453581 -1.943506 1.000000
12.038588 2.934691 -2.200503 1.000000
13.984800 -2.594454 -2.311336 51.000000
15.369870 -10.551575 -2.262677 6.000000
9.624453 7.562823 -1.951824 1.000000
12.014158 2.975429 -2.193559 1.000000
13.944866 -2.534212 -2.308263 38.000000
15.367731 -10.471369 -2.276731 6.000000
9.666087 7.655755 -1.957389 1.000000
12.016970 3.025144 -2.196177 1.000000
13.933869 -2.476982 -2.312459 35.000000
15.248133 -10.308244 -2.269705 6.000000
13.627002 -21.472719 -1.484199 8.000000
9.692804 7.734895 -1.961870 1.000000
11.981951 3.063071 -2.191814 1.000000
14.038479 -2.442533 -2.338533 20.000000
15.123120 -10.143169 -2.264909 6.000000
13.742139 -21.479721 -1.523882 30.000000
9.750674 7.839743 -1.965958 28.000000
12.004568 3.118008 -2.191428 1.000000
14.018168 -2.383580 -2.336157 7.000000
15.018438 -9.993347 -2.256521 6.000000
13.749070 -21.342560 -1.548339 25.000000
9.742397 7.892054 -1.958898 30.000000
11.998009 3.165531 -2.187967 1.000000
13.992339 -2.326454 -2.332958 7.000000
14.929113 -9.855156 -2.253514 6.000000
13.829877 -21.288008 -1.579355 36.000000
9.730038 7.941283 -1.951026 39.000000
11.982306 3.208408 -2.182769 1.000000
13.907039 -2.257431 -2.327377 6.000000
14.938255 -9.782769 -2.268465 6.000000
13.815425 -21.104141 -1.604640 5.000000
9.705732 7.980893 -1.943022 54.000000
11.984153 3.258268 -2.185369 1.000000
13.929434 -2.208698 -2.332283 8.000000
14.752246 -9.583881 -2.247350 6.000000
14.069243 -21.329027 -1.656809 1.000000
9.719579 8.052171 -1.940413 69.000000
12.053571 3.324634 -2.195735 23.000000
13.873234 -2.145211 -2.329029 7.000000
14.708274 -9.482470 -2.257328 6.000000
14.018204 -21.091106 -1.673192 6.000000
9.782367 8.164834 -1.947528 5.000000
11.984543 3.355165 -2.181013 37.000000
13.817196 -2.084721 -2.320829 6.000000
14.499315 -9.272699 -2.232244 6.000000
14.085769 -21.025188 -1.707540 7.000000
11.887976 3.375166 -2.159008 47.000000
13.805179 -2.028724 -2.319988 6.000000
14.494205 -9.194754 -2.238439 7.000000
14.035268 -20.792480 -1.719001 130.000000
10.644978 9.018020 -2.109944 4.000000
11.889127 3.424877 -2.161589 36.000000
13.723840 -1.965412 -2.310066 6.000000
14.442231 -9.087720 -2.240400 6.000000
14.117790 -20.758108 -1.751040 162.000000
10.827905 9.241369 -2.137655 5.000000
11.881946 3.470022 -2.158129 43.000000
13.754508 -1.915937 -2.321446 6.000000
14.326271 -8.941621 -2.235304 6.000000
14.194406 -20.714891 -1.786800 177.000000
10.870365 9.346689 -2.139995 5.000000
11.879064 3.518739 -2.153360 51.000000
13.673075 -1.853532 -2.309016 6.000000
14.269121 -8.833445 -2.233243 6.000000
14.276711 -20.679823 -1.818922 154.000000
10.830246 9.381454 -2.123515 5.000000
11.885679 3.568136 -2.152453 45.000000
13.660134 -1.798391 -2.308120 6.000000
14.262060 -8.756930 -2.238991 7.000000
14.391187 -20.683086 -1.850363 6.000000
10.863988 9.480599 -2.126644 7.000000
11.881316 3.616616 -2.154162 39.000000
13.582286 -1.737522 -2.301246 6.000000
14.569020 -20.798992 -1.900469 2.000000
7.902777 6.947648 -1.542575 255.000000
11.877835 3.665449 -2.149362 38.000000
13.579470 -1.684192 -2.297200 6.000000
11.319736 -6.836588 -1.792662 174.000000
7.904191 7.000419 -1.538438 247.000000
11.888549 3.716532 -2.149274 33.000000
13.603935 -1.636622 -2.307687 6.000000
11.339122 -6.791701 -1.803525 5.000000
7.887062 7.037000 -1.528812 23.000000
11.894053 3.768447 -2.146142 44.000000
13.560194 -1.583360 -2.301765 9.000000
14.204538 -8.444100 -2.269504 6.000000
14.805996 -20.665552 -1.991833 6.000000
11.903620 3.819543 -2.150380 37.000000
13.374971 -1.507335 -2.271695 59.000000
14.232342 -8.383490 -2.283239 6.000000
11.913369 3.873187 -2.148060 19.000000
13.351252 -1.452768 -2.266702 74.000000
14.167515 -8.275511 -2.279633 6.000000
11.107432 10.131820 -2.134337 7.000000
11.928248 3.926423 -2.146555 1.000000
13.400222 -1.408420 -2.276543 78.000000
14.192084 -8.220246 -2.290395 20.000000
11.035405 10.140469 -2.111616 10.000000
12.058743 4.020762 -2.168234 5.000000
13.365894 -1.352945 -2.272224 100.000000
11.331069 -6.507761 -1.834108 5.000000
16.604658 -22.480911 -2.327234 35.000000
10.999244 10.181846 -2.101153 17.000000
12.086313 4.079239 -2.173574 5.000000
13.344591 -1.306097 -2.275076 66.000000
11.404795 -6.494632 -1.856193 5.000000
17.122362 -23.030077 -2.424948 9.000000
11.035625 10.290887 -2.101869 9.000000
12.164926 4.157870 -2.183640 5.000000
13.304943 -1.250659 -2.269880 55.000000
11.559026 -6.531795 -1.884851 7.000000
16.989803 -22.677715 -2.429257 9.000000
11.030118 10.357970 -2.091543 9.000000
12.131689 4.196232 -2.175810 5.000000
13.270787 -1.191390 -2.263182 43.000000
16.876825 -22.347576 -2.435285 9.000000
11.062038 10.464508 -2.088606 7.000000
12.083276 4.231503 -2.167727 5.000000
13.244020 -1.144728 -2.265119 33.000000
16.957193 -22.307922 -2.471254 9.000000
11.139693 10.615603 -2.096920 6.000000
12.120586 4.294506 -2.165688 5.000000
13.243392 -1.088805 -2.266598 27.000000
16.708727 -21.798861 -2.451260 9.000000
11.113011 10.668171 -2.082815 6.000000
12.100835 4.337492 -2.160370 5.000000
13.212535 -1.042169 -2.260714 22.000000
11.273654 -6.146595 -1.864058 58.000000
16.433174 -21.285067 -2.428307 9.000000
11.146583 10.771652 -2.082018 4.000000
12.112966 4.394399 -2.158596 5.000000
13.220960 -0.991768 -2.263868 23.000000
11.123391 -6.016904 -1.842665 43.000000
16.355413 -21.039740 -2.434630 8.000000
11.096044 10.805514 -2.063803 6.000000
12.107098 4.442553 -2.153496 5.000000
13.229423 -0.943655 -2.264710 10.000000
11.128591 -5.962097 -1.850799 35.000000
16.464672 -21.013277 -2.476455 7.000000
11.004824 10.795549 -2.037754 6.000000
12.155736 4.513434 -2.158236 5.000000
13.321066 -0.898797 -2.282189 6.000000
11.245627 -5.971856 -1.873422 5.000000
15.108670 -19.144630 -2.283901 91.000000
10.896170 10.767613 -2.008609 5.000000
12.154023 4.563555 -2.153902 5.000000
13.319250 -0.844978 -2.283676 6.000000
11.550782 -6.079734 -1.929844 12.000000
15.341183 -19.293421 -2.338726 9.000000
10.868425 10.811666 -1.999207 2.000000
12.179070 4.623962 -2.158993 5.000000
13.258164 -0.794647 -2.272712 6.000000
11.538694 -6.024592 -1.936085 27.000000
15.993900 -19.985086 -2.460206 9.000000
12.157674 4.669328 -2.151357 6.000000
13.275087 -0.744517 -2.279884 6.000000
11.575501 -5.982239 -1.949663 27.000000
15.612717 -19.349051 -2.420264 9.000000
9.156496 9.239977 -1.668723 15.000000
12.164521 4.723193 -2.148599 5.000000
13.277328 -0.695835 -2.282204 6.000000
11.550364 -5.920799 -1.949060 13.000000
15.458513 -19.035269 -2.413002 8.000000
9.068393 9.224843 -1.645634 13.000000
12.188675 4.786509 -2.149054 7.000000
13.181683 -0.635468 -2.265286 6.000000
11.467015 -5.820065 -1.940218 220.000000
15.463163 -18.892294 -2.436810 8.000000
8.969893 9.191791 -1.620197 21.000000
12.277578 4.873435 -2.160762 32.000000
13.193167 -0.592176 -2.269283 6.000000
11.535637 -5.801821 -1.957439 8.000000
15.381915 -18.653122 -2.438790 8.000000
8.878185 9.158378 -1.597802 9.000000
12.251523 4.915148 -2.152236 80.000000
13.210115 -0.542120 -2.271824 6.000000
13.575382 -6.771395 -2.307859 10.000000
15.264144 -18.379223 -2.435207 8.000000
8.799141 9.140467 -1.575816 16.000000
12.136873 4.923339 -2.133054 39.000000
13.187477 -0.490477 -2.267590 6.000000
13.571155 -6.698443 -2.313162 6.000000
15.195436 -18.160652 -2.442843 8.000000
8.691289 9.094914 -1.549085 15.000000
12.160878 4.985060 -2.133406 79.000000
13.144860 -0.440653 -2.259969 6.000000
13.480505 -6.598197 -2.307374 5.000000
15.106462 -17.926798 -2.443279 8.000000
8.614418 9.080876 -1.530219 26.000000
12.165478 5.041594 -2.130517 110.000000
13.174824 -0.391020 -2.271951 6.000000
11.628812 -5.634112 -1.995779 5.000000
14.983747 -17.649487 -2.437463 8.000000
8.559937 9.086761 -1.512900 27.000000
12.170711 5.096111 -2.127601 36.000000
13.102282 -0.340807 -2.259211 6.000000
11.575228 -5.560832 -1.990292 5.000000
14.891845 -17.429947 -2.441916 8.000000
8.480360 9.068654 -1.489310 27.000000
12.180936 5.152946 -2.120836 8.000000
13.089503 -0.290185 -2.252093 6.000000
11.652585 -5.545521 -2.007005 5.000000
14.607212 -16.970465 -2.404791 8.000000
8.424475 9.075340 -1.472175 11.000000
12.198059 5.215499 -2.122538 7.000000
13.095406 -0.242299 -2.252941 6.000000
13.254479 -6.245563 -2.289241 6.000000
13.654859 -15.746933 -2.260569 26.000000
8.336571 9.043752 -1.449261 17.000000
12.343063 5.331093 -2.143936 6.000000
13.134867 -0.192581 -2.264307 6.000000
13.209052 -6.165096 -2.285296 9.000000
14.436680 -16.531595 -2.411442 8.000000
8.237168 9.001900 -1.426911 28.000000
12.378779 5.400439 -2.146313 6.000000
13.086239 -0.141612 -2.255814 6.000000
13.214306 -6.103068 -2.292361 9.000000
14.577168 -16.563669 -2.447655 6.000000
8.175064 9.000043 -1.408953 1.000000
12.347323 5.438097 -2.136895 6.000000
13.101418 -0.098327 -2.258362 6.000000
14.185467 -16.011215 -2.395635 8.000000
8.197814 9.088633 -1.405345 1.000000
12.358336 5.502286 -2.132926 7.000000
13.056976 -0.043299 -2.252997 6.000000
14.057111 -15.749661 -2.386581 8.000000
8.195250 9.153020 -1.397613 1.000000
12.411184 5.580411 -2.138261 7.000000
13.027877 0.000000 -2.245622 6.000000
13.998617 -15.585288 -2.390546 8.000000
8.208747 9.229498 -1.392026 1.000000
12.420619 5.634243 -2.135777 7.000000
13.067199 0.050175 -2.252417 6.000000
13.248624 -5.893127 -2.322551 10.000000
13.869343 -15.317229 -2.379874 9.000000
8.184019 9.266632 -1.380200 1.000000
12.500711 5.723273 -2.145597 10.000000
13.131014 0.093965 -2.263458 6.000000
13.248191 -5.832104 -2.321124 12.000000
13.757777 -15.093119 -2.373801 8.000000
8.124739 9.267752 -1.362857 1.000000
12.481007 5.769679 -2.135998 9.000000
13.022163 0.143192 -2.244773 145.000000
13.272141 -5.784668 -2.334551 9.000000
13.761675 -14.991946 -2.387032 8.000000
8.109590 9.315872 -1.352671 1.000000
12.512478 5.845303 -2.137977 9.000000
12.903239 0.193690 -2.224389 176.000000
13.246810 -5.715944 -2.334146 15.000000
13.688518 -14.792608 -2.385422 8.000000
7.930060 9.177344 -1.315475 1.000000
12.514665 5.902299 -2.132143 9.000000
12.917181 0.243512 -2.226937 82.000000
13.280775 -5.670211 -2.346623 9.000000
13.656556 -14.655116 -2.399289 8.000000
7.898870 9.206010 -1.302773 1.000000
12.586612 5.995418 -2.140834 9.000000
12.896447 0.292661 -2.223540 149.000000
13.254878 -5.601806 -2.346138 9.000000
13.562364 -14.447502 -2.394473 8.000000
7.856430 9.224748 -1.286369 1.000000
12.592624 6.055007 -2.135633 12.000000
12.900329 0.335554 -2.224389 78.000000
13.228663 -5.533669 -2.345601 9.000000
13.377231 -14.155919 -2.367283 8.000000
12.613507 6.116631 -2.135092 14.000000
12.894409 0.384950 -2.221288 90.000000
13.193968 -5.459725 -2.343392 7.000000
13.218575 -13.885723 -2.350560 10.000000
7.817564 9.306709 -1.264610 1.000000
12.663383 6.198247 -2.137295 8.000000
12.868287 0.431382 -2.217046 39.000000
13.194491 -5.403386 -2.347618 8.000000
13.158519 -13.726372 -2.354930 7.000000
7.486468 8.982349 -1.204245 36.000000
12.702542 6.277987 -2.140368 8.000000
12.886233 0.481525 -2.220440 105.000000
13.103338 -5.310061 -2.335526 7.000000
13.065713 -13.529942 -2.349432 7.000000
7.416379 8.964862 -1.183884 36.000000
12.720602 6.345031 -2.137166 6.000000
12.899446 0.531626 -2.220732 31.000000
13.140809 -5.266593 -2.346198 7.000000
12.992708 -13.356030 -2.344002 7.000000
7.360562 8.960896 -1.167692 34.000000
12.773678 6.430079 -2.139820 6.000000
12.881869 0.578204 -2.222690 39.000000
13.094689 -5.192487 -2.342130 8.000000
12.908809 -13.177441 -2.343450 7.000000
7.325294 8.984900 -1.155052 34.000000
12.812749 6.508717 -2.142654 6.000000
12.914782 0.629379 -2.224122 39.000000
13.081246 -5.129118 -2.343746 7.000000
12.788079 -12.958841 -2.332271 7.000000
7.294894 9.011659 -1.138864 37.000000
12.889057 6.612705 -2.149500 6.000000
12.907853 0.676472 -2.221019 39.000000
13.025249 -5.052161 -2.337899 7.000000
12.684676 -12.751267 -2.320013 7.000000
7.234406 8.997787 -1.123902 38.000000
12.893584 6.671983 -2.143768 6.000000
12.905161 0.726029 -2.221019 9.000000
12.987288 -4.982752 -2.335280 7.000000
12.614202 -12.601000 -2.318857 8.000000
7.194448 9.018785 -1.108839 35.000000
12.927375 6.749651 -2.143083 6.000000
12.956134 0.776544 -2.232598 6.000000
12.981366 -4.923382 -2.343258 8.000000
12.581127 -12.476167 -2.323226 7.000000
7.186738 9.070658 -1.102089 23.000000
12.960442 6.827485 -2.144864 6.000000
13.066945 0.833551 -2.247523 6.000000
12.998940 -4.875626 -2.345681 8.000000
12.480198 -12.285683 -2.314915 8.000000
7.162014 9.104565 -1.088885 14.000000
12.989078 6.903507 -2.143287 6.000000
13.044373 0.882415 -2.241858 6.000000
12.942456 -4.797834 -2.339581 8.000000
12.385160 -12.103064 -2.307497 7.000000
7.161625 9.176362 -1.077781 35.000000
13.039138 6.991525 -2.145215 6.000000
13.036134 0.929868 -2.241012 6.000000
12.894389 -4.726334 -2.332677 7.000000
12.365425 -11.999681 -2.311307 7.000000
7.146981 9.220476 -1.069905 5.000000
13.071325 7.070588 -2.144167 6.000000
13.077085 0.983271 -2.246329 6.000000
12.891940 -4.671907 -2.336508 8.000000
12.261266 -11.811650 -2.301883 9.000000
7.128998 9.267226 -1.059945 1.000000
13.136617 7.171242 -2.148713 6.000000
13.054132 1.029675 -2.240667 6.000000
12.801908 -4.583747 -2.324311 10.000000
12.177407 -11.645119 -2.296081 8.000000
7.170044 9.388212 -1.054286 1.000000
13.181258 7.258446 -2.146951 6.000000
12.976784 1.069166 -2.228017 6.000000
12.741949 -4.514664 -2.315551 13.000000
12.110769 -11.496709 -2.290401 9.000000
7.162076 9.445954 -1.043360 1.000000
13.194494 7.328887 -2.145405 6.000000
13.012056 1.124678 -2.232484 6.000000
12.740995 -4.454345 -2.319242 29.000000
12.100611 -11.403039 -2.298301 10.000000
7.051657 9.374875 -1.018069 10.000000
13.224994 7.409385 -2.143970 6.000000
13.037482 1.177327 -2.235254 6.000000
12.774714 -4.413656 -2.329706 40.000000
12.012019 -11.240649 -2.291568 9.000000
6.985103 9.357593 -1.001086 36.000000
13.233858 7.478212 -2.136307 8.000000
13.023050 1.226454 -2.233571 6.000000
12.799737 -4.367360 -2.338486 113.000000
11.924694 -11.077231 -2.281629 8.000000
6.959052 9.390901 -0.987661 38.000000
13.297998 7.578894 -2.140235 8.000000
13.043385 1.276617 -2.235492 6.000000
12.749526 -4.298122 -2.331256 125.000000
11.916136 -10.988194 -2.289580 9.000000
6.931435 9.418767 -0.975836 1.000000
13.348708 7.672748 -2.141950 8.000000
13.015491 1.319770 -2.224438 6.000000
12.708687 -4.230081 -2.328026 117.000000
11.867510 -10.863144 -2.284029 9.000000
6.937050 9.502615 -0.967284 1.000000
13.375106 7.759516 -2.137413 7.000000
13.069300 1.378251 -2.232203 6.000000
12.709295 -4.178604 -2.330127 48.000000
11.810012 -10.723698 -2.284545 10.000000
7.045266 9.714793 -0.973973 1.000000
13.410453 7.839576 -2.136154 8.000000
13.019423 1.423559 -2.226953 6.000000
12.691290 -4.118753 -2.331109 39.000000
11.719079 -10.570438 -2.274218 8.000000
7.196622 10.000420 -0.984808 1.000000
13.429854 7.917104 -2.132763 9.000000
13.030483 1.468512 -2.222602 6.000000
12.696145 -4.068954 -2.334041 37.000000
11.667783 -10.446869 -2.270771 8.000000
7.210991 10.101975 -0.976816 1.000000
13.471623 8.014774 -2.133342 9.000000
13.053982 1.526561 -2.225321 6.000000
12.677639 -4.009411 -2.334968 40.000000
11.641256 -10.339225 -2.274162 8.000000
7.110605 10.027816 -0.954528 1.000000
13.458996 8.067810 -2.124410 7.000000
12.999740 1.568537 -2.214689 6.000000
12.682070 -3.959739 -2.337876 23.000000
11.564329 -10.206095 -2.269359 8.000000
6.924232 9.837579 -0.917217 1.000000
13.562066 8.197311 -2.134142 6.000000
13.072463 1.623628 -2.228030 6.000000
12.653463 -3.902386 -2.330078 9.000000
11.494328 -10.066068 -2.258919 10.000000
6.957190 9.961778 -0.913616 1.000000
13.665022 8.328076 -2.138072 7.000000
13.042068 1.670728 -2.221566 6.000000
12.573638 -3.822560 -2.319629 8.000000
11.479388 -9.982399 -2.262689 8.000000
6.931438 9.999078 -0.902000 1.000000
13.664919 8.396854 -2.134310 6.000000
13.050688 1.725108 -2.219470 6.000000
12.605533 -3.779443 -2.332293 8.000000
11.382789 -9.825360 -2.255316 8.000000
6.916986 10.052998 -0.887550 6.000000
13.657010 8.461106 -2.120785 6.000000
13.005884 1.765399 -2.210529 6.000000
12.538653 -3.709358 -2.319742 8.000000
11.368716 -9.740727 -2.256127 9.000000
6.917256 10.132718 -0.877277 16.000000
13.756872 8.592910 -2.135408 10.000000
13.077843 1.824007 -2.221511 47.000000
12.565424 -3.664867 -2.331501 8.000000
11.331288 -9.636864 -2.254952 8.000000
6.924320 10.219493 -0.869700 17.000000
13.823664 8.705225 -2.133313 20.000000
13.007674 1.865166 -2.208434 103.000000
12.539667 -3.612277 -2.324486 7.000000
11.209867 -9.463016 -2.239590 9.000000
13.881139 8.812637 -2.132561 9.000000
12.962105 1.907143 -2.199518 99.000000
12.487608 -3.540700 -2.316741 9.000000
11.239186 -9.417434 -2.251632 9.000000
20.526138 30.754387 -2.507740 6.000000
13.908470 8.901679 -2.130037 8.000000
12.989956 1.962227 -2.198434 72.000000
12.489852 -3.491930 -2.321775 7.000000
11.218924 -9.330680 -2.253742 8.000000
20.530539 30.994747 -2.475854 9.000000
13.977636 9.018333 -2.127970 6.000000
13.002550 2.012901 -2.199439 53.000000
12.435960 -3.425434 -2.313942 8.000000
11.053696 -9.124931 -2.224063 10.000000
20.722588 31.535130 -2.466633 9.000000
14.020885 9.119192 -2.124795 6.000000
13.049061 2.071438 -2.203895 28.000000
12.461308 -3.385662 -2.321098 8.000000
11.027639 -9.035665 -2.229982 25.000000
20.823887 31.931597 -2.445174 9.000000
14.146245 9.274685 -2.136932 5.000000
13.041761 2.119313 -2.201589 53.000000
12.436766 -3.325443 -2.314022 8.000000
10.929181 -8.888240 -2.213546 16.000000
21.074268 32.563396 -2.447123 9.000000
14.221319 9.398615 -2.138350 6.000000
13.024176 2.167817 -2.197641 57.000000
12.377281 -3.258666 -2.305221 8.000000
10.917904 -8.812785 -2.217254 37.000000
21.183439 32.983932 -2.418207 10.000000
14.332538 9.547775 -2.148109 3.000000
13.032241 2.218279 -2.190875 16.000000
12.372951 -3.213690 -2.307024 7.000000
10.869206 -8.704762 -2.213017 38.000000
14.319904 9.615322 -2.133142 6.000000
13.067741 2.275986 -2.195918 74.000000
12.365351 -3.161083 -2.307928 8.000000
10.853142 -8.626795 -2.215700 18.000000
11.722415 18.535862 -1.299133 6.000000
14.411101 9.749715 -2.136369 6.000000
13.045117 2.321340 -2.191155 30.000000
12.248567 -3.081173 -2.283905 29.000000
10.794324 -8.515670 -2.207150 39.000000
11.689716 18.635002 -1.276102 3.000000
14.544931 9.918159 -2.145990 6.000000
13.075689 2.378613 -2.193042 28.000000
12.201694 -3.021874 -2.277617 52.000000
10.777306 -8.438343 -2.209586 45.000000
14.550619 10.000364 -2.139715 6.000000
13.126315 2.432819 -2.200481 6.000000
12.211660 -2.974624 -2.286392 58.000000
10.732589 -8.340061 -2.206309 34.000000
14.617417 10.125355 -2.139237 5.000000
13.224162 2.508295 -2.208975 6.000000
12.179427 -2.919526 -2.278338 51.000000
10.695127 -8.248258 -2.204477 29.000000
14.744875 10.293820 -2.144296 6.000000
13.200727 2.554008 -2.204199 6.000000
12.175409 -2.869171 -2.280020 60.000000
10.653229 -8.153852 -2.201687 65.000000
14.736999 10.368869 -2.132716 3.000000
13.235145 2.613428 -2.206770 6.000000
12.191128 -2.823510 -2.280917 46.000000
10.618959 -8.066072 -2.198041 39.000000
14.865813 10.533375 -2.143504 4.000000
13.250972 2.662239 -2.208447 6.000000
12.161475 -2.769717 -2.282452 64.000000
10.601044 -7.988460 -2.199867 39.000000
14.835460 10.597665 -2.122400 5.000000
13.270692 2.721668 -2.203827 6.000000
12.162421 -2.720852 -2.280652 33.000000
10.569465 -7.904092 -2.199123 76.000000
14.890731 10.719792 -2.119687 3.000000
13.300513 2.776199 -2.205507 6.000000
12.119085 -2.664554 -2.272918 38.000000
10.545647 -7.826179 -2.197609 38.000000
14.993260 10.877257 -2.126839 2.000000
13.353386 2.838350 -2.213540 6.000000
12.118835 -2.615757 -2.275444 36.000000
10.501247 -7.733704 -2.194136 59.000000
15.131243 11.062234 -2.135579 2.000000
13.401031 2.902302 -2.218357 6.000000
12.089526 -2.560888 -2.272537 39.000000
10.488480 -7.665168 -2.194911 43.000000
15.194644 11.190182 -2.126676 1.000000
13.406275 2.954920 -2.211169 6.000000
12.147366 -2.526656 -2.279414 41.000000
10.467062 -7.590819 -2.196199 40.000000
15.350533 11.392000 -2.137432 6.000000
13.410032 3.009787 -2.208757 6.000000
12.136925 -2.475904 -2.280125 30.000000
10.422865 -7.497866 -2.190093 51.000000
15.374138 11.497139 -2.126220 7.000000
13.462608 3.073459 -2.211840 6.000000
12.233136 -2.446642 -2.296418 20.000000
10.424962 -7.441545 -2.193991 46.000000
15.506684 11.680882 -2.126170 7.000000
13.423896 3.116430 -2.197475 6.000000
12.290670 -2.411334 -2.303283 1.000000
10.419058 -7.379835 -2.193923 39.000000
11.091410 19.756578 -0.902080 3.000000
15.469492 11.741983 -2.106378 7.000000
13.480603 3.184195 -2.198829 6.000000
12.246718 -2.353913 -2.293336 6.000000
10.397994 -7.305121 -2.190416 32.000000
10.991309 19.739376 -0.871892 6.000000
13.493597 3.239526 -2.197904 6.000000
12.211388 -2.298537 -2.289535 1.000000
10.402920 -7.251780 -2.197236 36.000000
13.559894 3.308053 -2.200675 6.000000
12.258809 -2.260972 -2.294607 5.000000
10.387966 -7.184925 -2.195314 27.000000
13.653306 3.330842 -2.200755 6.000000
12.333323 -2.274716 -2.297241 4.000000
10.459370 -7.231613 -2.200992 28.000000
10.956431 19.668663 -0.837371 6.000000
15.962631 12.204353 -2.119012 9.000000
13.725135 3.292580 -2.200185 6.000000
12.381222 -2.330505 -2.289562 8.000000
10.520526 -7.331035 -2.198761 24.000000
11.058765 19.690382 -0.867564 5.000000
15.950324 12.102567 -2.129144 9.000000
13.745977 3.244345 -2.206655 6.000000
12.440211 -2.391104 -2.299867 10.000000
10.579856 -7.430131 -2.205225 12.000000
15.850703 11.935689 -2.120500 8.000000
13.706145 3.179435 -2.193254 6.000000
12.491270 -2.448426 -2.299478 67.000000
10.603342 -7.504807 -2.197178 16.000000
15.853032 11.846642 -2.132457 6.000000
13.683245 3.121317 -2.192762 6.000000
12.419837 -2.483983 -2.283502 98.000000
10.677362 -7.616089 -2.208869 9.000000
15.855519 11.758183 -2.137437 6.000000
13.752224 3.081547 -2.206944 6.000000
12.435095 -2.536730 -2.283508 36.000000
10.686975 -7.682199 -2.204857 8.000000
15.732865 11.578091 -2.132416 7.000000
13.704786 3.018208 -2.202560 6.000000
12.475068 -2.592547 -2.285691 101.000000
10.728513 -7.771857 -2.205029 8.000000
15.790349 11.531415 -2.144824 6.000000
13.750447 2.972952 -2.205531 6.000000
12.518766 -2.651813 -2.290935 98.000000
10.769236 -7.861702 -2.207350 7.000000
15.646477 11.338650 -2.129863 6.000000
13.780578 2.926639 -2.208629 6.000000
12.548626 -2.706232 -2.291263 81.000000
10.881302 -8.004812 -2.221787 8.000000
15.664174 11.259997 -2.143411 6.000000
13.786123 2.872539 -2.212770 6.000000
12.553346 -2.757735 -2.289412 49.000000
10.920865 -8.104637 -2.222154 6.000000
15.586965 11.126285 -2.141322 6.000000
13.762307 2.814985 -2.209789 6.000000
12.587172 -2.813566 -2.292802 85.000000
11.104692 -8.298306 -2.255210 6.000000
15.488255 10.970355 -2.138995 5.000000
13.753161 2.760636 -2.206681 6.000000
12.601448 -2.867605 -2.290411 121.000000
11.119770 -8.373263 -2.247036 6.000000
15.360178 10.795313 -2.132421 5.000000
13.757679 2.706631 -2.213246 6.000000
12.643884 -2.928370 -2.295479 36.000000
11.118093 -8.436033 -2.240436 6.000000
15.378347 10.724094 -2.139417 3.000000
13.757807 2.654317 -2.211687 6.000000
12.676982 -2.985033 -2.298770 26.000000
11.186396 -8.552646 -2.250419 6.000000
15.330536 10.607451 -2.140528 6.000000
13.753340 2.598721 -2.209348 6.000000
12.705297 -3.043237 -2.296603 8.000000
11.270594 -8.682659 -2.255922 6.000000
15.219903 10.440805 -2.135532 6.000000
13.766487 2.548982 -2.217458 6.000000
12.867097 -3.131902 -2.323144 9.000000
11.315207 -8.789634 -2.259080 8.000000
11.672671 18.586206 -1.192483 5.000000
15.105436 10.288784 -2.127604 6.000000
13.702524 2.482760 -2.210587 9.000000
12.879667 -3.187396 -2.322832 7.000000
11.369256 -8.892226 -2.262838 12.000000
11.691530 18.472750 -1.206950 6.000000
15.117431 10.216041 -2.133688 5.000000
13.604939 2.413611 -2.190930 170.000000
12.949890 -3.255190 -2.332829 8.000000
11.401581 -8.991508 -2.258265 9.000000
15.045676 10.087420 -2.137559 5.000000
13.618596 2.362133 -2.194125 95.000000
12.985807 -3.317283 -2.336756 8.000000
11.391973 -9.045363 -2.254490 10.000000
14.998929 9.976589 -2.135272 6.000000
13.625599 2.316830 -2.198950 75.000000
13.008123 -3.373820 -2.335732 8.000000
11.453502 -9.162865 -2.254951 16.000000
15.025545 9.915049 -2.149806 6.000000
13.625062 2.258058 -2.199789 37.000000
13.038736 -3.435246 -2.338731 7.000000
11.529118 -9.292862 -2.263303 9.000000
14.888531 9.750206 -2.137923 5.000000
13.627222 2.212010 -2.201412 49.000000
13.059157 -3.494305 -2.342353 7.000000
11.588604 -9.411089 -2.268406 20.000000
20.739120 31.512331 -2.307329 1.000000
14.939564 9.705573 -2.152746 6.000000
13.675385 2.161075 -2.207711 30.000000
13.180979 -3.578722 -2.356720 8.000000
11.617288 -9.512026 -2.268074 9.000000
21.318979 32.124126 -2.412140 9.000000
14.876666 9.580009 -2.153793 6.000000
13.634035 2.103351 -2.202245 39.000000
13.173317 -3.628536 -2.352801 7.000000
11.687160 -9.641006 -2.272373 18.000000
14.823453 9.476349 -2.153993 5.000000
13.645797 2.056425 -2.205442 39.000000
13.183806 -3.685946 -2.352265 7.000000
11.733040 -9.744416 -2.271235 19.000000
14.735592 9.344278 -2.145509 4.000000
13.624251 1.997278 -2.203111 37.000000
13.242908 -3.754855 -2.355357 7.000000
11.851132 -9.923151 -2.285245 9.000000
14.738432 9.270513 -2.159472 5.000000
13.650308 1.952450 -2.208677 52.000000
13.275753 -3.819302 -2.363790 9.000000
11.936319 -10.062000 -2.299741 9.000000
6.988447 10.221670 -0.828943 1.000000
14.670637 9.152997 -2.150738 6.000000
13.646829 1.900938 -2.211905 12.000000
13.230124 -3.858735 -2.348266 23.000000
11.935433 -10.136317 -2.287170 10.000000
6.958338 10.101766 -0.838389 5.000000
14.520758 8.985718 -2.142084 6.000000
13.751484 1.861718 -2.230178 6.000000
13.329832 -3.943416 -2.361145 37.000000
12.020026 -10.284226 -2.296490 16.000000
6.940848 9.997738 -0.842532 1.000000
14.442712 8.864380 -2.134776 6.000000
13.783074 1.814576 -2.231718 6.000000
13.245249 -3.971246 -2.343759 65.000000
12.081225 -10.413524 -2.301249 8.000000
6.937947 9.919464 -0.852833 17.000000
14.393322 8.761602 -2.134667 6.000000
13.764297 1.758364 -2.235022 6.000000
13.240119 -4.025180 -2.340599 37.000000
12.138274 -10.547921 -2.302974 11.000000
6.920304 9.821069 -0.859090 16.000000
14.419814 8.705454 -2.145798 6.000000
13.765362 1.707248 -2.236647 6.000000
13.282989 -4.091457 -2.343328 72.000000
12.177390 -10.656746 -2.303031 9.000000
6.919291 9.747192 -0.869415 21.000000
14.420549 8.633940 -2.153110 6.000000
13.870227 1.666202 -2.250129 6.000000
13.320515 -4.159082 -2.342731 109.000000
12.196057 -10.752272 -2.293736 9.000000
6.928235 9.684396 -0.880699 22.000000
14.275655 8.476264 -2.141551 6.000000
13.851335 1.612454 -2.248587 6.000000
13.352197 -4.222745 -2.351009 61.000000
12.265221 -10.885745 -2.301844 18.000000
6.920986 9.596184 -0.889623 17.000000
14.214251 8.362812 -2.138992 6.000000
13.779093 1.545573 -2.238271 6.000000
13.374625 -4.286399 -2.350278 76.000000
12.304707 -11.009408 -2.296964 10.000000
6.912471 9.521188 -0.897071 14.000000
14.172108 8.274877 -2.140160 6.000000
13.788659 1.500363 -2.241489 6.000000
13.369764 -4.338941 -2.342116 23.000000
12.405557 -11.181780 -2.308570 8.000000
6.923214 9.462838 -0.906309 32.000000
14.133826 8.179915 -2.141216 8.000000
13.799228 1.447922 -2.242287 6.000000
13.401024 -4.406033 -2.342948 21.000000
12.498298 -11.348674 -2.315540 10.000000
6.934841 9.409627 -0.917893 36.000000
14.138032 8.110041 -2.148695 8.000000
13.813092 1.398212 -2.251152 6.000000
13.422226 -4.467582 -2.349502 10.000000
12.542183 -11.472674 -2.316334 9.000000
6.953847 9.363362 -0.928150 40.000000
14.091710 8.018224 -2.148906 8.000000
13.749976 1.338506 -2.237537 6.000000
13.472355 -4.541803 -2.348564 6.000000
12.676861 -11.673314 -2.333028 10.000000
7.000829 9.358201 -0.942372 20.000000
14.051281 7.927186 -2.144026 7.000000
13.774057 1.289905 -2.243149 6.000000
13.612095 -4.639238 -2.370437 7.000000
12.677791 -11.756214 -2.322302 7.000000
7.050750 9.356661 -0.959098 1.000000
13.961494 7.809213 -2.142994 7.000000
13.744108 1.233883 -2.239956 6.000000
13.627179 -4.705520 -2.368581 9.000000
12.758986 -11.927124 -2.327309 9.000000
7.186734 9.464743 -0.987488 38.000000
13.958377 7.740440 -2.149491 8.000000
13.802628 1.188156 -2.248768 6.000000
13.609790 -4.758082 -2.363548 7.000000
12.864611 -12.114521 -2.338966 9.000000
7.170667 9.375450 -0.993224 17.000000
13.941916 7.664634 -2.153925 6.000000
13.816535 1.135926 -2.252790 6.000000
13.644598 -4.826446 -2.364868 7.000000
12.976547 -12.309979 -2.348449 8.000000
7.240943 9.395769 -1.008607 1.000000
13.925418 7.589232 -2.155521 7.000000
13.830242 1.083606 -2.256815 6.000000
13.673589 -4.895854 -2.365327 8.000000
13.044703 -12.457080 -2.352237 8.000000
7.172026 9.239459 -1.010961 16.000000
13.890794 7.504458 -2.157117 6.000000
13.755379 1.027029 -2.243970 6.000000
13.693840 -4.959804 -2.364131 10.000000
13.082918 -12.585575 -2.348099 7.000000
7.215850 9.229224 -1.024951 1.000000
13.868840 7.427061 -2.160655 6.000000
13.797868 0.981782 -2.252807 6.000000
13.681852 -5.009554 -2.359846 18.000000
13.168604 -12.756808 -2.355189 7.000000
7.171798 9.103917 -1.028217 1.000000
13.829010 7.340635 -2.161381 6.000000
13.782002 0.925064 -2.249592 6.000000
13.685931 -5.073444 -2.356201 17.000000
13.247089 -12.936323 -2.355504 7.000000
7.224527 9.105288 -1.043483 9.000000
13.768088 7.240674 -2.158566 6.000000
13.785061 0.872114 -2.252003 6.000000
13.649906 -5.117073 -2.345381 20.000000
13.357232 -13.139871 -2.360378 7.000000
7.232240 9.053186 -1.052488 25.000000
13.688135 7.134704 -2.150156 6.000000
13.768173 0.825215 -2.248785 8.000000
13.632727 -5.164979 -2.340293 24.000000
13.402591 -13.272232 -2.366125 7.000000
7.250524 9.004952 -1.064352 39.000000
13.646865 7.049706 -2.150532 6.000000
13.692285 0.763120 -2.238305 39.000000
13.608795 -5.218478 -2.329325 10.000000
13.533597 -13.495856 -2.377229 15.000000
7.282773 8.977447 -1.076458 36.000000
13.697717 7.012493 -2.165436 6.000000
13.690062 0.712674 -2.237499 30.000000
13.567316 -5.259691 -2.320301 20.000000
13.638549 -13.710148 -2.384750 10.000000
7.335396 8.978077 -1.091844 36.000000
13.589523 6.894359 -2.155173 6.000000
13.652876 0.658183 -2.233442 40.000000
13.529760 -5.304979 -2.309543 10.000000
13.782342 -13.956634 -2.391022 8.000000
7.376890 8.961622 -1.107433 36.000000
13.556192 6.815091 -2.154015 6.000000
13.669986 0.608797 -2.235861 34.000000
13.502167 -5.351339 -2.300369 18.000000
13.960606 -14.236205 -2.416428 8.000000
7.410559 8.938752 -1.120067 37.000000
13.522133 6.735994 -2.155426 6.000000
13.696483 0.557291 -2.242285 36.000000
13.446901 -5.386546 -2.286527 22.000000
14.076305 -14.459826 -2.424172 8.000000
7.458537 8.936146 -1.135138 35.000000
13.515813 6.668194 -2.158374 6.000000
13.702404 0.512024 -2.247878 38.000000
13.442860 -5.439457 -2.281273 20.000000
14.178152 -14.661408 -2.432018 8.000000
7.514530 8.939613 -1.151250 10.000000
13.427649 6.563614 -2.151088 6.000000
13.705052 0.459433 -2.243092 39.000000
13.410220 -5.483534 -2.271357 10.000000
14.298009 -14.894207 -2.439999 8.000000
7.592776 8.962604 -1.174520 1.000000
13.458829 6.517848 -2.165564 6.000000
13.701141 0.401854 -2.247069 46.000000
13.393763 -5.539664 -2.264542 9.000000
14.300699 -15.011967 -2.428264 9.000000
7.989944 9.368258 -1.239827 1.000000
13.334723 6.397516 -2.147079 6.000000
13.687993 0.356042 -2.242253 35.000000
13.382602 -5.595319 -2.258491 9.000000
14.324268 -15.136902 -2.418656 8.000000
8.042826 9.360557 -1.255757 1.000000
13.258078 6.301070 -2.144086 8.000000
13.732871 0.304448 -2.254320 54.000000
13.387820 -5.649731 -2.254729 7.000000
14.416661 -15.346816 -2.421393 8.000000
8.067931 9.317160 -1.269297 1.000000
13.277020 6.247692 -2.148486 10.000000
13.695213 0.253397 -2.243061 40.000000
13.398293 -5.717620 -2.249926 7.000000
14.412167 -15.449749 -2.407266 8.000000
8.104416 9.290267 -1.282721 1.000000
13.222585 6.162983 -2.143810 10.000000
13.715820 0.201099 -2.246293 8.000000
13.436312 -5.794931 -2.252187 6.000000
14.641941 -15.822934 -2.433369 8.000000
8.129242 9.259839 -1.297258 1.000000
13.162206 6.076219 -2.145907 9.000000
13.878491 0.152608 -2.277803 6.000000
13.490605 -5.871482 -2.256653 7.000000
14.755883 -16.052525 -2.438017 8.000000
8.129284 9.191717 -1.304874 1.000000
13.192361 6.031581 -2.154967 9.000000
13.898710 0.099459 -2.281042 6.000000
13.586990 -5.972759 -2.273772 7.000000
14.842189 -16.259970 -2.438300 8.000000
8.139008 9.135022 -1.311850 1.000000
13.095181 5.931973 -2.143392 8.000000
13.909646 0.048554 -2.277806 6.000000
13.624492 -6.051774 -2.270606 6.000000
14.961076 -16.511347 -2.444140 8.000000
8.166589 9.108207 -1.326797 1.000000
13.091200 5.877927 -2.147219 10.000000
13.864529 0.000000 -2.275373 6.000000
11.632267 -5.217990 -1.934934 72.000000
15.098287 -16.786013 -2.452665 8.000000
8.125495 8.989509 -1.327087 36.000000
13.072649 5.806654 -2.150547 10.000000
13.873888 -0.055694 -2.279414 6.000000
11.470181 -5.195866 -1.902135 1.000000
15.187699 -17.016378 -2.453622 8.000000
8.159445 8.970258 -1.340875 25.000000
13.024925 5.728391 -2.146847 9.000000
13.839470 -0.103866 -2.271325 6.000000
13.778729 -6.296763 -2.280306 8.000000
15.366229 -17.319576 -2.470318 7.000000
8.234956 8.986877 -1.360784 17.000000
12.982331 5.650268 -2.143817 8.000000
13.917934 -0.155471 -2.284281 6.000000
13.831851 -6.385355 -2.284981 8.000000
15.409276 -17.490698 -2.462353 8.000000
8.317257 9.010169 -1.384088 27.000000
12.992150 5.597992 -2.154666 7.000000
13.892569 -0.208541 -2.280232 6.000000
13.844934 -6.453057 -2.285583 6.000000
8.385038 9.020218 -1.401004 31.000000
12.966424 5.530648 -2.152059 5.000000
13.871978 -0.259090 -2.276993 6.000000
13.965459 -6.571646 -2.301178 6.000000
13.663661 -15.740424 -2.157655 31.000000
8.461175 9.035484 -1.421315 28.000000
12.900008 5.443871 -2.145053 6.000000
13.900477 -0.313019 -2.281852 6.000000
14.048340 -6.679659 -2.302586 6.000000
13.580873 -15.755818 -2.131240 9.000000
8.525539 9.040758 -1.442201 34.000000
12.877105 5.378689 -2.150418 6.000000
13.893508 -0.363814 -2.285893 6.000000
14.110033 -6.769481 -2.313765 6.000000
15.794447 -18.460278 -2.467795 8.000000
8.588357 9.040754 -1.460448 31.000000
12.868290 5.319698 -2.153140 8.000000
13.931460 -0.418343 -2.292385 6.000000
11.459518 -5.549621 -1.875644 10.000000
15.876802 -18.688196 -2.460575 8.000000
8.668436 9.058331 -1.481721 27.000000
12.722029 5.204720 -2.132831 32.000000
13.910427 -0.471179 -2.286710 6.000000
11.544973 -5.648330 -1.884160 54.000000
15.909110 -18.879297 -2.451196 9.000000
8.736535 9.059596 -1.500770 28.000000
12.722564 5.148000 -2.136951 37.000000
13.933258 -0.523085 -2.290763 6.000000
11.396718 -5.627660 -1.854255 9.000000
16.061890 -19.196184 -2.458579 9.000000
8.793093 9.057938 -1.518727 17.000000
12.699030 5.084393 -2.137190 35.000000
13.931148 -0.576581 -2.290763 6.000000
16.215902 -19.525215 -2.461787 5.000000
8.880453 9.081094 -1.543802 20.000000
12.702066 5.031668 -2.146799 176.000000
13.972715 -0.624723 -2.302941 6.000000
11.450439 -5.756468 -1.858229 165.000000
16.577164 -20.088268 -2.503258 7.000000
8.973638 9.112532 -1.568054 8.000000
12.688053 4.969839 -2.148501 23.000000
13.922135 -0.676035 -2.287520 6.000000
11.408639 -5.787933 -1.843479 8.000000
16.688290 -20.374590 -2.498829 8.000000
9.040956 9.113835 -1.585343 9.000000
12.746576 4.938953 -2.162667 21.000000
13.943400 -0.728302 -2.296442 6.000000
11.537703 -5.906682 -1.863201 37.000000
16.705935 -20.549320 -2.489415 9.000000
9.143266 9.149652 -1.611145 35.000000
12.832700 4.918304 -2.181583 5.000000
14.004667 -0.790338 -2.304543 6.000000
11.501863 -5.946726 -1.852028 6.000000
16.769733 -20.790382 -2.473179 9.000000
9.231851 9.170825 -1.634661 35.000000
12.785775 4.844097 -2.177768 5.000000
14.031519 -0.838541 -2.309407 8.000000
11.499449 -5.996441 -1.848070 8.000000
16.935255 -21.138655 -2.488844 9.000000
9.336423 9.203750 -1.660855 9.000000
12.723776 4.767352 -2.171512 5.000000
13.983970 -0.894500 -2.299666 38.000000
11.410719 -6.008556 -1.828486 8.000000
17.032459 -21.428083 -2.481482 9.000000
12.725741 4.717497 -2.173882 5.000000
13.892151 -0.937329 -2.285090 68.000000
11.173203 -5.930895 -1.784560 66.000000
15.120913 -19.146395 -2.185982 52.000000
11.033593 10.725954 -1.982151 5.000000
12.673258 4.640262 -2.173799 5.000000
13.918550 -0.990369 -2.287513 35.000000
11.117565 -5.953694 -1.770168 63.000000
17.205843 -21.951313 -2.469569 9.000000
11.192642 10.801061 -2.020159 3.000000
12.661261 4.583312 -2.176079 5.000000
13.899088 -1.042638 -2.289952 38.000000
11.109282 -6.001756 -1.767846 40.000000
17.244141 -22.159052 -2.451584 9.000000
11.704811 11.216669 -2.122786 1.000000
12.653232 4.530513 -2.176782 5.000000
13.915246 -1.095154 -2.290759 40.000000
11.214664 -6.111895 -1.776806 33.000000
17.459728 -22.606554 -2.463860 9.000000
11.604424 11.039164 -2.111446 2.000000
12.581833 4.448048 -2.168581 5.000000
13.925691 -1.149794 -2.293188 79.000000
18.021902 -23.503584 -2.523510 6.000000
11.524275 10.882735 -2.106480 5.000000
12.590782 4.404296 -2.174764 6.000000
13.926698 -1.201285 -2.291558 95.000000
18.028008 -23.690866 -2.499876 8.000000
11.417849 10.703339 -2.096523 6.000000
12.556733 4.333438 -2.172869 5.000000
13.966610 -1.258773 -2.296390 45.000000
11.291578 -6.318411 -1.772445 23.000000
18.538486 -24.538969 -2.550093 7.000000
