VERSION .7
FIELDS x y z intensity
SIZE 4 4 4 4
TYPE F F F F
COUNT 1 1 1 1
WIDTH 1232
HEIGHT 1
VIEWPOINT 0 0 0 1 0 0 0
POINTS 1232
DATA ascii
15.010403 -10.945774 -2.001757 25.000000
16.057203 -27.346968 -1.318063 14.000000
9.290504 6.864580 -1.858514 1.000000
10.769108 2.326396 -1.899096 1.000000
12.382311 -2.627424 -1.934686 8.000000
14.849236 -10.749055 -1.997907 9.000000
9.309880 6.931791 -1.859148 1.000000
10.760097 2.367729 -1.899096 5.000000
12.366792 -2.574548 -1.939728 2.000000
14.745544 -10.591847 -1.997960 27.000000
9.293088 6.972376 -1.854647 1.000000
10.780845 2.413756 -1.900336 1.000000
12.331573 -2.520096 -1.939488 1.000000
14.625019 -10.424224 -1.992303 53.000000
15.567632 -25.888418 -1.377049 6.000000
9.322416 7.050488 -1.857522 1.000000
10.794869 2.460461 -1.908439 1.000000
12.300640 -2.466842 -1.942155 1.000000
14.541403 -10.288268 -2.001189 29.000000
15.566286 -25.682756 -1.411014 53.000000
9.301726 7.088583 -1.848102 1.000000
10.814466 2.508648 -1.911597 1.000000
12.314537 -2.420480 -1.945110 3.000000
14.455876 -10.148457 -1.996774 114.000000
9.370982 7.195807 -1.856523 1.000000
10.767479 2.539372 -1.900948 1.000000
12.292882 -2.369461 -1.949256 2.000000
14.348294 -9.994624 -1.998481 38.000000
15.087705 -24.495964 -1.427203 3.000000
9.388288 7.263949 -1.858845 1.000000
10.787047 2.587750 -1.902157 1.000000
12.286992 -2.319430 -1.949131 4.000000
14.257006 -9.853622 -1.992980 176.000000
15.043275 -24.233976 -1.444934 138.000000
9.397943 7.326643 -1.855409 1.000000
10.787065 2.629603 -1.903847 1.000000
12.251020 -2.266170 -1.946549 4.000000
14.180987 -9.724473 -1.992563 82.000000
15.134634 -24.192284 -1.485539 37.000000
9.403382 7.386454 -1.851129 1.000000
10.772749 2.669977 -1.899127 1.000000
12.185614 -2.210108 -1.937133 1.000000
14.131004 -9.617848 -1.998953 16.000000
15.233988 -24.163095 -1.521998 3.000000
9.437735 7.464178 -1.856303 1.000000
10.772923 2.709969 -1.900814 1.000000
12.226340 -2.171239 -1.951212 1.000000
14.098865 -9.520549 -2.004508 60.000000
9.455579 7.540187 -1.852787 1.000000
10.757824 2.752135 -1.896095 1.000000
12.141788 -2.108165 -1.938616 3.000000
14.012871 -9.387885 -1.999316 21.000000
14.603314 -22.808247 -1.514158 17.000000
9.466091 7.608212 -1.851881 1.000000
10.766580 2.798465 -1.897520 1.000000
12.158890 -2.060888 -1.946627 6.000000
13.966875 -9.283083 -2.005697 30.000000
14.700624 -22.784697 -1.553974 17.000000
9.562332 7.743424 -1.865262 1.000000
10.733059 2.831789 -1.889441 1.000000
12.096780 -2.009117 -1.939994 2.000000
13.908164 -9.170744 -2.007173 19.000000
9.518701 7.760497 -1.850799 1.000000
10.747237 2.875693 -1.891695 1.000000
12.088777 -1.960120 -1.944062 1.000000
13.823613 -9.042474 -2.007726 7.000000
9.557223 7.855980 -1.855574 1.000000
10.754951 2.924071 -1.893102 1.000000
12.061405 -1.910339 -1.940706 1.000000
13.759727 -8.928844 -2.005303 6.000000
9.579123 7.932992 -1.854362 1.000000
10.749034 2.966833 -1.890047 1.000000
12.053675 -1.861699 -1.940481 1.000000
13.624267 -8.770147 -1.992345 6.000000
14.184749 -21.317459 -1.593015 40.000000
9.607186 8.010089 -1.853769 1.000000
10.791998 3.017241 -1.895327 1.000000
12.035000 -1.813678 -1.942926 6.000000
13.531472 -8.643758 -1.994267 6.000000
9.701145 8.154664 -1.866900 5.000000
10.794446 3.066733 -1.891953 1.000000
12.002125 -1.761619 -1.940855 4.000000
13.494828 -8.550868 -1.995561 6.000000
9.739241 8.241959 -1.870381 5.000000
10.784217 3.102512 -1.891953 1.000000
11.998390 -1.716171 -1.941390 3.000000
13.402499 -8.423678 -1.994166 6.000000
9.752730 8.320792 -1.865660 5.000000
10.819086 3.161673 -1.896331 1.000000
12.004465 -1.665757 -1.947736 1.000000
13.343700 -8.318653 -1.992021 6.000000
9.805960 8.428502 -1.870218 5.000000
10.770236 3.190289 -1.885774 1.000000
11.941663 -1.612454 -1.938732 4.000000
13.259013 -8.198526 -1.985937 6.000000
13.744023 -19.885948 -1.656449 32.000000
9.861522 8.533284 -1.874584 5.000000
10.773022 3.236161 -1.882368 1.000000
11.932201 -1.568786 -1.938450 1.000000
13.177572 -8.081555 -1.983000 6.000000
9.868473 8.602754 -1.872559 5.000000
10.812983 3.291421 -1.891446 1.000000
11.917949 -1.522496 -1.937367 1.000000
13.163550 -8.006711 -1.987395 6.000000
17.284527 -24.629929 -2.130463 3.000000
9.912491 8.705272 -1.875206 5.000000
10.802057 3.329339 -1.887500 1.000000
11.869487 -1.470008 -1.930698 5.000000
13.093370 -7.898426 -1.988697 6.000000
16.623228 -23.512615 -2.074183 4.000000
9.930187 8.785488 -1.870470 5.000000
10.800139 3.372142 -1.883223 1.000000
11.868888 -1.425785 -1.936161 1.000000
13.052963 -7.808944 -1.988999 5.000000
16.436434 -23.085617 -2.076117 2.000000
9.980214 8.895171 -1.876504 5.000000
10.829432 3.426979 -1.890612 1.000000
11.918062 -1.385291 -1.945450 1.000000
12.951801 -7.684103 -1.985321 6.000000
13.246510 -18.454851 -1.696121 9.000000
10.007714 8.985716 -1.875887 5.000000
10.808972 3.464139 -1.879065 1.000000
11.908009 -1.339906 -1.945140 1.000000
12.961592 -7.625823 -1.993207 6.000000
13.324408 -18.427252 -1.721797 32.000000
10.159820 9.189770 -1.896076 5.000000
10.841591 3.524738 -1.885242 1.000000
11.853851 -1.287740 -1.937608 1.000000
12.855540 -7.500137 -1.983232 5.000000
10.182209 9.278099 -1.894338 5.000000
10.871397 3.578539 -1.888589 1.000000
11.813645 -1.239580 -1.934537 6.000000
12.838846 -7.427457 -1.986983 5.000000
15.695140 -21.381981 -2.073517 8.000000
10.271672 9.425455 -1.902219 3.000000
10.858514 3.620568 -1.882596 1.000000
11.808162 -1.193183 -1.935001 1.000000
12.773911 -7.327536 -1.988464 6.000000
15.569614 -21.056494 -2.079403 8.000000
10.241911 9.467525 -1.890724 5.000000
10.851745 3.658342 -1.879410 1.000000
11.817032 -1.150342 -1.937878 1.000000
12.739179 -7.245687 -1.989330 5.000000
15.284460 -20.520622 -2.058706 8.000000
10.378543 9.664611 -1.912392 5.000000
10.906670 3.727809 -1.889544 1.000000
11.835764 -1.106305 -1.942369 3.000000
12.673817 -7.147159 -1.985365 6.000000
10.402336 9.758199 -1.908148 4.000000
10.856559 3.755177 -1.877059 1.000000
11.859399 -1.064682 -1.945594 2.000000
12.660105 -7.078394 -1.986876 8.000000
12.837493 -16.980368 -1.765068 39.000000
10.400128 9.828038 -1.901629 5.000000
10.935828 3.829673 -1.889140 1.000000
11.813897 -1.014885 -1.939600 1.000000
12.602436 -6.985644 -1.984043 5.000000
10.509332 10.004404 -1.910251 5.000000
10.937225 3.875223 -1.881429 1.000000
11.772941 -0.967912 -1.934398 1.000000
12.522563 -6.881492 -1.977650 5.000000
14.469577 -18.857119 -2.025176 8.000000
10.516731 10.085184 -1.905368 5.000000
10.943210 3.918236 -1.882601 1.000000
11.819842 -0.930242 -1.945809 1.000000
12.534630 -6.825591 -1.985558 7.000000
14.390421 -18.632467 -2.030729 8.000000
10.607492 10.243537 -1.915190 5.000000
10.956546 3.970540 -1.883330 1.000000
11.817915 -0.886519 -1.947067 1.000000
12.427008 -6.708050 -1.979679 7.000000
14.185066 -18.214960 -2.019834 8.000000
10.738374 10.446259 -1.929770 5.000000
11.035541 4.044988 -1.893129 1.000000
11.806468 -0.840085 -1.944636 5.000000
12.428767 -6.650289 -1.983589 7.000000
14.034836 -17.905724 -2.018434 8.000000
10.658943 10.445299 -1.906478 3.000000
11.053256 4.099693 -1.892522 1.000000
11.789715 -0.791340 -1.943455 1.000000
12.412469 -6.583163 -1.987128 7.000000
10.791207 10.652727 -1.923658 3.000000
11.056954 4.147228 -1.893632 1.000000
11.792328 -0.746043 -1.945518 1.000000
12.400229 -6.518550 -1.991307 5.000000
12.354876 -15.521084 -1.805401 47.000000
10.830665 10.770343 -1.924173 3.000000
11.061072 4.195081 -1.890604 1.000000
11.720988 -0.700461 -1.933333 1.000000
12.280403 -6.403674 -1.976043 6.000000
10.917124 10.932378 -1.929868 3.000000
11.082685 4.252025 -1.890702 1.000000
11.753032 -0.659154 -1.938207 1.000000
12.254197 -6.332990 -1.977905 6.000000
13.502241 -16.727535 -2.001785 8.000000
10.982963 11.079227 -1.934847 4.000000
11.100176 4.305474 -1.889974 1.000000
11.724903 -0.612424 -1.939481 1.000000
12.220401 -6.253495 -1.983055 7.000000
13.395178 -16.465141 -2.002685 8.000000
11.034198 11.212811 -1.934375 3.000000
11.148847 4.373675 -1.894678 1.000000
11.727267 -0.565353 -1.939481 1.000000
12.202283 -6.187894 -1.986173 7.000000
13.384683 -16.329615 -2.014463 8.000000
11.114344 11.373395 -1.938470 6.000000
11.174984 4.431259 -1.895415 1.000000
11.728830 -0.524398 -1.941530 1.000000
12.171965 -6.113877 -1.984686 8.000000
13.259207 -16.061844 -2.016478 8.000000
11.225831 11.572028 -1.951022 6.000000
11.191067 4.485173 -1.898762 3.000000
11.681385 -0.479384 -1.933372 1.000000
12.115339 -6.035206 -1.984243 6.000000
13.288775 -15.989365 -2.034878 8.000000
11.291739 11.725658 -1.949757 9.000000
11.230230 4.550993 -1.897523 1.000000
11.697928 -0.435077 -1.935819 1.000000
12.085608 -5.959962 -1.980244 6.000000
13.175938 -15.730329 -2.033648 9.000000
11.304988 11.825861 -1.942140 8.000000
11.282969 4.620583 -1.902743 1.000000
11.655072 -0.390711 -1.928478 1.000000
12.050737 -5.893167 -1.980886 7.000000
13.002370 -15.418950 -2.016732 8.000000
11.251357 11.852313 -1.922669 6.000000
11.234309 4.648809 -1.895224 1.000000
11.616705 -0.344776 -1.923980 1.000000
11.979253 -5.798737 -1.977162 7.000000
12.937457 -15.222980 -2.022237 8.000000
11.270830 11.951954 -1.921132 6.000000
11.262871 4.711361 -1.896533 1.000000
11.672133 -0.303607 -1.932963 1.000000
12.002945 -5.758577 -1.984868 8.000000
12.795696 -14.955388 -2.013140 8.000000
11.373424 12.158159 -1.929252 1.000000
11.267838 4.766676 -1.891829 1.000000
11.647969 -0.254160 -1.932947 1.000000
11.944306 -5.671574 -1.980827 8.000000
12.669306 -14.693079 -2.011741 8.000000
11.636551 12.526804 -1.963149 1.000000
11.357103 4.848902 -1.905092 1.000000
11.678378 -0.214041 -1.937857 1.000000
11.872639 -5.589371 -1.972883 7.000000
12.565888 -14.470696 -2.007574 10.000000
11.807720 12.804869 -1.978372 1.000000
11.350158 4.895196 -1.893674 1.000000
11.669894 -0.171102 -1.932146 1.000000
11.853396 -5.522293 -1.975323 7.000000
12.414698 -14.191187 -1.991732 7.000000
11.909715 13.010843 -1.984731 1.000000
11.415927 4.980379 -1.905886 1.000000
11.621140 -0.125758 -1.923980 1.000000
11.860105 -5.470093 -1.979921 6.000000
12.366394 -14.031857 -1.998827 7.000000
12.042531 13.248498 -1.998739 5.000000
11.495264 5.060432 -1.915193 1.000000
11.581390 -0.082876 -1.921490 1.000000
11.784394 -5.382882 -1.973229 8.000000
12.232414 -13.782544 -1.988903 13.000000
12.008604 13.308852 -1.982187 1.000000
11.450453 5.090888 -1.904109 1.000000
11.591152 -0.038438 -1.925150 1.000000
11.726545 -5.304597 -1.967170 8.000000
12.187241 -13.640266 -1.993573 42.000000
12.211269 13.624026 -2.003695 1.000000
11.472616 5.153592 -1.902089 1.000000
11.621148 0.000000 -1.928036 5.000000
11.723257 -5.261264 -1.970876 7.000000
12.081670 -13.432191 -1.984962 126.000000
12.364623 13.882627 -2.019588 4.000000
11.555443 5.236918 -1.911896 6.000000
11.640793 0.044698 -1.931310 1.000000
11.715330 -5.203755 -1.973040 7.000000
12.044747 -13.288165 -1.992677 39.000000
12.382835 14.015954 -2.008620 2.000000
11.537078 5.279652 -1.905253 6.000000
11.615888 0.087178 -1.927218 1.000000
11.635020 -5.112262 -1.967398 7.000000
11.978039 -13.117626 -1.992507 28.000000
12.386633 14.114306 -2.000242 2.000000
11.594234 5.359744 -1.908959 7.000000
11.571123 0.127236 -1.919853 7.000000
11.660024 -5.077184 -1.975587 8.000000
11.957500 -13.012796 -1.997898 38.000000
12.560799 14.413942 -2.016234 6.000000
11.647118 5.436090 -1.914054 5.000000
11.501470 0.172648 -1.908396 1.000000
11.592277 -4.994822 -1.967613 6.000000
11.811094 -12.759288 -1.987126 85.000000
12.546716 14.515011 -1.999612 6.000000
11.690657 5.508684 -1.917598 6.000000
11.525381 0.217274 -1.912488 1.000000
11.566154 -4.928612 -1.964301 1.000000
11.799792 -12.644876 -1.995019 36.000000
12.700090 14.786085 -2.010818 6.000000
11.731608 5.575596 -1.918070 5.000000
11.603499 0.257242 -1.925581 1.000000
11.544448 -4.874191 -1.969063 4.000000
11.661471 -12.418205 -1.980092 66.000000
12.779484 14.989322 -2.011229 6.000000
11.745709 5.640210 -1.917091 5.000000
11.553117 0.300511 -1.917398 1.000000
11.483811 -4.799073 -1.962386 1.000000
11.619921 -12.283426 -1.986319 34.000000
12.905222 15.244263 -2.018247 6.000000
11.778585 5.711755 -1.916687 5.000000
11.591596 0.348080 -1.921921 1.000000
11.519459 -4.762097 -1.972028 1.000000
11.555687 -12.121951 -1.988114 81.000000
13.052254 15.533035 -2.028671 6.000000
11.856236 5.803180 -1.925712 5.000000
11.600033 0.392920 -1.923556 1.000000
11.458180 -4.687665 -1.965228 1.000000
11.513104 -11.988989 -1.984983 77.000000
13.184422 15.801990 -2.032382 6.000000
11.858272 5.858148 -1.920087 5.000000
11.568863 0.436343 -1.918651 1.000000
11.437714 -4.630427 -1.965418 1.000000
11.424361 -11.809630 -1.979661 53.000000
13.210291 15.951486 -2.023471 6.000000
11.948634 5.957369 -1.928725 5.000000
11.596924 0.475917 -1.923556 1.000000
11.399447 -4.564070 -1.962409 1.000000
11.378659 -11.684600 -1.985235 125.000000
13.491747 16.419279 -2.050016 6.000000
11.980670 6.028269 -1.930281 5.000000
11.590237 0.524283 -1.920713 1.000000
11.425901 -4.521528 -1.970422 2.000000
11.345507 -11.561405 -1.988908 89.000000
13.727888 16.820063 -2.075239 6.000000
12.064541 6.128636 -1.937929 5.000000
11.593163 0.567000 -1.921530 1.000000
11.395467 -4.461246 -1.968913 5.000000
11.257505 -11.387936 -1.980337 36.000000
13.827380 17.063210 -2.072196 5.000000
12.087248 6.196009 -1.935535 5.000000
11.581596 0.606966 -1.917873 1.000000
11.354776 -4.399668 -1.965759 3.000000
11.195745 -11.250591 -1.979776 66.000000
13.865944 17.239594 -2.064059 6.000000
12.166487 6.293044 -1.944587 5.000000
11.598994 0.650515 -1.921136 1.000000
11.360644 -4.354119 -1.970536 5.000000
11.165187 -11.137939 -1.983914 38.000000
14.146130 17.714209 -2.083034 6.000000
12.219154 6.377162 -1.946912 5.000000
11.611520 0.695953 -1.921553 1.000000
11.353238 -4.301357 -1.972896 2.000000
11.114982 -11.003032 -1.981338 75.000000
14.431737 18.208321 -2.114458 6.000000
12.201280 6.424842 -1.937985 5.000000
11.584273 0.736941 -1.917478 1.000000
11.294020 -4.231650 -1.966379 1.000000
11.096901 -10.904894 -1.990293 38.000000
14.717446 18.702539 -2.140744 6.000000
12.222571 6.493385 -1.935282 5.000000
11.606030 0.787150 -1.919523 1.000000
11.254416 -4.165368 -1.963008 3.000000
11.057204 -10.786508 -1.992512 24.000000
14.871120 19.041016 -2.143481 4.000000
12.303185 6.596910 -1.944591 5.000000
11.598290 0.827307 -1.918708 1.000000
11.249711 -4.119036 -1.963961 8.000000
10.999240 -10.651562 -1.988604 38.000000
14.928017 19.252022 -2.135646 7.000000
12.328032 6.668523 -1.942394 5.000000
11.595210 0.873883 -1.916679 1.000000
11.232709 -4.061749 -1.964553 1.000000
10.984818 -10.563544 -1.995548 36.000000
15.455086 20.076086 -2.185419 6.000000
12.387307 6.759389 -1.945584 5.000000
11.611761 0.915905 -1.919932 1.000000
11.208688 -4.008877 -1.964295 1.000000
11.025529 -10.525186 -2.012161 19.000000
15.449089 20.221193 -2.172665 7.000000
12.470183 6.858376 -1.952038 6.000000
11.613577 0.958891 -1.918711 2.000000
11.218006 -3.965895 -1.967634 1.000000
10.972778 -10.405501 -2.009654 7.000000
15.891633 20.951635 -2.217438 7.000000
12.506800 6.938341 -1.951566 6.000000
11.590483 1.001806 -1.913431 3.000000
11.166983 -3.899685 -1.962407 6.000000
10.897698 -10.258703 -2.002296 6.000000
15.979110 21.220402 -2.202616 7.000000
12.502238 7.001590 -1.939941 6.000000
11.611634 1.046525 -1.915454 1.000000
11.189553 -3.861612 -1.970242 2.000000
10.864899 -10.152975 -2.005272 6.000000
16.007235 21.420685 -2.184409 7.000000
12.520814 7.072401 -1.936610 6.000000
11.617355 1.092026 -1.917075 1.000000
11.100285 -3.785332 -1.956276 3.000000
10.775106 -9.991840 -1.997275 6.000000
16.085157 21.682390 -2.176900 7.000000
12.694056 7.231755 -1.957109 6.000000
11.653560 1.138535 -1.917429 1.000000
11.109740 -3.740999 -1.957499 3.000000
10.752310 -9.897651 -1.996704 6.000000
16.218496 22.014320 -2.175996 7.000000
12.743959 7.316267 -1.960701 6.000000
11.644936 1.178743 -1.914578 1.000000
11.089324 -3.688927 -1.959894 3.000000
10.710672 -9.793908 -1.995833 8.000000
12.821187 7.423216 -1.966229 6.000000
11.595614 1.220794 -1.909349 1.000000
11.111799 -3.649076 -1.967672 1.000000
10.605332 -9.626451 -1.987448 15.000000
12.814160 7.487991 -1.956567 6.000000
11.640224 1.270700 -1.915386 1.000000
11.058787 -3.586817 -1.960117 5.000000
10.569353 -9.523371 -1.986807 16.000000
12.871602 7.578928 -1.958556 6.000000
11.631249 1.312877 -1.910493 1.000000
11.019851 -3.527482 -1.957031 5.000000
10.551224 -9.437197 -1.989480 36.000000
12.930174 7.677376 -1.961059 6.000000
11.675469 1.363290 -1.916496 4.000000
11.046156 -3.491320 -1.963577 1.000000
10.517541 -9.337910 -1.991683 29.000000
13.022237 7.796735 -1.968567 6.000000
11.597720 1.393210 -1.902388 1.000000
11.059153 -3.448778 -1.965599 5.000000
10.483803 -9.239464 -1.988821 16.000000
13.088143 7.901505 -1.972043 6.000000
11.666079 1.446884 -1.912392 1.000000
11.042795 -3.399317 -1.964613 3.000000
10.460146 -9.150719 -1.992808 10.000000
20.529900 29.363344 -2.561935 7.000000
13.153464 8.006867 -1.975366 6.000000
11.651237 1.488424 -1.908737 1.000000
11.002574 -3.340740 -1.963422 1.000000
10.413831 -9.043036 -1.989941 9.000000
20.335457 29.302519 -2.500368 9.000000
13.172285 8.084641 -1.966180 6.000000
11.665339 1.535771 -1.909891 1.000000
10.986090 -3.291805 -1.960374 1.000000
10.389366 -8.955210 -1.991202 7.000000
21.024891 30.545700 -2.554017 9.000000
13.335176 8.258496 -1.981518 6.000000
11.704419 1.588740 -1.908855 1.000000
10.964907 -3.239629 -1.958468 5.000000
10.346889 -8.849578 -1.991094 8.000000
21.006607 30.736885 -2.524995 9.000000
13.388858 8.353296 -1.982408 6.000000
11.659362 1.624093 -1.904529 1.000000
10.957127 -3.193711 -1.959075 2.000000
10.304749 -8.751438 -1.989146 8.000000
21.015728 30.981831 -2.493131 9.000000
13.510509 8.498146 -1.993701 6.000000
11.722067 1.676647 -1.913641 1.000000
10.944642 -3.144528 -1.960808 6.000000
10.250717 -8.644144 -1.984836 10.000000
21.639095 32.165977 -2.534145 8.000000
13.595060 8.627687 -1.997004 6.000000
11.755000 1.731635 -1.913802 1.000000
10.964916 -3.106893 -1.966484 4.000000
10.295900 -8.617873 -2.001826 7.000000
22.407076 33.534557 -2.593995 9.000000
13.705520 8.761676 -2.005956 6.000000
11.744641 1.769920 -1.910934 1.000000
10.919159 -3.048684 -1.960239 3.000000
10.253806 -8.518922 -1.999451 6.000000
23.496380 35.445366 -2.675504 3.000000
13.750164 8.861377 -1.999842 5.000000
11.762482 1.818826 -1.912828 25.000000
10.920758 -3.006027 -1.958535 1.000000
10.140390 -8.359093 -1.980444 6.000000
22.093391 33.582859 -2.479778 1.000000
13.831142 8.985481 -2.004710 5.000000
11.643918 1.844215 -1.892522 33.000000
10.926805 -2.962604 -1.961635 1.000000
10.116054 -8.276946 -1.981420 9.000000
13.953224 9.137691 -2.012477 5.000000
11.632528 1.888226 -1.887616 23.000000
10.913132 -2.916001 -1.961310 1.000000
10.091258 -8.195096 -1.982273 8.000000
25.161911 38.834919 -2.741071 1.000000
14.045101 9.271593 -2.018697 5.000000
11.659948 1.936565 -1.891089 26.000000
10.928017 -2.875067 -1.968082 8.000000
10.042918 -8.094935 -1.978456 8.000000
25.103580 39.042862 -2.692642 5.000000
14.123796 9.398047 -2.022932 5.000000
11.663136 1.983142 -1.886475 25.000000
10.899670 -2.824936 -1.965150 5.000000
10.028724 -8.023034 -1.981327 8.000000
24.966454 39.129169 -2.627547 11.000000
14.158937 9.492905 -2.011579 4.000000
11.700222 2.033600 -1.889416 3.000000
10.876365 -2.774372 -1.963050 3.000000
9.994792 -7.935986 -1.980267 8.000000
24.728214 39.070854 -2.568954 8.000000
11.877401 2.111410 -1.917164 1.000000
10.862389 -2.726428 -1.962653 1.000000
10.018571 -7.895170 -1.990633 9.000000
24.593330 39.159565 -2.512460 9.000000
14.428155 9.827467 -2.032208 5.000000
11.865380 2.154166 -1.912170 1.000000
10.848402 -2.680690 -1.958337 6.000000
9.949072 -7.781458 -1.980177 9.000000
24.426632 39.197262 -2.444721 10.000000
14.553800 9.998810 -2.039926 6.000000
11.969690 2.220612 -1.923805 1.000000
10.829570 -2.631956 -1.955104 4.000000
9.905929 -7.689366 -1.977181 7.000000
24.262323 39.238083 -2.385453 9.000000
12.015511 2.274698 -1.928122 1.000000
10.851942 -2.599312 -1.961591 1.000000
9.889916 -7.619011 -1.977332 5.000000
24.108437 39.295193 -2.327324 8.000000
14.767713 10.298268 -2.048100 5.000000
11.983174 2.314103 -1.922098 1.000000
10.818037 -2.547310 -1.957680 4.000000
9.837674 -7.521470 -1.974657 7.000000
24.021919 39.462555 -2.275673 8.000000
14.958961 10.513333 -2.063793 3.000000
11.989398 2.363094 -1.920166 1.000000
10.799826 -2.495322 -1.952476 4.000000
9.837846 -7.461921 -1.977767 8.000000
23.844334 39.480450 -2.207340 7.000000
14.976650 10.604059 -2.051868 6.000000
12.001011 2.411111 -1.916862 1.000000
10.793829 -2.452298 -1.953737 5.000000
9.808531 -7.383210 -1.977410 5.000000
23.652077 39.488453 -2.146564 7.000000
15.100357 10.774958 -2.064380 6.000000
12.084270 2.476149 -1.927253 4.000000
10.821721 -2.414975 -1.961084 7.000000
9.790920 -7.313889 -1.977196 5.000000
23.642992 39.787693 -2.101667 4.000000
15.087011 10.849105 -2.044997 1.000000
12.056100 2.516454 -1.922017 1.000000
10.829334 -2.379002 -1.963019 1.000000
9.756803 -7.232840 -1.975817 9.000000
23.347973 39.605373 -2.031437 8.000000
15.426619 11.179324 -2.083108 5.000000
12.091150 2.572259 -1.920326 6.000000
10.776633 -2.320149 -1.951688 3.000000
9.742385 -7.166970 -1.976233 7.000000
23.256214 39.766365 -1.979129 7.000000
15.615820 11.403960 -2.097213 6.000000
12.158903 2.633291 -1.932606 1.000000
10.851429 -2.296647 -1.967763 3.000000
9.719372 -7.095286 -1.977060 7.000000
23.048429 39.728657 -1.908991 9.000000
15.721845 11.565749 -2.096184 6.000000
12.218650 2.688680 -1.936801 1.000000
10.801600 -2.244769 -1.959208 3.000000
9.701470 -7.025274 -1.976506 5.000000
22.811241 39.637939 -1.836832 6.000000
15.785244 11.701797 -2.086061 6.000000
12.248130 2.744516 -1.934158 6.000000
10.800490 -2.201311 -1.957459 7.000000
9.677962 -6.954321 -1.975058 8.000000
22.914097 40.140125 -1.799829 2.000000
14.564515 10.879799 -1.913953 6.000000
12.261760 2.799310 -1.933575 3.000000
10.807816 -2.161577 -1.961307 3.000000
9.678166 -6.900821 -1.978452 8.000000
22.587954 39.891579 -1.721036 8.000000
14.408830 10.842069 -1.879365 6.000000
12.359648 2.864813 -1.941433 6.000000
10.782556 -2.113499 -1.953257 4.000000
9.633825 -6.816081 -1.972735 19.000000
22.510895 40.081154 -1.661541 7.000000
14.390112 10.910818 -1.866198 3.000000
12.431331 2.931770 -1.947603 7.000000
10.780922 -2.070225 -1.951507 4.000000
9.646970 -6.769947 -1.976433 28.000000
22.408434 40.226955 -1.599958 6.000000
14.249060 10.886350 -1.830929 4.000000
12.527579 3.002981 -1.955191 6.000000
10.831979 -2.038893 -1.959383 3.000000
9.642543 -6.714229 -1.976797 25.000000
22.401718 40.547180 -1.552913 1.000000
13.960169 10.743016 -1.779979 4.000000
12.493134 3.043188 -1.946951 6.000000
10.810345 -1.991872 -1.956051 4.000000
9.596709 -6.630219 -1.972874 24.000000
13.768678 10.595654 -1.734123 1.000000
12.668715 3.085957 -1.955694 6.000000
10.928899 -2.013716 -1.963499 7.000000
9.615791 -6.640924 -1.963973 36.000000
22.445578 40.277100 -1.545709 1.000000
13.541791 10.342251 -1.709773 1.000000
12.647472 3.029387 -1.945964 6.000000
10.947659 -2.058689 -1.956184 5.000000
9.686731 -6.742487 -1.966555 38.000000
22.435781 39.931091 -1.591450 5.000000
13.507528 10.237917 -1.709662 1.000000
12.667454 2.985123 -1.951986 6.000000
10.983536 -2.109132 -1.962016 1.000000
9.703455 -6.807060 -1.966499 30.000000
22.534792 39.781494 -1.636551 8.000000
13.583998 10.217703 -1.723580 4.000000
12.712028 2.946490 -1.957178 6.000000
11.029866 -2.161975 -1.963673 3.000000
9.724429 -6.875092 -1.963030 14.000000
22.692478 39.735790 -1.685902 7.000000
12.656082 2.882361 -1.944530 6.000000
11.042196 -2.206449 -1.961219 4.000000
9.813634 -6.992248 -1.971080 9.000000
22.891781 39.745792 -1.745990 1.000000
16.398293 12.147392 -2.098104 6.000000
12.675548 2.837967 -1.950545 6.000000
11.072927 -2.256838 -1.964138 5.000000
9.817116 -7.049119 -1.968293 9.000000
23.064569 39.724529 -1.796757 8.000000
16.569452 12.180380 -2.132414 6.000000
12.637398 2.778512 -1.947637 6.000000
11.080059 -2.300621 -1.960782 4.000000
9.881129 -7.150117 -1.971075 7.000000
23.227369 39.685249 -1.846865 8.000000
16.524691 12.054430 -2.131779 10.000000
12.579836 2.717559 -1.937218 6.000000
11.100732 -2.349411 -1.961943 1.000000
9.891864 -7.213271 -1.969707 8.000000
23.379990 39.628056 -1.896253 9.000000
16.523548 11.961054 -2.136759 34.000000
12.614694 2.674433 -1.938689 6.000000
11.083417 -2.388222 -1.954303 2.000000
9.919015 -7.288907 -1.964996 9.000000
23.532291 39.569942 -1.953736 7.000000
16.323444 11.725266 -2.123044 10.000000
12.672153 2.638119 -1.950641 6.000000
11.156652 -2.448867 -1.964754 1.000000
9.935701 -7.360086 -1.965034 9.000000
23.745283 39.597019 -2.015870 5.000000
16.144459 11.511480 -2.108524 6.000000
12.526512 2.557656 -1.931261 6.000000
11.128599 -2.487537 -1.957384 1.000000
9.998725 -7.469121 -1.970015 12.000000
23.871731 39.494656 -2.071380 7.000000
15.917177 11.261650 -2.090645 6.000000
12.550676 2.514707 -1.931267 6.000000
11.163655 -2.538369 -1.959002 1.000000
10.018968 -7.536135 -1.965463 9.000000
24.003300 39.400997 -2.111194 7.000000
16.026012 11.250738 -2.116795 6.000000
12.588683 2.472083 -1.940221 6.000000
11.178500 -2.586926 -1.959214 4.000000
10.067450 -7.630538 -1.969154 9.000000
24.170683 39.365818 -2.170376 8.000000
15.792952 11.000932 -2.090867 6.000000
12.582764 2.423058 -1.940215 6.000000
11.231983 -2.642712 -1.966127 3.000000
10.099404 -7.713202 -1.971834 9.000000
24.272371 39.223713 -2.223680 7.000000
15.602988 10.783888 -2.073870 3.000000
12.581429 2.377286 -1.938717 6.000000
11.247055 -2.691876 -1.962253 6.000000
10.151298 -7.811908 -1.971519 8.000000
24.491173 39.255024 -2.287192 8.000000
15.554836 10.666575 -2.078917 4.000000
12.537066 2.316818 -1.932709 6.000000
11.280890 -2.743728 -1.965728 3.000000
10.143480 -7.865255 -1.964122 9.000000
24.568501 39.074585 -2.322041 10.000000
15.411836 10.485673 -2.067827 6.000000
12.553742 2.276875 -1.938661 6.000000
11.299318 -2.794206 -1.968705 6.000000
10.205523 -7.973428 -1.970215 8.000000
24.780714 39.108482 -2.385893 9.000000
15.300993 10.328424 -2.057648 1.000000
12.537724 2.224279 -1.937128 6.000000
11.275324 -2.832165 -1.962146 4.000000
10.212538 -8.039361 -1.965642 8.000000
24.977293 39.116047 -2.448514 20.000000
12.554864 2.179886 -1.943080 6.000000
11.299134 -2.884314 -1.959830 1.000000
10.250468 -8.130248 -1.964653 8.000000
25.145878 39.063671 -2.507908 13.000000
14.028652 9.320614 -1.904097 1.000000
12.456336 2.109068 -1.928703 5.000000
11.313014 -2.932065 -1.959894 3.000000
10.287609 -8.221314 -1.965784 9.000000
25.293982 38.994003 -2.566043 14.000000
14.076577 9.281792 -1.918116 5.000000
12.336155 2.046662 -1.911267 23.000000
11.316642 -2.979423 -1.958290 9.000000
10.328082 -8.315869 -1.967501 8.000000
25.431192 38.907379 -2.614995 13.000000
14.188082 9.280884 -1.943650 5.000000
12.333506 1.997592 -1.914117 69.000000
11.392066 -3.043972 -1.969028 7.000000
10.399008 -8.435987 -1.972560 8.000000
25.587036 38.849026 -2.674077 8.000000
14.287528 9.271340 -1.964652 5.000000
12.292257 1.944703 -1.904374 39.000000
11.404757 -3.094329 -1.969021 1.000000
10.415314 -8.512700 -1.969566 7.000000
25.826815 38.901936 -2.741457 5.000000
14.336959 9.228918 -1.978848 4.000000
12.343266 1.904221 -1.913360 37.000000
11.432044 -3.146763 -1.971456 4.000000
10.492313 -8.639973 -1.977988 8.000000
25.719679 38.448620 -2.756331 1.000000
14.859551 9.488469 -2.055521 6.000000
12.423140 1.869953 -1.926911 33.000000
11.435453 -3.194987 -1.965628 3.000000
10.576422 -8.774479 -1.985200 9.000000
14.767158 9.353456 -2.050354 5.000000
12.522480 1.837994 -1.943522 7.000000
11.453134 -3.245229 -1.964295 1.000000
10.591351 -8.852603 -1.979324 14.000000
14.581186 9.160953 -2.035093 3.000000
12.465176 1.780717 -1.938052 1.000000
11.441246 -3.289371 -1.960140 1.000000
10.654809 -8.972182 -1.984911 34.000000
14.457542 9.009535 -2.025274 6.000000
12.461494 1.733609 -1.938727 1.000000
11.481874 -3.346661 -1.964901 1.000000
10.660921 -9.044318 -1.979766 40.000000
14.514600 8.971400 -2.040729 6.000000
12.413857 1.678419 -1.932537 1.000000
11.526376 -3.407704 -1.970432 3.000000
10.692995 -9.139138 -1.979409 26.000000
14.457290 8.862910 -2.040099 6.000000
12.458784 1.638018 -1.940829 1.000000
11.500287 -3.445876 -1.963815 1.000000
10.706553 -9.225357 -1.973668 23.000000
14.340007 8.718861 -2.030913 6.000000
12.484924 1.592712 -1.941685 1.000000
11.521005 -3.500349 -1.963161 1.000000
10.733316 -9.310614 -1.971642 27.000000
14.191832 8.557682 -2.020147 6.000000
12.446207 1.541434 -1.937013 1.000000
11.575442 -3.563282 -1.965970 7.000000
10.788796 -9.431581 -1.970629 9.000000
14.123924 8.446300 -2.017721 6.000000
12.427168 1.490650 -1.935381 2.000000
11.595942 -3.616174 -1.967338 1.000000
10.840950 -9.547500 -1.973691 6.000000
14.145034 8.388692 -2.027986 6.000000
12.446262 1.446686 -1.944234 1.000000
11.629361 -3.675652 -1.973203 3.000000
10.951132 -9.709207 -1.989194 6.000000
14.007654 8.237972 -2.015466 6.000000
12.402962 1.393407 -1.934389 1.000000
11.640630 -3.726195 -1.968664 1.000000
11.080130 -9.903300 -2.001342 6.000000
19.840096 27.317574 -2.437867 8.000000
13.976531 8.150872 -2.018146 6.000000
12.461680 1.353772 -1.945001 1.000000
11.631909 -3.772704 -1.963056 1.000000
11.111153 -9.997506 -1.999644 7.000000
19.812283 27.050234 -2.462268 7.000000
13.829004 7.997057 -2.003925 6.000000
12.471363 1.306392 -1.947956 1.000000
11.679632 -3.835551 -1.969068 3.000000
11.160187 -10.115891 -2.001749 7.000000
19.833736 26.882175 -2.494296 4.000000
13.835487 7.933281 -2.011948 6.000000
12.431826 1.256203 -1.941049 1.000000
11.707962 -3.894721 -1.969725 6.000000
11.285706 -10.312492 -2.015382 9.000000
13.764070 7.825436 -2.008609 6.000000
12.416551 1.206515 -1.940156 1.000000
11.755093 -3.958310 -1.975642 4.000000
11.301984 -10.392706 -2.010479 20.000000
17.341803 23.155979 -2.220953 7.000000
13.687739 7.715793 -2.004477 6.000000
12.425471 1.161426 -1.943102 1.000000
11.774202 -4.012852 -1.974634 1.000000
11.254442 -10.425377 -1.992468 29.000000
17.225746 22.834452 -2.231023 7.000000
13.610803 7.606821 -2.000177 6.000000
12.390137 1.110150 -1.939120 1.000000
11.815378 -4.077590 -1.979678 2.000000
11.268181 -10.515104 -1.988034 34.000000
17.224577 22.676102 -2.251124 10.000000
13.550616 7.508138 -1.998269 6.000000
12.452814 1.074151 -1.948361 1.000000
11.807432 -4.118716 -1.973913 1.000000
11.314188 -10.635884 -1.986486 18.000000
17.161369 22.413692 -2.266307 10.000000
13.525961 7.426740 -2.001366 6.000000
12.417476 1.018721 -1.944375 1.000000
11.827978 -4.181539 -1.975771 1.000000
11.373717 -10.778173 -1.987843 28.000000
16.428047 21.309164 -2.183755 7.000000
13.473783 7.333947 -1.997823 6.000000
12.376123 0.974022 -1.939603 1.000000
11.856883 -4.236042 -1.976179 1.000000
11.403775 -10.878660 -1.985417 10.000000
16.309355 20.988049 -2.189939 7.000000
13.412081 7.236766 -1.995548 6.000000
12.424433 0.925475 -1.946549 1.000000
11.850045 -4.287318 -1.971132 1.000000
11.467137 -11.023515 -1.986884 18.000000
16.248800 20.760147 -2.204495 9.000000
13.332373 7.130790 -1.990524 6.000000
12.466824 0.882698 -1.954905 1.000000
11.876538 -4.348546 -1.969257 6.000000
11.535336 -11.170712 -1.985860 9.000000
16.180431 20.532148 -2.213539 9.000000
13.199529 6.997642 -1.977460 6.000000
12.297320 0.827567 -1.927861 1.000000
11.941148 -4.417165 -1.980111 7.000000
11.545413 -11.254901 -1.982581 10.000000
16.096819 20.265497 -2.214187 9.000000
13.167436 6.918922 -1.974123 6.000000
12.424134 0.786014 -1.945005 1.000000
11.911052 -4.460470 -1.966708 7.000000
11.619127 -11.410114 -1.982214 21.000000
15.826674 19.776129 -2.202672 7.000000
13.186778 6.867527 -1.986441 6.000000
12.283381 0.729767 -1.926918 1.000000
12.000439 -4.546560 -1.982042 7.000000
11.653831 -11.532428 -1.984060 11.000000
15.684426 19.472670 -2.196337 4.000000
13.049745 6.741245 -1.972858 6.000000
12.285398 0.689011 -1.929065 1.000000
11.991201 -4.588589 -1.973842 7.000000
11.736817 -11.691837 -1.984245 7.000000
15.367984 18.937298 -2.172320 3.000000
13.079883 6.690434 -1.983781 6.000000
12.342214 0.644668 -1.937584 1.000000
12.024512 -4.654346 -1.979949 7.000000
11.782476 -11.823677 -1.987457 8.000000
15.107948 18.484621 -2.151630 7.000000
13.031525 6.608411 -1.980727 6.000000
12.299753 0.597255 -1.932764 1.000000
12.063567 -4.720375 -1.982273 8.000000
11.841789 -11.970629 -1.986969 7.000000
15.028557 18.250559 -2.155744 7.000000
12.935205 6.500074 -1.970172 6.000000
12.306890 0.550243 -1.933539 1.000000
12.056342 -4.768576 -1.976997 6.000000
11.933877 -12.148242 -1.988432 7.000000
14.795136 17.839827 -2.137790 6.000000
12.818030 6.376874 -1.958591 6.000000
12.308487 0.505119 -1.935689 1.000000
12.063332 -4.822546 -1.969429 7.000000
11.987813 -12.292951 -1.986689 7.000000
14.823626 17.741438 -2.160986 6.000000
12.811223 6.320576 -1.964499 5.000000
12.300465 0.457487 -1.934137 1.000000
12.122962 -4.900455 -1.979887 7.000000
12.057651 -12.455574 -1.993551 7.000000
14.380815 17.089870 -2.111320 6.000000
12.772950 6.238065 -1.964886 5.000000
12.277374 0.411573 -1.930256 1.000000
12.131608 -4.960701 -1.977516 8.000000
12.106297 -12.597895 -1.990678 7.000000
12.723470 6.156246 -1.961334 5.000000
12.323299 0.365747 -1.937241 1.000000
12.146924 -5.019006 -1.971269 6.000000
12.269731 -12.857498 -2.002928 7.000000
12.580312 14.734860 -1.872401 4.000000
12.679096 6.074805 -1.958387 5.000000
12.274842 0.319284 -1.931623 1.000000
12.194174 -5.088435 -1.974734 6.000000
12.316228 -13.001300 -1.999294 7.000000
12.788710 14.868247 -1.916025 6.000000
12.623990 5.991611 -1.956416 5.000000
12.295732 0.272588 -1.934731 1.000000
12.266893 -5.171650 -1.987191 7.000000
12.460331 -13.250356 -2.014487 7.000000
12.800117 14.776860 -1.930665 7.000000
12.609089 5.928012 -1.958166 5.000000
12.336155 0.228251 -1.940947 1.000000
12.262463 -5.222797 -1.982427 7.000000
12.520835 -13.408173 -2.009138 7.000000
12.868762 14.746542 -1.960452 8.000000
12.588475 5.862080 -1.966446 5.000000
12.316508 0.180582 -1.942139 1.000000
12.306871 -5.297630 -1.985710 7.000000
12.644895 -13.640910 -2.023914 7.000000
12.958201 14.744821 -1.986989 6.000000
12.530503 5.784598 -1.961754 5.000000
12.297334 0.135222 -1.939024 1.000000
12.329467 -5.361005 -1.982922 7.000000
12.740989 -13.846017 -2.027468 7.000000
13.060696 14.752052 -2.008298 6.000000
12.508972 5.711217 -1.959518 5.000000
12.278680 0.087866 -1.931623 1.000000
12.392212 -5.442380 -1.988967 6.000000
12.767787 -13.972713 -2.019433 7.000000
13.135970 14.727957 -2.039404 6.000000
12.456101 5.631999 -1.960163 5.000000
12.307880 0.042963 -1.940581 1.000000
12.431922 -5.514262 -1.991297 7.000000
12.838167 -14.153562 -2.018520 8.000000
13.234131 14.744502 -2.064918 6.000000
12.406028 5.559882 -1.956636 5.000000
12.278320 0.000000 -1.935909 1.000000
12.445778 -5.582914 -1.989950 7.000000
12.935078 -14.370902 -2.018535 8.000000
12.939785 14.310698 -2.031219 6.000000
12.409890 5.512268 -1.961609 5.000000
12.263083 -0.044947 -1.935713 1.000000
12.452649 -5.630437 -1.986404 7.000000
13.037692 -14.581865 -2.024829 8.000000
12.843394 14.099868 -2.028159 3.000000
12.362074 5.434293 -1.957957 5.000000
12.297730 -0.092295 -1.939024 1.000000
12.491391 -5.703190 -1.988563 7.000000
13.198755 -14.860891 -2.036451 8.000000
12.753069 13.902911 -2.029532 4.000000
12.305710 5.350675 -1.952786 5.000000
12.257800 -0.136927 -1.932794 1.000000
12.535416 -5.786867 -1.994493 8.000000
13.271272 -15.058601 -2.035307 8.000000
12.738632 13.785401 -2.035752 3.000000
12.258834 5.282024 -1.949695 5.000000
12.281876 -0.184363 -1.936688 1.000000
12.562596 -5.850029 -1.989549 7.000000
13.379954 -15.283799 -2.038249 8.000000
12.626080 13.568272 -2.029823 6.000000
12.208914 5.207543 -1.945805 5.000000
12.271242 -0.229192 -1.935130 1.000000
12.542012 -5.896476 -1.982293 7.000000
13.442729 -15.469543 -2.034760 8.000000
12.557180 13.404820 -2.034302 1.000000
12.095087 5.104190 -1.936231 5.000000
12.274628 -0.272120 -1.940195 1.000000
12.650622 -6.004251 -1.997936 6.000000
13.552341 -15.706080 -2.041357 8.000000
12.418368 13.150434 -2.022421 4.000000
12.095971 5.047456 -1.942463 5.000000
12.259302 -0.321021 -1.933573 1.000000
12.630097 -6.051329 -1.985715 6.000000
13.599889 -15.878477 -2.031485 8.000000
12.370287 13.008254 -2.026219 1.000000
12.020292 4.969140 -1.934614 5.000000
12.296923 -0.364964 -1.944097 1.000000
12.674239 -6.132426 -1.991329 6.000000
13.645480 -16.044729 -2.028096 8.000000
12.093848 12.624574 -1.985708 1.000000
12.016083 4.913461 -1.933201 6.000000
12.242218 -0.408255 -1.929099 1.000000
12.706624 -6.205673 -1.987392 7.000000
13.726234 -16.260067 -2.022707 8.000000
11.893201 12.324376 -1.969560 6.000000
12.014108 4.861333 -1.941566 5.000000
12.289241 -0.457069 -1.941170 1.000000
12.702180 -6.261266 -1.985232 6.000000
13.977509 -16.675468 -2.049142 7.000000
11.689185 12.028650 -1.943641 6.000000
11.957456 4.787483 -1.936458 5.000000
12.326962 -0.503722 -1.947407 1.000000
12.817517 -6.376618 -1.999255 7.000000
13.927212 -16.739708 -2.027746 8.000000
11.658124 11.917360 -1.949589 8.000000
11.900434 4.714118 -1.931267 5.000000
12.295333 -0.549727 -1.942729 1.000000
12.813007 -6.433067 -1.992012 6.000000
14.041275 -16.997131 -2.029694 8.000000
11.672643 11.845039 -1.959456 8.000000
11.899091 4.660807 -1.934975 5.000000
12.293573 -0.594804 -1.940581 1.000000
12.855715 -6.516435 -1.992272 7.000000
14.214084 -17.335331 -2.036227 8.000000
11.711980 11.802268 -1.982674 6.000000
11.841398 4.588221 -1.929648 6.000000
12.310927 -0.643034 -1.943696 1.000000
12.938509 -6.618121 -2.001094 5.000000
14.356049 -17.633652 -2.041363 8.000000
11.680550 11.676473 -1.986947 6.000000
11.819950 4.530154 -1.932476 5.000000
12.278563 -0.686478 -1.941170 1.000000
12.915403 -6.666137 -1.990947 6.000000
14.449169 -17.881493 -2.039643 8.000000
11.506645 11.426592 -1.965266 5.000000
11.757740 4.454609 -1.926232 1.000000
12.315955 -0.736017 -1.943100 1.000000
12.940140 -6.739081 -1.990773 7.000000
14.727742 -18.356949 -2.063162 7.000000
11.466094 11.295269 -1.967684 4.000000
11.760697 4.401824 -1.930536 1.000000
12.317426 -0.781422 -1.948187 1.000000
12.981752 -6.821354 -1.995794 8.000000
12.380803 -15.548085 -1.724882 38.000000
11.347891 11.101042 -1.957613 4.000000
11.658437 4.319528 -1.918052 1.000000
12.294962 -0.827408 -1.942917 1.000000
12.997292 -6.890428 -1.991592 6.000000
11.280238 10.954241 -1.955721 2.000000
11.595115 4.245504 -1.911558 1.000000
12.262287 -0.870367 -1.938245 1.000000
13.056808 -6.983404 -1.988833 6.000000
14.919916 -19.014400 -2.038043 8.000000
11.157859 10.756217 -1.946886 1.000000
11.581466 4.192432 -1.915568 1.000000
12.366868 -0.925528 -1.957541 1.000000
13.100281 -7.071480 -1.994286 6.000000
15.280181 -19.614128 -2.074744 7.000000
11.106379 10.628331 -1.944721 6.000000
11.518172 4.117300 -1.908910 1.000000
12.373921 -0.976022 -1.952602 5.000000
13.105659 -7.136538 -1.991120 8.000000
15.355192 -19.874466 -2.064850 7.000000
10.998306 10.458914 -1.933493 5.000000
11.526874 4.075089 -1.914541 1.000000
12.311369 -1.014342 -1.943278 1.000000
13.150137 -7.223372 -1.991227 7.000000
15.482129 -20.169415 -2.063626 9.000000
10.977396 10.355433 -1.938556 5.000000
11.508459 4.021187 -1.913382 4.000000
12.311966 -1.062002 -1.946212 1.000000
13.233184 -7.332255 -1.997111 6.000000
15.729548 -20.647984 -2.079319 8.000000
10.883305 10.198678 -1.934483 5.000000
11.474854 3.962313 -1.916223 1.000000
12.318168 -1.108036 -1.945609 1.000000
13.271739 -7.417325 -2.001619 7.000000
12.850463 -16.991358 -1.684107 25.000000
10.850400 10.093407 -1.935196 5.000000
11.452271 3.905364 -1.912099 1.000000
12.284316 -1.152558 -1.940947 2.000000
13.297503 -7.495816 -1.998794 7.000000
12.771349 -17.009838 -1.655363 40.000000
10.853049 10.021922 -1.944840 3.000000
11.474599 3.866089 -1.922113 1.000000
12.324591 -1.201922 -1.945779 1.000000
13.253910 -7.535389 -1.985554 6.000000
16.343695 -21.934736 -2.104787 4.000000
10.788073 9.892377 -1.939993 4.000000
11.408753 3.795187 -1.915083 1.000000
12.285823 -1.245782 -1.938190 1.000000
13.356449 -7.658600 -1.994177 7.000000
16.653986 -22.514788 -2.120441 6.000000
10.683479 9.724627 -1.930158 5.000000
11.328135 3.722311 -1.903515 1.000000
12.271013 -1.289735 -1.938793 1.000000
13.355247 -7.723092 -1.987261 6.000000
16.519550 -22.505102 -2.084412 7.000000
10.570229 9.550934 -1.921079 5.000000
11.326030 3.675680 -1.911543 1.000000
12.329804 -1.343800 -1.948883 4.000000
13.424615 -7.832144 -1.996528 6.000000
10.526457 9.441533 -1.919387 3.000000
11.273607 3.610880 -1.904580 1.000000
12.295009 -1.385625 -1.946386 1.000000
13.529532 -7.959965 -2.005318 7.000000
13.312901 -18.411339 -1.648539 9.000000
10.489436 9.339180 -1.918866 5.000000
11.290521 3.570723 -1.911575 1.000000
12.310234 -1.435230 -1.943005 1.000000
13.552658 -8.040583 -2.001920 9.000000
13.249716 -18.459318 -1.620780 35.000000
10.392182 9.184530 -1.909701 5.000000
11.185716 3.490388 -1.895745 1.000000
12.299650 -1.479710 -1.944393 1.000000
13.613690 -8.144399 -2.004078 10.000000
10.366583 9.097652 -1.916322 5.000000
11.173583 3.441713 -1.899915 1.000000
12.280040 -1.520854 -1.939907 1.000000
13.656857 -8.238342 -2.006381 21.000000
10.282845 8.957664 -1.906893 5.000000
11.157432 3.389887 -1.901209 1.000000
12.323720 -1.572147 -1.945483 1.000000
13.652153 -8.297376 -1.995561 35.000000
10.175773 8.799000 -1.893014 5.000000
11.112426 3.331774 -1.895604 1.000000
12.327725 -1.620787 -1.944860 1.000000
13.715612 -8.404938 -2.000772 33.000000
10.070959 8.644059 -1.884148 5.000000
11.123290 3.290646 -1.903702 1.000000
12.291411 -1.666233 -1.942389 4.000000
13.746256 -8.499806 -1.998747 10.000000
13.763462 -19.914072 -1.595130 30.000000
10.029731 8.545030 -1.882295 5.000000
11.125732 3.244962 -1.906128 1.000000
12.339678 -1.716662 -1.948723 5.000000
13.808542 -8.608442 -2.003728 9.000000
13.683667 -19.947126 -1.564263 19.000000
10.014126 8.468586 -1.887545 5.000000
11.032288 3.173879 -1.894287 1.000000
12.347636 -1.763926 -1.953219 1.000000
13.845309 -8.701992 -2.002090 7.000000
9.975610 8.373498 -1.886090 5.000000
11.067487 3.138043 -1.902373 1.000000
12.311152 -1.811367 -1.946405 1.000000
13.898351 -8.806556 -2.002755 8.000000
9.905627 8.253057 -1.883212 5.000000
11.072882 3.095771 -1.909584 1.000000
12.315184 -1.853703 -1.945777 1.000000
14.016689 -8.946821 -2.012292 9.000000
9.877357 8.168358 -1.883558 5.000000
11.055513 3.045196 -1.908672 1.000000
12.362352 -1.909375 -1.949901 1.000000
14.077537 -9.065399 -2.017341 14.000000
14.214067 -21.361521 -1.546862 29.000000
9.820183 8.063519 -1.880872 5.000000
11.003442 2.987507 -1.905960 1.000000
12.345176 -1.953075 -1.950542 1.000000
14.094392 -9.142516 -2.012192 25.000000
14.114564 -21.381491 -1.517627 10.000000
9.737223 7.935826 -1.870602 1.000000
11.018951 2.946336 -1.910766 1.000000
12.356729 -2.007994 -1.951441 5.000000
14.096433 -9.224446 -2.002843 39.000000
9.657072 7.811774 -1.862990 1.000000
10.967043 2.889428 -1.903986 1.000000
12.374033 -2.052946 -1.957481 3.000000
14.087078 -9.285190 -1.999905 115.000000
9.643311 7.739575 -1.865623 1.000000
10.915046 2.830954 -1.899129 1.000000
12.343049 -2.096535 -1.944886 1.000000
14.109031 -9.381119 -1.993360 171.000000
14.753354 -22.866423 -1.516666 6.000000
9.610745 7.658435 -1.867304 1.000000
10.967375 2.801665 -1.912529 1.000000
12.325212 -2.140012 -1.945534 1.000000
14.144439 -9.472452 -1.996765 121.000000
14.616467 -22.837566 -1.482708 37.000000
9.582684 7.578816 -1.871716 4.000000
10.933725 2.748391 -1.912904 1.000000
12.360349 -2.195037 -1.954641 1.000000
14.234268 -9.608366 -2.002251 39.000000
9.535252 7.484658 -1.867909 1.000000
10.880874 2.692744 -1.905943 1.000000
12.352891 -2.240447 -1.950259 1.000000
14.257885 -9.700565 -1.995309 72.000000
9.483118 7.387724 -1.865269 1.000000
10.904852 2.654284 -1.912375 1.000000
12.329288 -2.285098 -1.950145 1.000000
14.354186 -9.843242 -2.004586 32.000000
15.115074 -24.170397 -1.464078 39.000000
9.481483 7.330767 -1.870362 1.000000
10.917999 2.615134 -1.921053 1.000000
12.379756 -2.341417 -1.954967 1.000000
14.393617 -9.955466 -2.000184 49.000000
15.032315 -24.235197 -1.439704 171.000000
9.420259 7.228418 -1.867909 1.000000
10.830721 2.550296 -1.911956 1.000000
12.399446 -2.394491 -1.961771 6.000000
14.438546 -10.057490 -2.004829 65.000000
14.979819 -24.339827 -1.412801 8.000000
9.374665 7.138996 -1.864207 1.000000
10.815342 2.504873 -1.911597 1.000000
12.342779 -2.430507 -1.949705 1.000000
14.492474 -10.174149 -2.001830 27.000000
9.351934 7.067682 -1.867107 1.000000
10.804687 2.458731 -1.914006 1.000000
12.381461 -2.487546 -1.959567 5.000000
14.540832 -10.287864 -2.007407 38.000000
15.577890 -25.722155 -1.418140 36.000000
9.324862 6.993672 -1.869090 1.000000
10.745012 2.403764 -1.909779 2.000000
12.348060 -2.527956 -1.955734 1.000000
14.596931 -10.408047 -2.010900 103.000000
15.486316 -25.773558 -1.381170 29.000000
9.273885 6.902474 -1.864138 1.000000
10.758322 2.363402 -1.914478 1.000000
12.319248 -2.571381 -1.950471 1.000000
14.624674 -10.508894 -2.004102 26.000000
9.285373 6.858283 -1.875855 1.000000
10.727085 2.315359 -1.915290 1.000000
12.290410 -2.612407 -1.947408 1.000000
14.715708 -10.656311 -2.012285 50.000000
9.185482 6.732609 -1.862920 1.000000
10.697021 2.265918 -1.910321 1.000000
12.291074 -2.659670 -1.944550 2.000000
14.742201 -10.758082 -2.005166 13.000000
16.046831 -27.351160 -1.356807 11.000000
9.166814 6.672310 -1.862765 1.000000
10.718411 2.229433 -1.920546 1.000000
12.315164 -2.709918 -1.952099 1.000000
14.771587 -10.862722 -2.004849 25.000000
16.075300 -27.631224 -1.334232 2.000000
9.177360 6.628665 -1.874165 1.000000
10.682482 2.179201 -1.918480 1.000000
12.328775 -2.762586 -1.955924 1.000000
14.788427 -10.958846 -2.002820 32.000000
9.133330 6.541234 -1.877931 1.000000
10.581557 2.118245 -1.914486 4.000000
12.211257 -2.783296 -1.947840 1.000000
14.819571 -11.066298 -2.015784 40.000000
9.017827 6.460892 -1.870340 6.000000
10.496554 2.101229 -1.916456 3.000000
12.130389 -2.767091 -1.957264 2.000000
9.015130 6.509096 -1.866734 1.000000
10.483961 2.138703 -1.915574 1.000000
12.067301 -2.703996 -1.954243 2.000000
14.498540 -10.747949 -2.014826 34.000000
9.009915 6.560513 -1.863093 1.000000
10.460887 2.175868 -1.914796 1.000000
12.037546 -2.651031 -1.954453 1.000000
14.400054 -10.593376 -2.014687 40.000000
16.005814 -27.500740 -1.394831 1.000000
9.051111 6.638978 -1.872365 1.000000
10.442826 2.213977 -1.913032 6.000000
12.007238 -2.598250 -1.956766 4.000000
14.366740 -10.491779 -2.026903 29.000000
16.002718 -27.297800 -1.431350 16.000000
9.020095 6.667213 -1.860932 1.000000
10.435293 2.252378 -1.909306 7.000000
11.987478 -2.545830 -1.956325 8.000000
14.279258 -10.347857 -2.021669 33.000000
9.079195 6.762495 -1.874165 1.000000
10.426568 2.292430 -1.909306 1.000000
11.941022 -2.494609 -1.958301 5.000000
14.137645 -10.166413 -2.017887 13.000000
9.046576 6.792362 -1.862661 5.000000
10.412888 2.331373 -1.908425 1.000000
11.882137 -2.434730 -1.951440 1.000000
14.078352 -10.049407 -2.022764 9.000000
15.490168 -25.800362 -1.487600 7.000000
9.062003 6.856026 -1.862851 1.000000
10.437865 2.377173 -1.914587 4.000000
11.865782 -2.386096 -1.953806 9.000000
13.951272 -9.881708 -2.017439 10.000000
15.553326 -25.701838 -1.521836 29.000000
9.081273 6.923087 -1.861784 1.000000
10.424515 2.416273 -1.909972 1.000000
11.835851 -2.330684 -1.951643 1.000000
13.892523 -9.763827 -2.018781 6.000000
9.107489 6.996002 -1.866231 1.000000
10.395997 2.451763 -1.906457 1.000000
11.842910 -2.289161 -1.957959 1.000000
13.788024 -9.615082 -2.016315 6.000000
9.126008 7.063563 -1.864983 1.000000
10.406412 2.494517 -1.908104 1.000000
11.802062 -2.236423 -1.954141 1.000000
13.670684 -9.458972 -2.008790 6.000000
15.016459 -24.237955 -1.554173 10.000000
9.144413 7.131556 -1.861614 1.000000
10.406970 2.536946 -1.906120 1.000000
11.800521 -2.189228 -1.954630 6.000000
13.575047 -9.322896 -2.007442 6.000000
15.115673 -24.208935 -1.595658 28.000000
9.141527 7.185925 -1.856223 1.000000
10.383910 2.571681 -1.899758 3.000000
11.758571 -2.136894 -1.954936 1.000000
13.505143 -9.202226 -2.006579 6.000000
9.158468 7.253709 -1.858777 1.000000
10.388282 2.615139 -1.902381 1.000000
