VERSION .7
FIELDS x y z intensity
SIZE 4 4 4 4
TYPE F F F F
COUNT 1 1 1 1
WIDTH 1241
HEIGHT 1
VIEWPOINT 0 0 0 1 0 0 0
POINTS 1241
DATA ascii
12.404348 0.974065 -2.108965 2.000000
6.787375 -6.488423 -1.267880 10.000000
11.430432 6.177834 -1.856132 7.000000
12.314432 0.921604 -2.093089 32.000000
6.730110 -6.485585 -1.252072 10.000000
11.440407 6.126583 -1.858541 8.000000
12.322433 0.874636 -2.096081 56.000000
7.012694 -2.605211 -1.251886 1.000000
6.687181 -6.489389 -1.236705 10.000000
11.485446 6.101779 -1.874144 8.000000
12.325700 0.827315 -2.096081 61.000000
6.934054 -2.604959 -1.238215 1.000000
6.646397 -6.497280 -1.225305 10.000000
11.438620 6.018149 -1.871758 7.000000
12.303687 0.780550 -2.094051 65.000000
7.122848 -2.707139 -1.269673 1.000000
6.580909 -6.480601 -1.209404 10.000000
11.409101 5.954396 -1.872860 7.000000
12.291831 0.732422 -2.091539 58.000000
6.708715 -2.577922 -1.191084 1.000000
6.561825 -6.509354 -1.197149 10.000000
11.460737 5.927999 -1.884657 9.000000
12.298990 0.687620 -2.094526 50.000000
6.505556 -6.496479 -1.185912 10.000000
10.919205 13.474475 -1.685248 1.000000
11.492367 5.886004 -1.892863 8.000000
12.361343 0.643504 -2.100263 34.000000
6.850855 -2.691720 -1.213273 1.000000
6.443268 -6.483880 -1.166114 11.000000
10.911190 13.368910 -1.701123 1.000000
11.585317 5.885196 -1.916533 7.000000
12.490525 0.604333 -2.128558 10.000000
6.589142 -2.616811 -1.166073 1.000000
6.405020 -6.488282 -1.154995 10.000000
10.925248 13.291152 -1.711233 1.000000
11.690879 5.882456 -1.937247 9.000000
12.512451 0.557246 -2.131914 1.000000
6.355608 -6.490132 -1.139499 10.000000
10.871008 13.126791 -1.716221 1.000000
11.819427 5.887799 -1.964037 8.000000
12.514127 0.509182 -2.134100 23.000000
6.465282 -2.623964 -1.140103 1.000000
6.311579 -6.492606 -1.129444 10.000000
10.924971 13.098606 -1.738564 1.000000
11.927760 5.887297 -1.992680 8.000000
12.298451 0.455263 -2.101442 41.000000
6.383118 -2.617908 -1.123590 1.000000
6.279357 -6.504736 -1.118120 11.000000
11.051721 13.152269 -1.769231 5.000000
12.040171 5.893208 -2.010576 10.000000
12.261289 0.411034 -2.090427 38.000000
6.378943 -2.643549 -1.118369 1.000000
6.238082 -6.505012 -1.103428 13.000000
11.112425 13.131172 -1.789807 1.000000
12.164803 5.893797 -2.037071 10.000000
12.272694 0.362101 -2.092107 44.000000
6.364733 -2.666342 -1.113956 1.000000
6.176213 -6.490198 -1.087362 12.000000
11.158844 13.088439 -1.813824 4.000000
12.277277 5.895464 -2.064603 8.000000
12.277823 0.315073 -2.099378 43.000000
6.142807 -6.502653 -1.077749 12.000000
11.219624 13.067063 -1.831476 1.000000
12.377845 5.888026 -2.087663 7.000000
12.269040 0.269854 -2.097693 42.000000
6.290790 -2.691039 -1.099618 1.000000
6.092532 -6.496971 -1.063638 9.000000
11.425546 13.208633 -1.875673 1.000000
12.475025 5.878281 -2.102868 8.000000
12.265790 0.222666 -2.092568 39.000000
6.140919 -2.653596 -1.071521 1.000000
6.042368 -6.490994 -1.049609 10.000000
11.388659 13.073478 -1.880483 1.000000
12.488229 5.823357 -2.110981 8.000000
12.301052 0.176061 -2.098453 32.000000
6.136362 -2.678360 -1.067638 1.000000
6.000191 -6.490970 -1.036827 12.000000
11.510159 13.115582 -1.917249 2.000000
12.479888 5.766518 -2.118436 7.000000
12.300835 0.135260 -2.102747 1.000000
6.000036 -2.646331 -1.042159 1.000000
5.949011 -6.478572 -1.023909 10.000000
12.571438 14.224426 -2.105865 2.000000
12.344306 5.643848 -2.101260 5.000000
12.508286 0.085143 -2.138130 1.000000
6.035906 -2.688621 -1.046547 1.000000
5.900380 -6.477616 -1.009158 10.000000
12.386346 13.921687 -2.080286 4.000000
12.334949 5.590190 -2.103762 8.000000
12.578249 0.043907 -2.145534 2.000000
6.022006 -2.708924 -1.042307 1.000000
5.873922 -6.489406 -1.000376 10.000000
12.296303 13.718897 -2.079496 3.000000
12.388465 5.564999 -2.117013 5.000000
12.537772 -0.004377 -2.145373 28.000000
6.013009 -2.730153 -1.038849 1.000000
5.832040 -6.495353 -0.986873 11.000000
12.262764 13.585764 -2.085203 1.000000
12.277823 5.458738 -2.101716 6.000000
12.424320 -0.049875 -2.125977 67.000000
5.855438 -2.684538 -1.008712 1.000000
5.783562 -6.486767 -0.973279 9.000000
12.193793 13.410205 -2.087538 1.000000
12.187905 5.365346 -2.092469 8.000000
12.335732 -0.092580 -2.108644 51.000000
5.837071 -2.702052 -1.003797 1.000000
5.764851 -6.504532 -0.965695 10.000000
12.111346 13.226481 -2.087711 2.000000
12.098992 5.268326 -2.085358 26.000000
12.324668 -0.141976 -2.111262 44.000000
5.805067 -2.713117 -0.997705 1.000000
5.722951 -6.509715 -0.953858 10.000000
12.057488 13.071152 -2.085886 1.000000
12.067332 5.202008 -2.083654 39.000000
12.369120 -0.189991 -2.114542 32.000000
5.750397 -2.714518 -0.986684 1.000000
5.684611 -6.511801 -0.940563 9.000000
11.830043 12.730641 -2.056904 6.000000
12.166829 5.194613 -2.100058 40.000000
12.333928 -0.230363 -2.108644 36.000000
5.750107 -2.740197 -0.982659 1.000000
5.674370 -6.548362 -0.933653 12.000000
11.794662 12.604051 -2.064479 6.000000
12.220479 5.164646 -2.117907 6.000000
12.337143 -0.277815 -2.113795 28.000000
5.695800 -2.739979 -0.972829 1.000000
5.652007 -6.568744 -0.926091 9.000000
12.155978 5.084956 -2.112919 7.000000
12.340911 -0.325313 -2.114639 19.000000
5.704444 -2.768699 -0.972552 1.000000
5.659894 -6.622203 -0.921751 8.000000
12.137898 5.022718 -2.113464 5.000000
12.330521 -0.370269 -2.108644 5.000000
5.583898 -2.735523 -0.949260 1.000000
5.639526 -6.647548 -0.911628 8.000000
12.100387 4.955330 -2.110780 5.000000
12.481332 -0.422772 -2.136940 1.000000
5.511438 -2.727514 -0.934403 1.000000
5.653006 -6.715539 -0.908676 1.000000
12.055102 4.880370 -2.106435 1.000000
12.588045 -0.472583 -2.155493 1.000000
5.625677 -2.809765 -0.952142 1.000000
11.002786 -13.168521 -1.758197 7.000000
11.498968 11.849450 -2.062492 5.000000
11.021983 4.417407 -1.929588 1.000000
12.527048 -0.518468 -2.145373 1.000000
5.558538 -2.801734 -0.938066 2.000000
10.900748 -13.139345 -1.731146 6.000000
11.469400 11.736728 -2.067283 4.000000
10.986697 4.356597 -1.926955 1.000000
12.529889 -0.566788 -2.146216 1.000000
5.548322 -2.823353 -0.933720 1.000000
10.885479 -13.219238 -1.715271 7.000000
11.437488 11.618573 -2.074080 5.000000
10.982649 4.308476 -1.934033 1.000000
12.508410 -0.611763 -2.140658 1.000000
5.428395 -2.787421 -0.911984 2.000000
10.708122 -13.096755 -1.676626 9.000000
11.422566 11.526708 -2.075945 1.000000
10.975166 4.256986 -1.936152 1.000000
12.579795 -0.663682 -2.153294 1.000000
5.525093 -2.860267 -0.925378 1.000000
10.599859 -13.052430 -1.648663 7.000000
11.259744 11.279412 -2.058619 5.000000
11.045019 4.237574 -1.952084 1.000000
12.537538 -0.707543 -2.148746 1.000000
5.471020 -2.857749 -0.915867 2.000000
10.486588 -13.005457 -1.620435 10.000000
11.220560 11.154173 -2.060457 5.000000
10.732779 4.070571 -1.900298 1.000000
12.554406 -0.756864 -2.152120 1.000000
5.433818 -2.866139 -0.907176 1.000000
10.363853 -12.959364 -1.591956 18.000000
11.150124 11.010880 -2.057497 3.000000
10.538871 3.952906 -1.869443 1.000000
12.561760 -0.803527 -2.151609 1.000000
5.466996 -2.910526 -0.910156 3.000000
10.268381 -12.923008 -1.566078 7.000000
10.930718 10.715368 -2.023339 6.000000
10.464814 3.881437 -1.857774 1.000000
12.558582 -0.851754 -2.151609 1.000000
5.343393 -2.869907 -0.888079 1.000000
10.170716 -12.901492 -1.535584 10.000000
10.852770 10.557544 -2.020216 8.000000
10.604486 3.882790 -1.889795 1.000000
12.570341 -0.901053 -2.151937 1.000000
5.359483 -2.903909 -0.888170 4.000000
10.038281 -12.829942 -1.508340 9.000000
10.811189 10.440245 -2.024031 10.000000
10.597827 3.840544 -1.892396 1.000000
12.585862 -0.948545 -2.159709 6.000000
5.340663 -2.919083 -0.882480 5.000000
9.939417 -12.795364 -1.483076 7.000000
10.848048 10.406539 -2.037818 8.000000
10.592994 3.792841 -1.894977 1.000000
12.588167 -0.997342 -2.153941 6.000000
5.335827 -2.939462 -0.878944 5.000000
9.815748 -12.723025 -1.453943 10.000000
10.902537 10.375092 -2.056266 6.000000
10.894040 3.855642 -1.952513 1.000000
12.578764 -1.043004 -2.157506 6.000000
5.337227 -2.968223 -0.878955 4.000000
9.713410 -12.690836 -1.426309 7.000000
10.879514 10.281054 -2.061113 6.000000
10.856268 3.797557 -1.947365 1.000000
12.584862 -1.092180 -2.156986 6.000000
5.309844 -2.978527 -0.869730 6.000000
9.607623 -12.648405 -1.398015 6.000000
10.803832 10.134832 -2.052898 5.000000
10.966994 3.789090 -1.975020 19.000000
12.541880 -1.134779 -2.148056 1.000000
5.302940 -3.001481 -0.868311 5.000000
10.727379 9.996444 -2.045104 5.000000
11.358316 3.877750 -2.045074 34.000000
12.601637 -1.184548 -2.158986 7.000000
5.276282 -3.009538 -0.861249 5.000000
10.733027 9.928457 -2.057443 5.000000
11.362426 3.830503 -2.051766 61.000000
12.592464 -1.232483 -2.155937 8.000000
5.274319 -3.034093 -0.858405 6.000000
10.662007 9.790489 -2.052397 4.000000
11.351991 3.780706 -2.053815 59.000000
12.587487 -1.278590 -2.158145 8.000000
5.297944 -3.073582 -0.859717 5.000000
8.453381 -11.453326 -1.192854 6.000000
10.597456 9.659863 -2.048463 5.000000
11.332974 3.726093 -2.052058 71.000000
12.568154 -1.325402 -2.153417 35.000000
5.321353 -3.113286 -0.860973 4.000000
8.238480 -11.248215 -1.151187 3.000000
10.534382 9.535255 -2.042479 5.000000
11.349534 3.685498 -2.063320 39.000000
12.490085 -1.363475 -2.138626 77.000000
5.280309 -3.115307 -0.853992 6.000000
8.184332 -11.264767 -1.132530 2.000000
11.423266 3.663212 -2.078582 25.000000
12.401862 -1.402052 -2.122185 65.000000
5.290648 -3.147605 -0.853143 3.000000
8.074605 -11.191599 -1.110354 6.000000
11.417421 3.613049 -2.081438 12.000000
12.347680 -1.441781 -2.113803 57.000000
5.334802 -3.200405 -0.857723 4.000000
8.952188 7.925799 -1.757066 1.000000
11.194807 3.497514 -2.042722 35.000000
12.351474 -1.490318 -2.117651 22.000000
5.294004 -3.202376 -0.847544 5.000000
8.084365 -11.371604 -1.090730 9.000000
8.905253 7.826210 -1.757013 7.000000
11.173499 3.443822 -2.046921 68.000000
12.355810 -1.538997 -2.117156 1.000000
5.303066 -3.235735 -0.848768 5.000000
8.884274 7.750246 -1.757773 1.000000
11.157093 3.394038 -2.045818 62.000000
12.530613 -1.607431 -2.150372 6.000000
5.294955 -3.249839 -0.845515 5.000000
7.964044 -11.373833 -1.056196 13.000000
8.855154 7.667871 -1.758980 1.000000
11.136341 3.341062 -2.043829 59.000000
12.540126 -1.657619 -2.146266 6.000000
5.317215 -3.290393 -0.846544 5.000000
8.524231 -12.273901 -1.113124 10.000000
8.779485 7.548882 -1.749038 4.000000
11.138041 3.297124 -2.048180 59.000000
12.553132 -1.706175 -2.151823 6.000000
5.280519 -3.294511 -0.837088 5.000000
8.427305 -12.220637 -1.095332 9.000000
8.764337 7.480161 -1.752890 1.000000
11.112120 3.243096 -2.045275 56.000000
12.508174 -1.749005 -2.140716 6.000000
5.302462 -3.335262 -0.838047 5.000000
8.337461 -12.181115 -1.071044 23.000000
8.726180 7.392488 -1.752084 8.000000
11.198253 3.223742 -2.067330 35.000000
12.555727 -1.802598 -2.147694 7.000000
5.366037 -3.402764 -0.845546 1.000000
8.276002 -12.182340 -1.050519 16.000000
8.694841 7.311368 -1.754607 13.000000
11.237571 3.188387 -2.080726 1.000000
12.572726 -1.854337 -2.154085 7.000000
5.345549 -3.417307 -0.840905 1.000000
8.169805 -12.116796 -1.029584 10.000000
8.690292 7.253336 -1.756404 5.000000
11.153329 3.120361 -2.069254 1.000000
12.536639 -1.898227 -2.146859 6.000000
5.325146 -3.431823 -0.835168 2.000000
8.084433 -12.085505 -1.006550 21.000000
8.574409 7.103456 -1.741643 6.000000
11.158711 3.079908 -2.072415 13.000000
12.598852 -1.950405 -2.156320 6.000000
5.383817 -3.497628 -0.840675 4.000000
8.001485 -12.052328 -0.983697 17.000000
8.606603 7.077094 -1.754858 1.000000
11.012870 2.992131 -2.051306 63.000000
12.580463 -2.001554 -2.156876 7.000000
5.354616 -3.506633 -0.835844 3.000000
7.918755 -12.018548 -0.963537 18.000000
8.573668 6.997499 -1.754780 5.000000
10.985558 2.939461 -2.048199 40.000000
12.602982 -2.052526 -2.157427 6.000000
5.404406 -3.567611 -0.839905 3.000000
7.839714 -11.994040 -0.944191 9.000000
8.536677 6.915333 -1.751839 14.000000
10.958005 2.887047 -2.045064 53.000000
12.629419 -2.106643 -2.161023 6.000000
5.399916 -3.593132 -0.837795 1.000000
7.763121 -11.967873 -0.922489 17.000000
8.479735 6.817882 -1.746700 1.000000
10.948081 2.841562 -2.049409 59.000000
12.640683 -2.156170 -2.166589 6.000000
5.420144 -3.635324 -0.838363 3.000000
7.681303 -11.932766 -0.902789 9.000000
8.464652 6.754825 -1.750116 5.000000
10.908886 2.790781 -2.048357 39.000000
12.545653 -2.185055 -2.151596 33.000000
5.423582 -3.666521 -0.837484 4.000000
7.607955 -11.909962 -0.881714 10.000000
8.433989 6.679905 -1.748339 4.000000
10.880880 2.741165 -2.041198 65.000000
12.479680 -2.220722 -2.139388 147.000000
5.455677 -3.717426 -0.839854 2.000000
7.522083 -11.871218 -0.859563 10.000000
8.317314 6.538032 -1.730546 12.000000
10.871781 2.690494 -2.045438 42.000000
12.480704 -2.274880 -2.136624 34.000000
5.458974 -3.749044 -0.836599 1.000000
7.435833 -11.826205 -0.842184 10.000000
8.328119 6.497282 -1.739187 5.000000
10.981227 2.674904 -2.068247 1.000000
12.477496 -2.321579 -2.135239 70.000000
5.482507 -3.794852 -0.836421 2.000000
7.365984 -11.806371 -0.821873 22.000000
8.319231 6.441437 -1.743708 3.000000
10.923056 2.616345 -2.063489 1.000000
12.459262 -2.363212 -2.135793 32.000000
5.456713 -3.806656 -0.831070 3.000000
7.304157 -11.798783 -0.804984 13.000000
8.341089 6.409599 -1.756561 14.000000
10.955097 2.581601 -2.075864 1.000000
12.463775 -2.418198 -2.138285 40.000000
5.459197 -3.838211 -0.831220 3.000000
7.232084 -11.773994 -0.784628 17.000000
8.261358 6.300308 -1.744217 8.000000
10.863633 2.516057 -2.060713 1.000000
12.460396 -2.464965 -2.134681 70.000000
5.502367 -3.898777 -0.833987 2.000000
7.147748 -11.732902 -0.765706 10.000000
8.178562 6.194378 -1.733438 10.000000
10.823362 2.466955 -2.057439 5.000000
12.451351 -2.508371 -2.136898 65.000000
5.538236 -3.951844 -0.837789 3.000000
7.091664 -11.732824 -0.749680 9.000000
8.152714 6.127908 -1.732343 10.000000
10.826834 2.426037 -2.060401 1.000000
12.442804 -2.554141 -2.132464 50.000000
5.612262 -4.019467 -0.847601 4.000000
6.997209 -11.668364 -0.727325 19.000000
8.177610 6.099844 -1.743865 9.000000
10.791457 2.374630 -2.059900 1.000000
12.447019 -2.604852 -2.137167 90.000000
5.557608 -4.011223 -0.837919 1.000000
6.921080 -11.633288 -0.709414 20.000000
8.142992 6.027697 -1.742681 9.000000
10.775014 2.329640 -2.061090 4.000000
12.553129 -2.675121 -2.157056 35.000000
5.599418 -4.072696 -0.842788 1.000000
6.873632 -11.650505 -0.697086 14.000000
8.131544 5.973213 -1.748228 12.000000
10.719975 2.274690 -2.056796 4.000000
12.615044 -2.738995 -2.169486 32.000000
9.096284 -6.657474 -1.368089 7.000000
6.782839 -11.588857 -0.677878 11.000000
8.135977 5.930681 -1.755358 8.000000
10.693161 2.228075 -2.057966 1.000000
12.608878 -2.788395 -2.172568 8.000000
8.920967 -6.579508 -1.335524 20.000000
6.710157 -11.557027 -0.658275 10.000000
8.072123 5.838949 -1.749497 9.000000
10.638002 2.173995 -2.051616 5.000000
12.545659 -2.822685 -2.163443 8.000000
8.849168 -6.576766 -1.326423 9.000000
6.650175 -11.546349 -0.642354 20.000000
8.050718 5.780768 -1.752959 10.000000
10.595996 2.123059 -2.053651 1.000000
12.481125 -2.858559 -2.158788 6.000000
8.775826 -6.567546 -1.316746 12.000000
6.570934 -11.506071 -0.627180 21.000000
7.992746 5.739141 -1.754508 12.000000
10.476895 2.101098 -2.048034 1.000000
12.251620 -2.805996 -2.141659 1.000000
8.769226 -6.564995 -1.331446 9.000000
6.583396 -11.532567 -0.644822 20.000000
7.971641 5.770505 -1.747638 16.000000
10.469124 2.139483 -2.048034 5.000000
12.250743 -2.758578 -2.148746 1.000000
6.640651 -11.539124 -0.662786 26.000000
7.909434 5.765544 -1.732896 19.000000
10.466049 2.176942 -2.050841 5.000000
12.206747 -2.701700 -2.146016 1.000000
5.565606 -4.098823 -0.857265 1.000000
6.712994 -11.571211 -0.684697 10.000000
7.935053 5.833141 -1.734763 10.000000
10.419109 2.212749 -2.039587 1.000000
12.225928 -2.656744 -2.152076 1.000000
5.519900 -4.034041 -0.854001 1.000000
6.803268 -11.633075 -0.708626 12.000000
7.945222 5.887743 -1.734799 6.000000
10.381044 2.246358 -2.037652 1.000000
12.026190 -2.567217 -2.128507 1.000000
5.432597 -3.941221 -0.847879 2.000000
6.853466 -11.625595 -0.728520 18.000000
7.942169 5.926382 -1.733066 12.000000
10.335068 2.276094 -2.026422 5.000000
11.881293 -2.488625 -2.103337 28.000000
5.377970 -3.871585 -0.843009 4.000000
6.926566 -11.656396 -0.753323 17.000000
7.950769 5.982636 -1.733011 11.000000
10.378963 2.327582 -2.036766 8.000000
11.830992 -2.432858 -2.101526 69.000000
5.363155 -3.831153 -0.845495 4.000000
6.989750 -11.669776 -0.774813 20.000000
7.941768 6.021578 -1.726888 5.000000
10.393886 2.372882 -2.041468 4.000000
11.771210 -2.373492 -2.097912 63.000000
5.371102 -3.791704 -0.855062 1.000000
7.073805 -11.717132 -0.796369 9.000000
7.956658 6.076726 -1.729329 10.000000
10.404948 2.415565 -2.041501 1.000000
11.793966 -2.333129 -2.102591 48.000000
5.315442 -3.723295 -0.848631 4.000000
7.145211 -11.742572 -0.819048 11.000000
7.976101 6.142425 -1.731662 1.000000
10.386038 2.453241 -2.039623 1.000000
11.748212 -2.277238 -2.101471 45.000000
5.296276 -3.679637 -0.851324 1.000000
7.227375 -11.784768 -0.840697 20.000000
7.960773 6.172783 -1.723720 10.000000
10.378101 2.489646 -2.035898 1.000000
11.736768 -2.230417 -2.100097 31.000000
5.291639 -3.650457 -0.853195 4.000000
7.288833 -11.792418 -0.862482 17.000000
7.982005 6.236226 -1.724157 5.000000
10.450027 2.547442 -2.051825 1.000000
11.777687 -2.191371 -2.114521 19.000000
5.271402 -3.608053 -0.855737 4.000000
7.368965 -11.829532 -0.884167 10.000000
8.001547 6.301121 -1.726276 5.000000
10.459931 2.592447 -2.051811 10.000000
11.824028 -2.155186 -2.123572 9.000000
5.243102 -3.560534 -0.853523 4.000000
7.459459 -11.877577 -0.907002 10.000000
8.012116 6.361717 -1.724869 10.000000
10.411572 2.626800 -2.040582 18.000000
11.778169 -2.100132 -2.118178 3.000000
5.264953 -3.544575 -0.860397 1.000000
7.537457 -11.909267 -0.933659 13.000000
8.076884 6.456929 -1.734134 4.000000
10.450393 2.673486 -2.049917 18.000000
11.731346 -2.047448 -2.114825 1.000000
5.255333 -3.512828 -0.863659 1.000000
7.607961 -11.928320 -0.952111 19.000000
8.065627 6.496528 -1.729385 9.000000
10.463565 2.723604 -2.050810 25.000000
11.743610 -2.003153 -2.117779 1.000000
5.250297 -3.483008 -0.867550 4.000000
7.675705 -11.942379 -0.977769 15.000000
8.062080 6.542535 -1.724442 6.000000
10.449936 2.759041 -2.046106 25.000000
11.690470 -1.954216 -2.115553 1.000000
5.171377 -3.403423 -0.857948 4.000000
7.760071 -11.981483 -1.000707 10.000000
8.111773 6.632319 -1.730864 5.000000
10.464170 2.803866 -2.046974 33.000000
11.687807 -1.907668 -2.115863 1.000000
5.253806 -3.430142 -0.873997 4.000000
7.842157 -12.016088 -1.020978 19.000000
8.184011 6.741581 -1.740134 6.000000
10.467895 2.847988 -2.047866 26.000000
11.616587 -1.852359 -2.103845 2.000000
5.244920 -3.396988 -0.876001 4.000000
7.907823 -12.024785 -1.046780 21.000000
8.236124 6.835334 -1.748857 1.000000
10.471273 2.894103 -2.046856 5.000000
11.613791 -1.802061 -2.106187 1.000000
5.210743 -3.347807 -0.874852 3.000000
7.990456 -12.058538 -1.067370 10.000000
8.242473 6.891778 -1.745933 1.000000
10.452332 2.928178 -2.041216 4.000000
11.521304 -1.748604 -2.094650 5.000000
5.247380 -3.344238 -0.884478 3.000000
8.069870 -12.081979 -1.089904 10.000000
8.281044 6.978228 -1.752007 1.000000
10.474097 2.977697 -2.047684 1.000000
11.562243 -1.705302 -2.102881 1.000000
5.263000 -3.327131 -0.891703 5.000000
8.397059 7.126265 -1.771942 1.000000
10.449975 3.012279 -2.039218 2.000000
11.514185 -1.657168 -2.095172 6.000000
5.266244 -3.302228 -0.894625 6.000000
8.239119 -12.150846 -1.139937 6.000000
8.372289 7.158195 -1.760408 1.000000
10.461532 3.063130 -2.040020 1.000000
11.392959 -1.593066 -2.078152 28.000000
5.239962 -3.259052 -0.892522 5.000000
7.780087 -11.388095 -1.090296 9.000000
8.332191 7.176942 -1.747656 1.000000
10.465393 3.105952 -2.037064 1.000000
11.340128 -1.541308 -2.069484 44.000000
5.239702 -3.229792 -0.895747 6.000000
7.944456 -11.533361 -1.126795 9.000000
8.407925 7.296025 -1.757188 1.000000
10.509870 3.163112 -2.048070 15.000000
11.325309 -1.501061 -2.067919 64.000000
5.232701 -3.201580 -0.899291 7.000000
8.518847 -12.279868 -1.218234 13.000000
8.471530 7.405824 -1.766079 1.000000
10.508852 3.202853 -2.046070 35.000000
11.335511 -1.458145 -2.070804 81.000000
5.256548 -3.189752 -0.905760 7.000000
7.901400 -11.305353 -1.141251 8.000000
8.471205 7.460492 -1.763626 1.000000
10.422910 3.218457 -2.025711 61.000000
11.364356 -1.417520 -2.081258 39.000000
5.232408 -3.141462 -0.906659 8.000000
8.471052 7.515666 -1.757171 1.000000
10.359539 3.242512 -2.011880 62.000000
11.491205 -1.390589 -2.105628 21.000000
5.234843 -3.116879 -0.909443 8.000000
7.992907 -11.267925 -1.177072 6.000000
8.514591 7.610250 -1.761772 1.000000
10.365517 3.290127 -2.013627 75.000000
11.501451 -1.342970 -2.108544 1.000000
5.242368 -3.092923 -0.914016 8.000000
8.539429 7.688936 -1.760413 1.000000
10.359653 3.328115 -2.008840 45.000000
11.559239 -1.310878 -2.120428 8.000000
5.226445 -3.060210 -0.913790 9.000000
8.030878 -11.151488 -1.204712 4.000000
8.567015 7.770819 -1.763696 1.000000
10.376109 3.375407 -2.010478 64.000000
11.558930 -1.265909 -2.121561 3.000000
5.224248 -3.033265 -0.915770 9.000000
8.095080 -11.158296 -1.227891 5.000000
8.594577 7.853431 -1.762811 1.000000
10.396764 3.426327 -2.011089 42.000000
11.489965 -1.213727 -2.110116 4.000000
5.234775 -3.013777 -0.919987 10.000000
10.383531 3.466222 -2.011089 22.000000
11.478558 -1.169998 -2.113462 3.000000
5.236362 -2.989191 -0.924796 10.000000
8.462410 -11.490725 -1.303746 9.000000
10.353777 3.498519 -1.997938 1.000000
11.433652 -1.121079 -2.106458 1.000000
5.238118 -2.964792 -0.927482 28.000000
9.323188 -12.567425 -1.448873 7.000000
10.528046 3.600451 -2.028079 1.000000
11.422996 -1.077780 -2.103753 1.000000
5.235457 -2.938001 -0.929389 28.000000
9.416591 -12.601167 -1.475929 10.000000
9.988886 9.399893 -2.025441 2.000000
10.607107 3.673040 -2.046011 1.000000
11.401464 -1.031595 -2.105239 6.000000
5.253971 -2.923122 -0.937216 28.000000
9.528279 -12.658237 -1.506030 19.000000
10.063609 9.539999 -2.032833 4.000000
10.612504 3.720606 -2.043709 1.000000
11.355985 -0.983535 -2.098186 3.000000
5.255930 -2.897840 -0.939866 33.000000
9.609584 -12.669338 -1.531136 7.000000
10.174938 9.713195 -2.047113 4.000000
10.669355 3.784505 -2.051192 24.000000
11.403617 -0.945563 -2.106332 1.000000
5.270273 -2.880610 -0.944832 22.000000
9.740219 -12.748899 -1.564636 10.000000
10.101140 9.706971 -2.026248 2.000000
10.637231 3.819156 -2.041709 47.000000
11.362681 -0.898253 -2.100175 1.000000
5.297584 -2.870370 -0.952147 10.000000
9.813194 -12.747294 -1.585851 9.000000
10.116934 9.800567 -2.022235 3.000000
10.622149 3.861948 -2.039737 51.000000
11.355873 -0.853852 -2.100350 1.000000
5.330232 -2.860441 -0.960273 9.000000
9.933728 -12.801870 -1.623078 7.000000
10.171022 9.925485 -2.025117 5.000000
10.609604 3.899370 -2.033818 45.000000
11.354022 -0.811875 -2.099443 5.000000
5.330230 -2.837714 -0.963975 7.000000
10.046332 -12.863345 -1.652131 15.000000
10.173131 9.997108 -2.017236 5.000000
10.651596 3.959177 -2.038494 40.000000
11.366502 -0.768911 -2.103246 2.000000
5.370563 -2.833973 -0.973732 6.000000
10.120020 -12.860251 -1.673801 7.000000
10.151743 10.049495 -2.007572 5.000000
10.636980 4.000297 -2.034527 37.000000
11.285098 -0.721863 -2.091761 1.000000
5.428922 -2.838172 -0.986717 6.000000
10.250070 -12.932369 -1.708208 7.000000
10.270679 10.234890 -2.022311 6.000000
10.651509 4.050384 -2.029870 27.000000
11.288152 -0.678549 -2.089788 1.000000
5.451822 -2.824749 -0.993389 6.000000
5.370393 -6.727375 -0.900187 7.000000
10.329087 10.376065 -2.023765 1.000000
10.692059 4.110722 -2.038392 1.000000
11.285765 -0.634924 -2.088879 3.000000
5.470457 -2.809019 -0.998206 7.000000
5.353808 -6.656415 -0.903863 9.000000
10.741427 4.177113 -2.044622 5.000000
11.291831 -0.593756 -2.095709 4.000000
5.519676 -2.808776 -1.009741 5.000000
5.323112 -6.571151 -0.905252 11.000000
10.749951 4.225852 -2.042941 1.000000
11.284015 -0.553855 -2.093886 1.000000
5.494540 -2.769476 -1.007600 7.000000
5.337229 -6.539428 -0.911022 10.000000
10.794124 4.291140 -2.048180 1.000000
11.300792 -0.511190 -2.096620 1.000000
5.521678 -2.757822 -1.015141 8.000000
5.362367 -6.523608 -0.923350 9.000000
10.807064 4.342221 -2.045259 1.000000
11.248193 -0.467506 -2.088562 1.000000
5.562222 -2.752646 -1.024071 9.000000
5.382348 -6.499209 -0.933117 8.000000
10.896250 4.426723 -2.058992 1.000000
11.254965 -0.420569 -2.089474 7.000000
5.566879 -2.729596 -1.029750 10.000000
5.423470 -6.502524 -0.945282 9.000000
10.908286 4.478263 -2.057991 1.000000
11.276017 -0.381945 -2.093122 1.000000
5.580797 -2.711093 -1.033818 36.000000
5.451886 -6.490400 -0.955268 10.000000
10.855733 4.503253 -2.049063 1.000000
11.237667 -0.339415 -2.087788 1.000000
5.634953 -2.710709 -1.046402 1.000000
5.497345 -6.496025 -0.969585 10.000000
10.930871 4.583694 -2.055896 1.000000
11.248818 -0.292596 -2.089614 1.000000
5.724480 -2.727985 -1.064577 1.000000
5.530123 -6.486396 -0.980210 10.000000
10.955816 4.641444 -2.057356 1.000000
11.210454 -0.252443 -2.082310 1.000000
5.729308 -2.704562 -1.068172 1.000000
5.571472 -6.488879 -0.992594 9.000000
10.726572 11.575536 -2.018844 6.000000
10.980820 4.699581 -2.056685 6.000000
11.201473 -0.211168 -2.080485 1.000000
5.725575 -2.675965 -1.070091 2.000000
5.610664 -6.486272 -1.005955 10.000000
10.796315 11.736793 -2.023082 5.000000
11.031525 4.771481 -2.063119 1.000000
11.226780 -0.168525 -2.085049 1.000000
5.766149 -2.669221 -1.079261 1.000000
5.668452 -6.507033 -1.021400 10.000000
10.877151 11.907826 -2.028847 5.000000
11.005588 4.808223 -2.057235 1.000000
11.158524 -0.124647 -2.072269 1.000000
5.797782 -2.658105 -1.086787 1.000000
5.703401 -6.501193 -1.034317 10.000000
10.921508 12.044745 -2.028048 6.000000
11.074357 4.888992 -2.062711 1.000000
11.247391 -0.084412 -2.088701 1.000000
5.834180 -2.647729 -1.096299 1.000000
5.733165 -6.487006 -1.043060 10.000000
10.980660 12.195258 -2.026567 6.000000
11.070854 4.936009 -2.058885 7.000000
11.227605 -0.041152 -2.087009 1.000000
5.842404 -2.628132 -1.099654 1.000000
5.786909 -6.504220 -1.058159 10.000000
10.950293 12.251538 -2.014679 5.000000
11.098293 4.997087 -2.063009 4.000000
11.109340 0.000000 -2.067018 1.000000
5.945636 -2.648412 -1.123098 1.000000
5.818521 -6.493962 -1.072144 10.000000
11.045294 12.449365 -2.019904 4.000000
11.117672 5.052561 -2.063299 21.000000
11.159152 0.038953 -2.072269 1.000000
5.964419 -2.629379 -1.127074 1.000000
5.858151 -6.490173 -1.084351 10.000000
11.132272 12.627083 -2.025169 6.000000
11.140390 5.112233 -2.064379 34.000000
11.059900 0.079144 -2.057872 54.000000
5.959568 -2.601194 -1.130193 1.000000
5.904497 -6.493510 -1.097851 10.000000
11.208282 12.807628 -2.029444 1.000000
11.082615 5.134977 -2.048378 39.000000
11.005445 0.121016 -2.047811 86.000000
5.995647 -2.590822 -1.138750 1.000000
5.946448 -6.493959 -1.110796 9.000000
11.220264 12.911988 -2.021596 3.000000
11.045921 5.169587 -2.038685 34.000000
10.985240 0.162981 -2.044152 56.000000
6.077461 -2.598528 -1.155951 1.000000
5.972781 -6.474908 -1.120647 10.000000
11.283198 13.090177 -2.024038 1.000000
11.041561 5.216965 -2.032633 13.000000
10.984570 0.203243 -2.044152 57.000000
6.317493 -2.673812 -1.204671 1.000000
6.033804 -6.490874 -1.138416 10.000000
11.186187 13.064987 -1.996141 1.000000
11.050037 5.270597 -2.031149 1.000000
10.998450 0.245749 -2.046896 67.000000
6.084832 -6.502393 -1.155030 9.000000
11.116344 13.075526 -1.970563 1.000000
11.222103 5.405659 -2.057642 1.000000
11.012168 0.288364 -2.049640 67.000000
6.277081 -2.601336 -1.200544 1.000000
6.121534 -6.493742 -1.165391 9.000000
11.033724 13.070524 -1.942823 1.000000
11.247551 5.468797 -2.059243 4.000000
11.006481 0.328587 -2.046804 44.000000
6.267770 -2.570600 -1.200612 1.000000
6.184276 -6.514589 -1.182567 13.000000
10.907051 13.016963 -1.913896 1.000000
11.290731 5.541050 -2.061836 1.000000
11.010051 0.371012 -2.047717 36.000000
6.299820 -2.555531 -1.208534 1.000000
6.207108 -6.490829 -1.193540 9.000000
10.977450 13.194265 -1.913086 1.000000
11.236259 5.565510 -2.046611 5.000000
11.116616 0.417342 -2.067820 1.000000
6.495848 -2.607364 -1.248079 1.000000
6.254200 -6.492268 -1.206019 10.000000
11.139360 13.489124 -1.928271 1.000000
11.286705 5.644571 -2.050689 1.000000
11.247992 0.463564 -2.090527 1.000000
6.477756 -2.571266 -1.246462 1.000000
6.300092 -6.494383 -1.220136 9.000000
11.297742 5.701951 -2.049677 8.000000
11.123354 0.501218 -2.067704 1.000000
6.343582 -6.491437 -1.235234 9.000000
11.361613 5.786534 -2.055965 9.000000
11.170448 0.546326 -2.076833 1.000000
6.614472 -2.569570 -1.276781 1.000000
6.390746 -6.491929 -1.249495 9.000000
11.363556 5.840075 -2.051025 8.000000
11.114933 0.580564 -2.064849 1.000000
6.811994 -2.616243 -1.316904 1.000000
6.431321 -6.485427 -1.259269 10.000000
11.256388 5.834757 -2.028537 10.000000
11.127348 0.624063 -2.067585 1.000000
6.842980 -2.602138 -1.325178 1.000000
6.505160 -6.514250 -1.282368 9.000000
11.173501 5.848816 -2.004272 8.000000
11.160069 0.672804 -2.068115 1.000000
7.215120 -2.714860 -1.399570 1.000000
6.535379 -6.496712 -1.290181 9.000000
11.059188 5.835783 -1.978278 9.000000
11.117804 0.707266 -2.064728 1.000000
6.857290 -2.546117 -1.331948 1.000000
6.586374 -6.499584 -1.305418 10.000000
10.955503 5.832504 -1.959101 1.000000
11.144797 0.751960 -2.068246 2.000000
6.614948 -6.482361 -1.318131 9.000000
10.904794 5.856905 -1.945003 7.000000
11.156540 0.795796 -2.070977 1.000000
7.110006 -2.582211 -1.384232 1.000000
6.655409 -6.474363 -1.331378 9.000000
10.761381 5.835660 -1.910452 3.000000
11.217645 0.841490 -2.080848 1.000000
6.713853 -6.483493 -1.346620 9.000000
10.689074 5.847248 -1.892695 8.000000
11.209791 0.884198 -2.077976 1.000000
9.466017 -3.396782 -1.845808 1.000000
6.779241 -6.498787 -1.366662 9.000000
10.591584 5.842046 -1.872547 9.000000
11.187597 0.923720 -2.070423 1.000000
9.420711 -3.345303 -1.840212 1.000000
6.809490 -6.480058 -1.374665 9.000000
10.496073 5.844439 -1.849060 8.000000
11.164731 0.965007 -2.064840 1.000000
9.530317 -3.343073 -1.862746 1.000000
6.868103 -6.488033 -1.391795 9.000000
10.454158 5.871399 -1.836887 10.000000
11.214453 1.012702 -2.076771 1.000000
7.376408 -2.542781 -1.444677 1.000000
6.925533 -6.496688 -1.410684 9.000000
10.474459 5.928577 -1.835299 4.000000
11.196699 1.052485 -2.070125 1.000000
7.446355 -2.549457 -1.460169 1.000000
6.963052 -6.484069 -1.420266 9.000000
10.458061 5.970012 -1.827646 1.000000
11.162853 1.092560 -2.066652 1.000000
7.014537 -6.484171 -1.437843 9.000000
10.462921 6.023739 -1.823720 8.000000
11.242822 1.143987 -2.076137 1.000000
7.084494 -6.500847 -1.457587 8.000000
10.454699 6.070132 -1.817520 9.000000
11.219350 1.183161 -2.070554 1.000000
7.107519 -6.474150 -1.464300 9.000000
10.509210 6.155858 -1.822399 8.000000
11.219972 1.226805 -2.069487 1.000000
7.185047 -6.496746 -1.485737 9.000000
10.483412 6.192465 -1.813159 12.000000
11.210872 1.267408 -2.066616 1.000000
7.235738 -6.496817 -1.503683 8.000000
10.487768 6.247004 -1.804795 13.000000
11.225821 1.312772 -2.068247 1.000000
7.289357 -6.494580 -1.516612 9.000000
10.533999 6.326963 -1.805773 1.000000
11.245471 1.358860 -2.070771 1.000000
8.102529 -2.537625 -1.599714 1.000000
7.340388 -6.494226 -1.533016 9.000000
10.681086 6.468695 -1.826134 14.000000
11.231728 1.398986 -2.063046 1.000000
8.336554 -2.577406 -1.647197 1.000000
7.397871 -6.494614 -1.546844 9.000000
10.704842 6.536828 -1.825337 3.000000
11.260783 1.446535 -2.067341 3.000000
8.354960 -2.547991 -1.653625 1.000000
7.441401 -6.486976 -1.563562 9.000000
10.736673 6.610413 -1.825895 6.000000
11.270393 1.489779 -2.068044 3.000000
8.434250 -2.538421 -1.670651 1.000000
7.508899 -6.497534 -1.581614 8.000000
10.766590 6.688583 -1.819727 8.000000
11.274697 1.534419 -2.067848 5.000000
8.504311 -2.523936 -1.687409 1.000000
7.573022 -6.504634 -1.597236 9.000000
10.812018 6.766599 -1.826644 7.000000
11.273236 1.578331 -2.070728 1.000000
8.574656 -2.509029 -1.702674 4.000000
7.614104 -6.491576 -1.613411 9.000000
10.918268 6.888915 -1.837352 8.000000
11.229490 1.614193 -2.057630 2.000000
8.701187 -2.511469 -1.729236 1.000000
7.674442 -6.494596 -1.630145 9.000000
10.919627 6.945858 -1.828028 8.000000
11.252767 1.661664 -2.060998 3.000000
8.832997 -2.512812 -1.756824 6.000000
7.746446 -6.506954 -1.647611 9.000000
10.917999 7.006540 -1.820903 9.000000
11.310554 1.712580 -2.068594 1.000000
8.921635 -2.502719 -1.777647 5.000000
7.787638 -6.493022 -1.664019 9.000000
10.978407 7.096815 -1.830240 8.000000
11.275688 1.747584 -2.061264 1.000000
9.029968 -2.495748 -1.800700 4.000000
7.851844 -6.497919 -1.683600 9.000000
11.115741 7.243495 -1.843385 9.000000
11.288689 1.794012 -2.062824 1.000000
9.133624 -2.486687 -1.822880 5.000000
7.924477 -6.509238 -1.699563 10.000000
11.115297 7.301385 -1.835909 7.000000
11.380245 1.851352 -2.074548 1.000000
9.294423 -2.493911 -1.853135 1.000000
7.954542 -6.485254 -1.711947 12.000000
11.153303 7.382210 -1.832160 7.000000
11.373766 1.895154 -2.070523 53.000000
8.034593 -6.501643 -1.733307 13.000000
11.172831 7.454169 -1.827904 9.000000
11.235440 1.918491 -2.044673 122.000000
10.437218 -2.716747 -2.086626 1.000000
8.107160 -6.511338 -1.753132 15.000000
11.413744 7.675502 -1.862129 7.000000
11.229377 1.957820 -2.040695 50.000000
10.418335 -2.669160 -2.084682 1.000000
8.148151 -6.497602 -1.764565 9.000000
11.411487 7.734874 -1.854124 6.000000
11.256395 2.005069 -2.044867 26.000000
10.370688 -2.614560 -2.076997 5.000000
8.222729 -6.503246 -1.788225 12.000000
11.490521 7.850062 -1.861737 6.000000
11.331992 2.063458 -2.053801 1.000000
10.288992 -2.553892 -2.062587 27.000000
8.296168 -6.512044 -1.804677 1.000000
11.532938 7.941196 -1.855903 5.000000
11.407333 2.120403 -2.064672 1.000000
10.241507 -2.500398 -2.051129 37.000000
5.301968 -4.105222 -1.159446 1.000000
11.566170 8.026729 -1.853472 5.000000
11.476845 2.178947 -2.076649 2.000000
10.231248 -2.456305 -2.050982 70.000000
5.230240 -4.019109 -1.146461 1.000000
11.635231 8.138001 -1.859223 5.000000
11.435658 2.214583 -2.066457 1.000000
10.229933 -2.416368 -2.052738 67.000000
5.220639 -3.981383 -1.147053 1.000000
13.685633 9.646998 -2.177636 6.000000
11.456758 2.264344 -2.067621 1.000000
10.234007 -2.375880 -2.053613 65.000000
5.297925 -4.008243 -1.166619 4.000000
13.760877 9.775731 -2.180317 6.000000
11.507364 2.318202 -2.071935 4.000000
10.208867 -2.328768 -2.050554 42.000000
5.294626 -3.978208 -1.168940 3.000000
13.772879 9.856778 -2.169628 6.000000
11.581084 2.379362 -2.082583 1.000000
10.231696 -2.294556 -2.053437 46.000000
5.230939 -3.897602 -1.156112 3.000000
13.850834 9.989536 -2.172515 6.000000
11.558114 2.420932 -2.075859 3.000000
10.230149 -2.252988 -2.055172 45.000000
5.256251 -3.886582 -1.164435 5.000000
13.867820 10.079259 -2.165758 6.000000
11.588047 2.471572 -2.080716 1.000000
10.281180 -2.222870 -2.067507 22.000000
5.214086 -3.825925 -1.157803 5.000000
14.080453 10.312883 -2.189382 6.000000
11.623645 2.523741 -2.080196 1.000000
10.346492 -2.197327 -2.080925 7.000000
5.242665 -3.818814 -1.165856 5.000000
14.040402 10.362830 -2.170486 6.000000
11.609768 2.567447 -2.075184 1.000000
10.335643 -2.153581 -2.077065 4.000000
5.240014 -3.787565 -1.166832 5.000000
14.180881 10.543177 -2.182221 6.000000
11.581308 2.607837 -2.067602 1.000000
10.333510 -2.111769 -2.078816 4.000000
5.218338 -3.758048 -1.162861 6.000000
14.227677 10.659163 -2.173372 6.000000
11.275004 2.582321 -2.008354 1.000000
10.316783 -2.067115 -2.077654 4.000000
5.195556 -3.712799 -1.158197 6.000000
14.308866 10.802094 -2.175930 5.000000
11.093411 2.583559 -1.973586 1.000000
10.310206 -2.026520 -2.072915 7.000000
5.148115 -3.650467 -1.150321 173.000000
14.537936 11.054903 -2.193980 6.000000
11.012831 2.609412 -1.952881 1.000000
10.303460 -1.984134 -2.070012 5.000000
5.149366 -3.621721 -1.152026 178.000000
14.605543 11.191035 -2.190814 5.000000
11.062935 2.660060 -1.955140 1.000000
10.311003 -1.944557 -2.070012 4.000000
5.154045 -3.596849 -1.153517 155.000000
14.774855 11.406953 -2.199342 5.000000
11.025237 2.695819 -1.942136 1.000000
10.342868 -1.909470 -2.073014 1.000000
14.963747 11.548619 -2.203750 5.000000
11.018756 2.692196 -1.924614 1.000000
10.421527 -1.927753 -2.077388 9.000000
5.154937 -3.580106 -1.146236 161.000000
15.025077 11.508329 -2.213252 5.000000
10.996109 2.641962 -1.914811 1.000000
10.488157 -1.981758 -2.082500 5.000000
5.155179 -3.608354 -1.140146 161.000000
15.065613 11.452008 -2.229767 5.000000
11.043446 2.610560 -1.925450 1.000000
10.496349 -2.023178 -2.079776 4.000000
5.149975 -3.634254 -1.137528 170.000000
14.809257 11.171738 -2.195599 6.000000
11.135016 2.587102 -1.939669 1.000000
10.528458 -2.071326 -2.079924 6.000000
5.177857 -3.682432 -1.138646 12.000000
14.765711 11.054204 -2.192915 6.000000
11.298207 2.581409 -1.966435 1.000000
10.583349 -2.124368 -2.090410 5.000000
5.261316 -3.770900 -1.153036 6.000000
14.653154 10.886361 -2.186415 6.000000
11.793134 2.646886 -2.055133 1.000000
10.586539 -2.165403 -2.084767 19.000000
5.232309 -3.779216 -1.143897 6.000000
14.627487 10.784314 -2.192761 6.000000
12.042504 2.660940 -2.097040 1.000000
10.602889 -2.211197 -2.085723 36.000000
5.211234 -3.811254 -1.133757 5.000000
14.509752 10.615645 -2.178816 6.000000
12.033916 2.606222 -2.095837 6.000000
10.518540 -2.235785 -2.064965 56.000000
5.261464 -3.877668 -1.141890 5.000000
14.575133 10.581684 -2.198745 6.000000
11.984821 2.549639 -2.090046 1.000000
10.544576 -2.281744 -2.067799 42.000000
5.236467 -3.888944 -1.131341 4.000000
14.465484 10.425161 -2.192495 6.000000
11.969526 2.502745 -2.085842 1.000000
10.551288 -2.321782 -2.068737 60.000000
5.249894 -3.930282 -1.131600 5.000000
14.405787 10.302126 -2.187123 6.000000
11.958949 2.454820 -2.084610 1.000000
10.562870 -2.366889 -2.064942 70.000000
5.327967 -4.016369 -1.146496 2.000000
14.352864 10.184977 -2.189000 6.000000
12.001393 2.415546 -2.094775 1.000000
10.593139 -2.414480 -2.068645 59.000000
5.265826 -4.002777 -1.128255 3.000000
14.364506 10.114283 -2.197563 4.000000
11.996075 2.366585 -2.092245 1.000000
10.608418 -2.460850 -2.069520 30.000000
5.314515 -4.070607 -1.135865 1.000000
14.278531 9.975669 -2.188065 6.000000
11.989793 2.319723 -2.091846 1.000000
10.628545 -2.510523 -2.067497 8.000000
5.308461 -4.096928 -1.129346 1.000000
14.211504 9.851524 -2.187576 6.000000
11.944635 2.263440 -2.086804 1.000000
10.772943 -2.584366 -2.095325 1.000000
5.314936 -4.130121 -1.128800 4.000000
14.164207 9.742071 -2.190028 5.000000
11.986407 2.225877 -2.094853 1.000000
10.834325 -2.647134 -2.105369 3.000000
5.481706 -4.295117 -1.160375 1.000000
14.124813 9.638907 -2.190594 6.000000
11.970623 2.175431 -2.090620 1.000000
10.865067 -2.692857 -2.104975 1.000000
14.133821 9.569317 -2.201678 6.000000
11.968454 2.129751 -2.091048 3.000000
10.869656 -2.738337 -2.103835 1.000000
8.203533 -6.485737 -1.731255 26.000000
11.899834 7.993342 -1.856736 6.000000
11.771939 2.048181 -2.059619 37.000000
10.878329 -2.787010 -2.103604 1.000000
8.150014 -6.492108 -1.715630 30.000000
11.866081 7.907710 -1.857058 5.000000
11.798440 2.008268 -2.065105 74.000000
10.906309 -2.838848 -2.107035 1.000000
8.108088 -6.507429 -1.702496 15.000000
11.988744 7.926152 -1.884452 7.000000
11.785913 1.959600 -2.065876 97.000000
8.032069 -6.494962 -1.678566 10.000000
11.892258 7.799874 -1.874880 7.000000
11.880194 1.930556 -2.083311 32.000000
7.971074 -6.494102 -1.661574 10.000000
11.803609 7.680007 -1.863956 7.000000
11.990066 1.901185 -2.099100 1.000000
9.131016 -2.487689 -1.754017 1.000000
7.921626 -6.502267 -1.647047 9.000000
11.688455 7.544250 -1.856218 7.000000
11.977440 1.852065 -2.097808 1.000000
9.066140 -2.502339 -1.741441 1.000000
7.847841 -6.485381 -1.627056 10.000000
11.731901 7.511521 -1.866158 8.000000
11.934711 1.800694 -2.093493 4.000000
9.000225 -2.524765 -1.722361 1.000000
7.796708 -6.495972 -1.609135 10.000000
11.607392 7.371960 -1.854259 7.000000
11.911930 1.750504 -2.090467 1.000000
8.850471 -2.514444 -1.691968 2.000000
7.759001 -6.512883 -1.595396 9.000000
11.599150 7.307202 -1.863270 7.000000
11.927657 1.708178 -2.094281 1.000000
8.746248 -2.521168 -1.673882 5.000000
7.675788 -6.491138 -1.574178 10.000000
11.562280 7.224914 -1.857928 9.000000
11.997920 1.671252 -2.103298 1.000000
8.591287 -2.512268 -1.639600 1.000000
7.634184 -6.504096 -1.561559 9.000000
11.511512 7.134658 -1.857596 8.000000
11.925497 1.616629 -2.091713 1.000000
8.455516 -2.506243 -1.610659 1.000000
7.577785 -6.504130 -1.544179 10.000000
11.485841 7.060610 -1.858855 9.000000
11.955673 1.573994 -2.098099 1.000000
8.413392 -2.528941 -1.601304 1.000000
7.504111 -6.486523 -1.521365 9.000000
11.383670 6.940443 -1.847677 8.000000
11.935308 1.531066 -2.100114 1.000000
8.286955 -2.524090 -1.575865 1.000000
7.453331 -6.485937 -1.510128 9.000000
11.301982 6.833944 -1.839739 8.000000
11.917176 1.478027 -2.095816 1.000000
8.173693 -2.527054 -1.551699 1.000000
7.409840 -6.500544 -1.496029 9.000000
11.249134 6.745808 -1.838769 7.000000
11.946713 1.439365 -2.100114 1.000000
8.132915 -2.544025 -1.542478 1.000000
7.339167 -6.486299 -1.474310 8.000000
11.255655 6.693752 -1.845136 9.000000
11.917420 1.387325 -2.098284 1.000000
8.015974 -2.541277 -1.517592 1.000000
7.290449 -6.490990 -1.460583 9.000000
11.227830 6.621619 -1.845865 8.000000
11.922660 1.341555 -2.098284 1.000000
7.260380 -6.512080 -1.448890 9.000000
11.118444 6.502302 -1.833125 9.000000
11.921782 1.301436 -2.099516 1.000000
7.829457 -2.546967 -1.478440 1.000000
7.171522 -6.479967 -1.425544 8.000000
11.076866 6.423618 -1.831497 7.000000
11.916968 1.250421 -2.099883 1.000000
10.115773 -3.331767 -1.908622 1.000000
7.126691 -6.487064 -1.412758 10.000000
11.112096 6.389739 -1.842570 7.000000
11.931118 1.205608 -2.103703 1.000000
10.010782 -3.339850 -1.883615 1.000000
7.089365 -6.500761 -1.399785 9.000000
11.113650 6.333974 -1.850177 9.000000
11.929784 1.165521 -2.104931 1.000000
10.069367 -3.400459 -1.891229 1.000000
7.023899 -6.486008 -1.382802 10.000000
11.049508 6.243876 -1.844723 8.000000
11.914193 1.117831 -2.103560 1.000000
7.369376 -2.534603 -1.383947 1.000000
6.968522 -6.482353 -1.366394 9.000000
10.989743 6.157072 -1.835456 10.000000
11.874067 1.070178 -2.095769 1.000000
6.949368 -6.512209 -1.357132 10.000000
11.006225 6.113412 -1.847920 9.000000
11.877725 1.024545 -2.097850 7.000000
7.352188 -2.589114 -1.374425 1.000000
6.872312 -6.487471 -1.338305 9.000000
11.018760 6.067636 -1.855250 6.000000
11.905746 0.980922 -2.104267 31.000000
6.817208 -6.482870 -1.322145 10.000000
10.970325 5.988669 -1.852303 1.000000
11.874895 0.934575 -2.098196 38.000000
6.787245 -6.501915 -1.310911 10.000000
10.961185 5.931636 -1.851523 1.000000
11.878032 0.888944 -2.100275 41.000000
6.721253 -6.479313 -1.293786 9.000000
10.994495 5.897667 -1.864616 8.000000
11.866405 0.840187 -2.099746 25.000000
6.952370 -2.588326 -1.290742 1.000000
6.674843 -6.486469 -1.279921 9.000000
11.055203 5.875681 -1.880008 9.000000
11.839788 0.796776 -2.094532 32.000000
6.641358 -6.501428 -1.268146 10.000000
11.141114 5.869074 -1.899937 13.000000
11.862050 0.752533 -2.100083 30.000000
6.576091 -6.484907 -1.250363 9.000000
11.240252 5.868769 -1.922217 8.000000
11.864729 0.709051 -2.100083 24.000000
6.686700 -2.572141 -1.234922 1.000000
6.529573 -6.484146 -1.237638 9.000000
11.326342 5.860990 -1.942362 9.000000
11.940736 0.667591 -2.115219 1.000000
6.594713 -2.565869 -1.215929 1.000000
6.513684 -6.515958 -1.229323 10.000000
11.461188 5.877613 -1.968681 10.000000
11.893933 0.621253 -2.106511 1.000000
6.700511 -2.635350 -1.233328 1.000000
6.448763 -6.498477 -1.211801 10.000000
11.561755 5.873227 -1.991332 8.000000
11.900782 0.575799 -2.109461 1.000000
6.622706 -2.632818 -1.216934 1.000000
6.394478 -6.491185 -1.196355 10.000000
11.651953 5.865419 -2.017136 9.000000
11.897250 0.529848 -2.112747 1.000000
6.341448 -6.482460 -1.181001 11.000000
10.853797 13.124649 -1.790050 1.000000
11.765593 5.868672 -2.037771 8.000000
11.869967 0.485047 -2.105433 15.000000
6.389287 -2.595720 -1.170159 1.000000
6.297777 -6.485198 -1.167661 10.000000
10.970640 13.167372 -1.819497 1.000000
11.883508 5.873196 -2.061560 8.000000
11.719224 0.433821 -2.078384 83.000000
6.557690 -2.693517 -1.199067 1.000000
6.261042 -6.494832 -1.155653 10.000000
10.981318 13.077752 -1.834027 1.000000
11.970210 5.861555 -2.082391 9.000000
11.686292 0.389716 -2.072277 52.000000
6.256004 -2.599000 -1.142154 1.000000
6.225446 -6.503186 -1.143684 9.000000
11.043982 13.054915 -1.854604 2.000000
11.986544 5.812599 -2.093245 8.000000
11.691899 0.344965 -2.077233 55.000000
6.297921 -2.640937 -1.147723 1.000000
6.168218 -6.490864 -1.128007 10.000000
11.206113 13.162483 -1.893195 1.000000
11.970833 5.750884 -2.096308 7.000000
11.682933 0.299807 -2.077524 55.000000
6.297367 -2.669183 -1.145799 1.000000
6.128170 -6.496238 -1.115531 9.000000
11.224977 13.077917 -1.908809 2.000000
11.933199 5.679066 -2.090787 6.000000
11.674832 0.256784 -2.071697 52.000000
6.078815 -2.605383 -1.103181 1.000000
6.099468 -6.511197 -1.104949 10.000000
11.306699 13.089697 -1.937098 3.000000
11.880814 5.600821 -2.089749 7.000000
11.689775 0.212209 -2.078399 37.000000
6.206481 -2.684498 -1.124321 1.000000
6.029034 -6.483473 -1.087075 10.000000
11.428277 13.132835 -1.968129 1.000000
11.843076 5.527551 -2.086379 6.000000
11.705241 0.169577 -2.081024 36.000000
6.047161 -2.643197 -1.096106 1.000000
5.988911 -6.487848 -1.077864 10.000000
11.980181 13.670402 -2.074225 4.000000
11.819690 5.468976 -2.088378 6.000000
11.705762 0.128717 -2.081024 8.000000
5.988317 -2.643660 -1.083668 1.000000
5.959319 -6.496623 -1.065277 14.000000
11.967501 13.545842 -2.084972 1.000000
11.746296 5.377874 -2.078518 7.000000
11.844034 0.080621 -2.105527 1.000000
5.988634 -2.670070 -1.078435 1.000000
5.907333 -6.492075 -1.049755 12.000000
11.867851 13.352994 -2.076499 4.000000
11.634234 5.275074 -2.064404 10.000000
11.849174 0.037225 -2.106403 1.000000
5.965354 -2.687196 -1.072575 1.000000
5.860935 -6.488702 -1.036443 10.000000
11.866567 13.258056 -2.087051 6.000000
11.611070 5.215786 -2.063890 24.000000
11.863631 -0.004141 -2.111099 1.000000
5.862581 -2.664321 -1.052217 1.000000
5.835656 -6.506229 -1.026703 9.000000
11.630981 12.899392 -2.055729 3.000000
11.614933 5.166444 -2.072583 27.000000
11.863169 -0.047622 -2.113169 1.000000
5.799123 -2.661170 -1.041428 1.000000
5.776036 -6.487438 -1.012706 9.000000
11.504032 12.669394 -2.046666 6.000000
11.718596 5.161189 -2.094575 22.000000
11.956423 -0.093907 -2.129829 1.000000
5.771610 -2.675420 -1.033765 1.000000
5.758481 -6.511068 -1.004183 13.000000
11.421622 12.486373 -2.041826 3.000000
11.771712 5.135596 -2.107757 7.000000
11.942020 -0.133399 -2.123030 20.000000
5.793547 -2.711430 -1.036030 1.000000
5.712569 -6.500193 -0.989021 14.000000
11.421888 12.395133 -2.054633 6.000000
11.707581 5.056621 -2.102085 5.000000
11.876693 -0.178281 -2.115799 32.000000
5.757444 -2.720302 -1.026788 2.000000
5.654348 -6.486270 -0.975834 10.000000
11.311955 12.190169 -2.041921 6.000000
11.671265 4.990259 -2.094543 5.000000
11.797908 -0.222412 -2.097651 37.000000
5.721506 -2.729018 -1.016481 1.000000
5.619550 -6.491963 -0.961593 9.000000
11.273523 12.059800 -2.047467 5.000000
11.617682 4.909891 -2.092525 1.000000
11.771581 -0.269190 -2.097386 45.000000
5.769128 -2.778975 -1.024537 1.000000
5.592916 -6.509255 -0.955045 9.000000
11.344682 12.051320 -2.070339 1.000000
11.591944 4.853770 -2.091740 1.000000
11.814857 -0.311446 -2.105278 68.000000
5.652813 -2.748517 -1.002288 4.000000
5.551558 -6.506936 -0.941278 9.000000
11.380450 12.000878 -2.086418 1.000000
11.562745 4.791811 -2.092270 1.000000
11.808716 -0.354600 -2.104401 38.000000
5.591088 -2.741466 -0.988493 9.000000
5.527265 -6.522141 -0.933271 9.000000
11.504123 4.711149 -2.084764 1.000000
11.807493 -0.404074 -2.102339 33.000000
5.637701 -2.793675 -0.994291 3.000000
5.518908 -6.563209 -0.925508 10.000000
11.538580 4.675950 -2.094591 1.000000
11.806011 -0.445287 -2.102339 22.000000
5.566043 -2.783623 -0.980107 3.000000
5.508280 -6.599523 -0.917153 9.000000
11.361753 4.555882 -2.070434 1.000000
11.819055 -0.489166 -2.104966 1.000000
5.507603 -2.779678 -0.969397 3.000000
