VERSION .7
FIELDS x y z intensity
SIZE 4 4 4 4
TYPE F F F F
COUNT 1 1 1 1
WIDTH 1230
HEIGHT 1
VIEWPOINT 0 0 0 1 0 0 0
POINTS 1230
DATA ascii
18.099665 -3.312114 -1.354456 6.000000
12.802646 -8.720282 -1.360679 10.000000
25.311768 45.178913 1.392251 1.000000
30.023813 22.706831 -0.341650 5.000000
22.075737 5.214415 -0.994337 10.000000
18.225815 -3.404284 -1.348554 6.000000
12.730891 -8.739888 -1.337439 10.000000
25.524099 45.187271 1.340861 23.000000
30.206553 22.671478 -0.375744 4.000000
22.148224 5.145904 -0.996746 9.000000
18.228834 -3.474039 -1.336688 6.000000
12.543865 -8.679308 -1.310395 7.000000
25.706984 45.142338 1.296819 17.000000
36.047279 26.849247 -0.462862 24.000000
22.108667 5.051379 -0.990160 9.000000
18.367344 -3.573577 -1.344558 6.000000
12.394395 -8.643234 -1.284799 7.000000
25.917627 45.126797 1.253652 8.000000
36.237785 26.785198 -0.479776 27.000000
22.292742 5.007535 -0.997575 9.000000
18.354811 -3.641009 -1.334760 6.000000
12.143601 -8.534665 -1.246381 6.000000
24.655514 42.584366 1.133847 6.000000
36.447681 26.744112 -0.512880 5.000000
22.515469 4.970949 -1.014784 8.000000
18.527792 -3.745955 -1.338381 6.000000
11.942168 -8.458656 -1.218593 5.000000
24.870012 42.611130 1.093787 9.000000
36.828156 26.816189 -0.540704 5.000000
22.821375 4.950835 -1.031831 9.000000
18.499737 -3.810912 -1.330729 6.000000
11.802439 -8.424815 -1.194736 5.000000
24.950523 42.391415 1.038952 9.000000
37.270336 26.929689 -0.577849 8.000000
23.147148 4.932747 -1.045735 8.000000
18.613245 -3.905465 -1.329907 8.000000
11.650794 -8.381198 -1.172400 6.000000
37.445026 26.857464 -0.611277 10.000000
23.414242 4.900021 -1.061167 9.000000
18.535624 -3.960160 -1.322065 6.000000
11.564167 -8.383371 -1.156729 5.000000
1.650238 2.741035 0.058640 1.000000
37.461575 26.661936 -0.626001 28.000000
23.745373 4.878544 -1.071117 9.000000
18.291655 -3.981538 -1.299179 9.000000
11.268715 -8.232361 -1.115478 6.000000
37.509670 26.489586 -0.657242 31.000000
23.929207 4.824975 -1.087143 9.000000
18.098370 -4.002371 -1.283135 8.000000
11.150784 -8.209057 -1.097047 6.000000
1.708023 2.793803 0.054299 1.000000
37.634880 26.371809 -0.681805 37.000000
23.956718 4.739213 -1.083325 10.000000
17.865875 -4.019696 -1.248421 7.000000
11.012141 -8.163437 -1.074028 6.000000
1.705646 2.765994 0.050482 1.000000
37.824909 26.308582 -0.707710 35.000000
23.905090 4.638020 -1.084473 27.000000
17.514303 -4.014528 -1.221819 6.000000
10.772406 -8.052926 -1.041982 6.000000
1.734277 2.789488 0.047586 3.000000
37.994732 26.220596 -0.741321 25.000000
24.029507 4.570836 -1.097905 8.000000
17.062632 -3.976878 -1.185175 131.000000
10.671721 -8.038799 -1.025703 33.000000
1.682971 2.686009 0.043154 1.000000
38.251125 26.191092 -0.768726 20.000000
23.883869 4.452489 -1.094747 11.000000
16.907368 -4.006081 -1.172356 93.000000
10.595380 -8.042332 -1.007181 6.000000
38.399750 26.096443 -0.802299 11.000000
24.096764 4.400851 -1.099475 8.000000
16.849316 -4.057606 -1.163277 83.000000
10.514903 -8.042159 -0.993032 6.000000
1.645808 2.585392 0.035840 1.000000
38.561111 26.000006 -0.828033 9.000000
24.112352 4.312434 -1.108025 8.000000
16.170143 -3.959800 -1.111591 255.000000
10.489853 -8.084109 -0.984161 9.000000
1.725031 2.689077 0.034015 1.000000
23.926085 4.188681 -1.103001 8.000000
15.976950 -3.974617 -1.090646 35.000000
10.330986 -8.022202 -0.958236 7.000000
23.936163 4.100083 -1.107013 7.000000
16.044874 -4.054018 -1.090488 34.000000
10.211833 -7.989846 -0.938519 24.000000
1.785210 2.739552 0.027965 3.000000
23.936062 4.009818 -1.110566 7.000000
16.005930 -4.106647 -1.085960 172.000000
10.151660 -8.002924 -0.926607 9.000000
1.770549 2.695403 0.024203 4.000000
25.402002 16.597288 -0.625011 10.000000
23.984909 3.927680 -1.116407 7.000000
16.063559 -4.184244 -1.085084 255.000000
10.232115 -8.127336 -0.927494 9.000000
1.798324 2.719033 0.022190 1.000000
25.412144 16.471327 -0.634346 9.000000
23.920422 3.827149 -1.108509 7.000000
15.905595 -4.199470 -1.063815 73.000000
10.202886 -8.165285 -0.916091 10.000000
1.839279 2.757882 0.019093 5.000000
25.337509 16.291384 -0.646768 10.000000
23.968641 3.744818 -1.114343 7.000000
15.908245 -4.268554 -1.059356 29.000000
10.221419 -8.238813 -0.911121 10.000000
1.813122 2.697194 0.015315 4.000000
25.398052 16.205282 -0.667908 10.000000
23.927507 3.648602 -1.120268 7.000000
15.521953 -4.225950 -1.031838 10.000000
10.257718 -8.330277 -0.903169 10.000000
1.858024 2.745322 0.013307 5.000000
25.414837 16.085224 -0.677299 9.000000
23.803202 3.536179 -1.109595 7.000000
15.416064 -4.254977 -1.020175 6.000000
10.285517 -8.415601 -0.899005 8.000000
1.879351 2.755026 0.009895 5.000000
25.518423 16.032513 -0.699689 8.000000
23.987602 3.482311 -1.121886 6.000000
15.266161 -4.273880 -1.005728 12.000000
10.231081 -8.427855 -0.887389 6.000000
1.866312 2.709418 0.005742 6.000000
25.614878 15.962473 -0.716537 9.000000
23.812275 3.367790 -1.113101 7.000000
15.179060 -4.309551 -0.989964 208.000000
10.208393 -8.472162 -0.876481 7.000000
1.878611 2.706998 0.002300 5.000000
25.747841 15.908401 -0.739684 9.000000
23.849960 3.275520 -1.122661 7.000000
14.966713 -4.308603 -0.974410 10.000000
10.213149 -8.545577 -0.868156 37.000000
1.932471 2.760880 -0.001176 5.000000
25.831099 15.829318 -0.761567 8.000000
23.926163 3.196682 -1.125688 6.000000
10.132626 -8.541534 -0.854676 39.000000
1.918093 2.722095 -0.004068 5.000000
25.964245 15.792715 -0.779867 10.000000
23.797760 3.099237 -1.123355 7.000000
10.147457 -8.617856 -0.846920 36.000000
1.939634 2.731348 -0.007601 6.000000
26.072838 15.728140 -0.802664 7.000000
23.868225 3.019490 -1.130360 6.000000
10.188292 -8.717010 -0.843591 9.000000
1.972425 2.757087 -0.010650 5.000000
26.221079 15.674351 -0.826627 7.000000
23.691574 2.900565 -1.125609 7.000000
10.247658 -8.833063 -0.836958 6.000000
1.964966 2.725496 -0.013488 6.000000
26.335693 15.618345 -0.833864 7.000000
23.791124 2.824286 -1.134030 6.000000
10.319069 -8.957590 -0.833370 6.000000
1.971519 2.714559 -0.017567 7.000000
23.730701 2.737342 -1.134889 7.000000
13.330580 -4.159671 -0.844320 90.000000
10.357986 -9.058156 -0.829547 6.000000
2.000116 2.730812 -0.020678 7.000000
23.681738 2.635408 -1.136201 7.000000
13.471826 -4.260579 -0.849346 7.000000
10.549963 -9.294499 -0.835330 5.000000
2.008672 2.724496 -0.024222 7.000000
23.784689 2.567045 -1.140725 7.000000
13.381098 -4.283323 -0.839642 255.000000
10.486502 -9.307079 -0.820723 4.000000
2.030560 2.733155 -0.026743 7.000000
23.689819 2.469001 -1.131567 7.000000
13.361115 -4.330979 -0.829538 6.000000
10.538330 -9.422355 -0.817574 5.000000
2.040070 2.726026 -0.030308 7.000000
22.978535 13.074852 -0.798515 5.000000
23.504713 2.362656 -1.126437 7.000000
10.555681 -9.501042 -0.811412 6.000000
2.059062 2.730484 -0.033426 7.000000
23.001783 12.982003 -0.816200 4.000000
23.552982 2.280341 -1.128342 7.000000
10.536100 -9.553552 -0.800142 5.000000
2.081611 2.738450 -0.037224 7.000000
18.590975 10.394404 -0.669363 10.000000
23.720882 2.200520 -1.140121 7.000000
10.625156 -9.708905 -0.797131 4.000000
2.066350 2.699743 -0.039758 7.000000
18.541119 10.277509 -0.681022 6.000000
23.548773 2.105815 -1.135642 6.000000
12.928818 -4.401328 -0.785092 6.000000
10.623069 -9.778683 -0.787020 6.000000
2.090998 2.712277 -0.043636 6.000000
18.284914 10.048060 -0.681190 4.000000
23.501598 2.014798 -1.133003 6.000000
12.941176 -4.458531 -0.782036 5.000000
10.719551 -9.940324 -0.781508 5.000000
2.107035 2.712461 -0.046761 7.000000
18.295881 9.975238 -0.691285 5.000000
23.503649 1.928222 -1.136879 7.000000
12.821301 -4.469869 -0.771022 6.000000
10.745569 -10.037951 -0.773213 6.000000
2.153908 2.751923 -0.051238 6.000000
18.283533 9.881745 -0.703971 6.000000
23.366171 1.830751 -1.129897 7.000000
15.479242 -5.460214 -0.923435 10.000000
10.836469 -10.197497 -0.769418 6.000000
18.286757 9.801165 -0.713650 6.000000
23.248018 1.735786 -1.127947 7.000000
15.351285 -5.478426 -0.911286 9.000000
10.882733 -10.309294 -0.764633 5.000000
18.224108 9.673616 -0.720500 8.000000
23.463543 1.661308 -1.142201 7.000000
10.923013 -10.427321 -0.757059 5.000000
18.166124 9.557661 -0.731166 8.000000
23.375347 1.560785 -1.137594 7.000000
10.877995 -10.460817 -0.743388 3.000000
18.253859 9.518560 -0.744081 8.000000
23.335140 1.480390 -1.143573 7.000000
15.839108 -5.849637 -0.923314 115.000000
10.854300 -10.514874 -0.733822 4.000000
18.271660 9.450909 -0.754311 8.000000
23.375505 1.396949 -1.141196 7.000000
15.822539 -5.909511 -0.917691 82.000000
10.794785 -10.534188 -0.716572 4.000000
18.248020 9.354065 -0.762666 8.000000
23.380468 1.311265 -1.141196 7.000000
15.833915 -5.979980 -0.910728 26.000000
10.854574 -10.666760 -0.709698 5.000000
18.192730 9.241679 -0.769634 6.000000
23.335043 1.222938 -1.142840 7.000000
15.919469 -6.079054 -0.910959 10.000000
10.847788 -10.738529 -0.698475 6.000000
18.242365 9.186925 -0.781082 6.000000
23.344358 1.137645 -1.143085 7.000000
10.925680 -10.887609 -0.695020 3.000000
18.207064 9.077707 -0.792228 9.000000
23.348372 1.052076 -1.143085 7.000000
10.896407 -10.945967 -0.682443 2.000000
18.200989 8.999442 -0.797759 27.000000
23.277025 0.963387 -1.143487 7.000000
11.037649 -11.165532 -0.679998 5.000000
10.651726 12.653812 -0.398457 1.000000
18.224501 8.928090 -0.807993 8.000000
23.315332 0.879384 -1.145203 7.000000
12.597282 -5.023258 -0.701254 37.000000
10.976069 -11.184937 -0.665025 4.000000
10.737621 12.665849 -0.414513 6.000000
18.301662 8.882863 -0.820634 6.000000
23.088810 0.786106 -1.133927 7.000000
12.514284 -5.043400 -0.690575 36.000000
11.029523 -11.322122 -0.656955 24.000000
10.829180 12.679341 -0.430811 7.000000
18.464277 8.878319 -0.837206 6.000000
23.221321 0.705419 -1.140300 7.000000
12.491314 -5.087441 -0.685612 5.000000
11.054331 -11.431113 -0.647024 29.000000
10.899199 12.671487 -0.446430 10.000000
18.581991 8.851215 -0.851862 5.000000
23.168636 0.618832 -1.141649 7.000000
11.207612 -4.612581 -0.609715 1.000000
11.101259 -11.560120 -0.638119 7.000000
10.947443 12.642531 -0.461291 8.000000
18.708776 8.827623 -0.867035 5.000000
23.280396 0.544568 -1.147061 7.000000
11.089481 -4.611565 -0.597899 2.000000
11.249472 -11.792484 -0.634639 7.000000
11.040510 12.647059 -0.480664 8.000000
18.785847 8.779951 -0.879987 8.000000
23.177542 0.449078 -1.141895 7.000000
11.072697 -4.652259 -0.593707 5.000000
11.087494 12.611748 -0.501324 9.000000
19.021191 8.805144 -0.907818 9.000000
23.338352 0.370702 -1.157915 7.000000
10.871975 -4.614880 -0.577649 9.000000
11.173110 12.615586 -0.517821 10.000000
19.189123 8.797623 -0.925362 6.000000
23.174768 0.283147 -1.149740 7.000000
10.859854 -4.656783 -0.571706 8.000000
11.216916 -12.024462 -0.600102 3.000000
11.262221 12.622686 -0.534580 10.000000
19.280218 8.754011 -0.931904 6.000000
23.081167 0.197398 -1.136975 7.000000
10.838313 -4.694649 -0.567341 1.000000
11.397195 -12.307850 -0.597499 5.000000
11.322661 12.601602 -0.547197 16.000000
19.410431 8.731538 -0.947885 4.000000
23.086769 0.104765 -1.137221 7.000000
11.416745 -12.419967 -0.580270 7.000000
11.390816 12.593204 -0.566270 9.000000
19.479727 8.685158 -0.964777 4.000000
23.106579 0.020164 -1.146271 7.000000
16.514521 -18.092049 -0.829735 24.000000
11.483746 12.602784 -0.580507 9.000000
23.126701 -0.052473 -1.143226 7.000000
17.152008 -7.647329 -0.875768 103.000000
16.566210 -18.282806 -0.805517 9.000000
11.571171 12.610031 -0.600641 9.000000
23.091171 -0.141058 -1.145528 7.000000
10.798141 -4.861941 -0.550180 63.000000
16.485710 -18.315664 -0.791636 9.000000
11.637373 12.589238 -0.613662 9.000000
15.809625 6.841435 -0.800325 6.000000
23.100964 -0.217728 -1.137959 7.000000
10.780682 -4.901682 -0.539845 67.000000
11.793024 -13.194413 -0.546862 7.000000
11.727260 12.593562 -0.634008 10.000000
15.700940 6.726188 -0.805520 6.000000
23.144554 -0.302979 -1.148253 7.000000
10.731124 -4.926692 -0.532069 41.000000
11.784636 -13.282693 -0.536318 7.000000
11.784359 12.566636 -0.652786 12.000000
15.688313 6.652832 -0.812559 6.000000
22.943562 -0.384459 -1.138344 7.000000
10.699650 -4.959805 -0.525219 1.000000
11.775817 -13.371149 -0.522581 7.000000
11.864251 12.559259 -0.669756 8.000000
15.675358 6.579658 -0.819555 6.000000
23.041687 -0.478631 -1.143298 7.000000
11.762269 -13.450135 -0.508455 8.000000
11.964039 12.581054 -0.685169 8.000000
15.689747 6.518164 -0.827969 6.000000
23.089899 -0.556240 -1.145776 7.000000
11.709903 -13.489711 -0.492724 10.000000
12.047669 12.576368 -0.702537 8.000000
15.745595 6.473797 -0.835616 6.000000
22.962906 -0.637401 -1.139582 7.000000
14.396276 -6.866672 -0.690816 9.000000
14.013083 -16.262985 -0.569644 9.000000
12.130049 12.565421 -0.722842 10.000000
15.817310 6.429176 -0.847007 5.000000
22.890284 -0.727354 -1.136114 7.000000
14.215916 -6.850828 -0.675197 5.000000
13.894806 -16.240009 -0.548472 37.000000
12.220037 12.574919 -0.737978 14.000000
15.977240 6.432528 -0.860451 4.000000
23.102348 -0.810789 -1.146767 7.000000
9.129807 -4.437135 -0.429000 1.000000
13.748134 -16.188320 -0.526475 24.000000
12.318007 12.583126 -0.756499 9.000000
23.049520 -0.893531 -1.140263 7.000000
9.011298 -4.418491 -0.418889 11.000000
13.614899 -16.151041 -0.505192 28.000000
12.410290 12.589186 -0.781101 9.000000
23.060659 -0.978624 -1.149061 7.000000
8.981806 -4.444939 -0.413017 1.000000
13.487338 -16.102098 -0.483993 20.000000
12.519216 12.606924 -0.800579 8.000000
19.497541 7.601774 -1.082090 6.000000
22.878094 -1.046891 -1.132117 7.000000
9.083369 -4.532760 -0.414826 1.000000
13.332672 -16.036488 -0.458698 28.000000
12.628425 12.624017 -0.820213 6.000000
19.487471 7.515682 -1.090961 6.000000
22.918993 -1.136965 -1.130334 7.000000
13.235494 -16.033119 -0.439126 26.000000
12.794631 12.696752 -0.843744 1.000000
19.533190 7.451188 -1.099302 10.000000
23.028543 -1.235089 -1.144042 7.000000
12.426234 -6.315100 -0.557406 5.000000
13.100792 -15.988954 -0.422161 26.000000
18.750599 18.477697 -1.255274 7.000000
19.527308 7.367073 -1.104750 10.000000
22.964031 -1.316055 -1.141069 7.000000
13.002094 -15.999074 -0.399449 26.000000
18.331734 17.932966 -1.249742 7.000000
19.389908 7.234164 -1.106336 7.000000
23.043993 -1.405394 -1.141251 7.000000
12.927547 -16.021284 -0.380903 56.000000
18.067265 17.545122 -1.240538 7.000000
19.392508 7.154273 -1.112216 6.000000
22.904133 -1.481144 -1.134585 7.000000
16.034664 -20.021690 -0.447741 61.000000
18.152233 17.498819 -1.264017 7.000000
19.403978 7.077816 -1.122225 7.000000
22.913692 -1.566117 -1.131317 7.000000
11.380887 -6.000461 -0.485261 11.000000
16.017809 -20.144361 -0.426766 36.000000
16.797455 16.074448 -1.189977 6.000000
19.424351 7.004687 -1.136370 9.000000
22.757977 -1.639297 -1.131902 7.000000
11.271862 -5.993355 -0.474808 1.000000
15.988282 -20.244677 -0.409751 36.000000
16.773073 15.939322 -1.204547 6.000000
18.664202 6.653365 -1.097403 6.000000
22.727516 -1.712880 -1.130664 26.000000
11.106812 -5.952924 -0.462077 1.000000
15.941947 -20.338827 -0.387915 34.000000
16.866928 15.911271 -1.227382 6.000000
19.271769 6.790442 -1.142387 8.000000
22.810263 -1.811231 -1.131129 48.000000
15.925355 -20.479134 -0.362249 33.000000
16.946213 15.869084 -1.249228 6.000000
19.206573 6.688437 -1.144183 6.000000
21.051836 -1.749273 -1.040546 24.000000
10.898843 -5.949647 -0.444462 1.000000
7.383011 -9.566296 -0.156079 17.000000
17.164349 15.955682 -1.281500 8.000000
19.211699 6.611368 -1.150152 7.000000
20.991190 -1.814343 -1.037840 65.000000
18.527569 -10.194041 -0.745855 6.000000
15.874208 -20.702631 -0.314188 30.000000
16.906523 15.600889 -1.274082 8.000000
18.720087 6.365546 -1.129703 7.000000
20.989553 -1.891732 -1.034408 36.000000
18.216000 -10.118085 -0.724018 7.000000
15.822603 -20.792711 -0.291869 34.000000
16.897148 15.483383 -1.297383 8.000000
18.893953 6.347507 -1.152745 6.000000
20.997034 -1.970015 -1.042505 40.000000
10.085498 -5.645838 -0.395544 1.000000
15.756129 -20.856028 -0.264608 38.000000
16.912491 15.383787 -1.310236 23.000000
18.817223 6.245070 -1.153603 6.000000
21.013988 -2.056737 -1.040054 53.000000
9.807157 -5.539587 -0.381522 36.000000
15.720380 -20.983309 -0.242538 49.000000
17.027182 15.374447 -1.334834 27.000000
18.712608 6.130686 -1.152635 7.000000
20.977419 -2.123411 -1.034899 49.000000
9.836677 -5.599370 -0.377458 1.000000
15.711221 -21.108959 -0.220453 34.000000
17.126970 15.350971 -1.362405 28.000000
18.677197 6.043372 -1.162834 7.000000
21.053185 -2.212779 -1.046455 38.000000
9.885656 -5.675324 -0.372166 3.000000
15.705148 -21.263071 -0.198391 34.000000
17.242245 15.340699 -1.379219 10.000000
18.589870 5.939935 -1.156033 8.000000
21.045473 -2.289987 -1.035371 136.000000
9.951564 -5.761761 -0.365395 1.000000
15.675292 -21.378401 -0.171193 44.000000
17.371895 15.342349 -1.413502 23.000000
18.406071 5.806943 -1.156794 7.000000
22.734379 -2.558105 -1.114911 36.000000
16.491346 -9.636765 -0.600260 6.000000
15.618846 -21.481726 -0.143703 38.000000
17.443357 15.297414 -1.431221 13.000000
18.407784 5.733386 -1.162328 7.000000
22.828638 -2.653477 -1.128044 9.000000
16.443266 -9.689691 -0.589795 5.000000
15.619903 -21.641602 -0.125773 39.000000
17.444317 15.196215 -1.443371 9.000000
18.426306 5.672192 -1.169058 8.000000
22.724741 -2.725853 -1.119392 9.000000
16.054720 -9.532595 -0.563942 6.000000
15.568496 -21.721807 -0.102616 35.000000
17.336439 14.990834 -1.453985 6.000000
18.465286 5.610183 -1.183742 8.000000
22.848612 -2.825699 -1.121969 10.000000
15.845607 -9.483400 -0.554530 6.000000
15.530314 -21.829062 -0.074812 37.000000
17.289457 14.829329 -1.464999 6.000000
17.753946 5.323062 -1.143376 6.000000
22.991482 -2.928963 -1.133559 10.000000
15.592837 -9.409913 -0.534162 6.000000
17.254005 14.699895 -1.477720 6.000000
18.213207 5.388083 -1.178329 6.000000
22.871849 -2.998954 -1.124159 12.000000
15.349348 -9.339890 -0.514435 6.000000
15.474189 -22.083023 -0.028238 30.000000
17.028482 14.400375 -1.477329 6.000000
18.323059 5.347625 -1.197537 6.000000
22.984632 -3.099475 -1.126196 9.000000
15.170244 -9.307267 -0.506464 6.000000
15.430261 -22.192968 0.000000 39.000000
17.038322 14.301918 -1.489224 6.000000
18.227043 5.247184 -1.196644 6.000000
23.072054 -3.197408 -1.131046 10.000000
14.877041 -9.202601 -0.485576 6.000000
15.420849 -22.345449 0.028431 40.000000
16.854448 14.037615 -1.487660 6.000000
18.213951 5.164331 -1.201049 6.000000
23.050097 -3.280515 -1.134625 10.000000
14.764522 -9.204413 -0.470793 6.000000
15.370527 -22.464907 0.057009 53.000000
16.673903 13.784051 -1.490015 6.000000
18.333755 5.122325 -1.220987 6.000000
23.127062 -3.377996 -1.134926 10.000000
14.493779 -9.109566 -0.460232 6.000000
15.342007 -22.575077 0.076222 26.000000
16.460632 13.516106 -1.478149 6.000000
18.461271 5.092015 -1.228348 6.000000
23.262892 -3.484965 -1.138096 19.000000
14.388786 -9.117316 -0.446055 6.000000
6.591129 -9.775432 0.045270 27.000000
16.459404 13.404840 -1.495533 6.000000
18.663712 5.067320 -1.254011 9.000000
23.239893 -3.568658 -1.141716 10.000000
13.837418 -8.839192 -0.418493 7.000000
6.531916 -9.760944 0.055347 31.000000
16.243153 13.139371 -1.486575 6.000000
18.916353 5.068622 -1.273283 10.000000
23.256456 -3.658500 -1.139062 10.000000
13.620143 -8.770855 -0.407233 17.000000
6.485005 -9.768113 0.065484 28.000000
16.200947 13.007284 -1.492918 6.000000
19.136984 5.052636 -1.293817 9.000000
23.239460 -3.734840 -1.134713 9.000000
13.526783 -8.777684 -0.394091 9.000000
6.448077 -9.786453 0.077729 33.000000
16.076046 12.801213 -1.501900 6.000000
19.209349 4.989343 -1.311260 9.000000
23.367186 -3.851654 -1.141695 9.000000
13.272986 -8.682290 -0.379312 5.000000
6.403919 -9.797405 0.087844 1.000000
15.894918 12.562062 -1.498442 6.000000
19.265284 4.928567 -1.327780 16.000000
23.180353 -3.908180 -1.137371 9.000000
13.115992 -8.648403 -0.370242 5.000000
15.111897 -23.296980 0.232643 38.000000
15.868987 12.456299 -1.506257 6.000000
19.295807 4.868259 -1.332253 9.000000
23.353090 -4.025384 -1.142417 10.000000
13.071929 -8.688257 -0.358931 5.000000
15.079056 -23.425043 0.262570 29.000000
15.626372 12.173561 -1.496367 6.000000
19.226753 4.772388 -1.333156 9.000000
23.363684 -4.111239 -1.139481 10.000000
13.016808 -8.717283 -0.347308 6.000000
15.060239 -23.585300 0.288169 32.000000
15.397499 11.904834 -1.490762 6.000000
19.107523 4.668512 -1.337488 9.000000
23.284363 -4.185323 -1.140491 9.000000
12.860571 -8.681098 -0.338567 4.000000
14.999086 -23.671291 0.313036 28.000000
15.265974 11.713994 -1.490753 6.000000
19.167471 4.608779 -1.350864 8.000000
22.230789 -4.088135 -1.093635 64.000000
12.870094 -8.756361 -0.334224 6.000000
14.973267 -23.823225 0.338875 27.000000
15.081717 11.485030 -1.485283 6.000000
19.183773 4.538387 -1.357745 7.000000
21.819868 -4.087419 -1.066314 92.000000
12.710299 -8.715963 -0.320138 6.000000
9.024374 -14.470102 0.223243 21.000000
14.999399 11.335728 -1.489583 6.000000
19.048979 4.432837 -1.357335 8.000000
21.058933 -4.024825 -1.033592 140.000000
12.585293 -8.694985 -0.312410 5.000000
8.997474 -14.545428 0.238823 7.000000
15.003916 11.252978 -1.502396 1.000000
18.938221 4.333952 -1.355117 7.000000
20.705978 -4.036087 -1.013298 36.000000
12.446853 -8.666906 -0.299167 4.000000
6.901479 -11.244562 0.193442 5.000000
15.143949 11.271513 -1.528852 1.000000
19.011673 4.277493 -1.369495 7.000000
20.338190 -4.041827 -0.999645 114.000000
12.374167 -8.683811 -0.292904 3.000000
22.052835 -36.213570 0.658669 34.000000
14.742937 10.889301 -1.503650 3.000000
18.919880 4.180581 -1.375311 6.000000
20.117657 -4.074704 -0.989533 38.000000
13.464786 -9.523019 -0.310905 6.000000
21.924826 -36.302208 0.695833 45.000000
14.610809 10.713089 -1.505453 1.000000
18.739422 4.068727 -1.371192 6.000000
19.852970 -4.096900 -0.980792 25.000000
13.492620 -9.613538 -0.306536 7.000000
21.795015 -36.373585 0.740157 48.000000
14.477718 10.530265 -1.500148 6.000000
18.641558 3.975990 -1.369643 5.000000
19.720858 -4.145053 -0.967959 29.000000
12.519423 -8.989493 -0.274409 2.000000
21.615248 -36.375294 0.775511 35.000000
14.426059 10.412059 -1.509594 1.000000
18.591846 3.894200 -1.374930 6.000000
19.729784 -4.222497 -0.972680 34.000000
19.942705 -14.430808 -0.429678 3.000000
21.510635 -36.488682 0.813300 39.000000
14.262806 10.218699 -1.504192 3.000000
18.532019 3.810819 -1.379422 3.000000
19.606823 -4.271394 -0.967383 29.000000
19.889860 -14.503935 -0.416789 4.000000
7.444728 -12.729921 0.296032 8.000000
14.135836 10.049529 -1.514354 4.000000
18.491081 3.728456 -1.398470 2.000000
19.605164 -4.346360 -0.978620 37.000000
19.710180 -14.478566 -0.414081 6.000000
7.377879 -12.722391 0.302929 8.000000
13.862345 9.855098 -1.505996 6.000000
18.092791 3.648147 -1.400742 6.000000
19.548737 -4.337430 -1.017883 35.000000
7.383049 -12.731307 0.287724 12.000000
13.915845 9.970116 -1.506735 3.000000
18.029814 3.707548 -1.396958 5.000000
19.568859 -4.266701 -1.028624 34.000000
7.442755 -12.731647 0.270293 10.000000
14.012899 10.117580 -1.515169 6.000000
17.986588 3.767424 -1.397895 6.000000
19.642248 -4.207347 -1.045726 30.000000
21.491146 -36.455620 0.723901 47.000000
13.980177 10.172113 -1.509570 4.000000
17.845407 3.806182 -1.394404 6.000000
19.686316 -4.141381 -1.057819 26.000000
12.464030 -8.953016 -0.337537 5.000000
21.646854 -36.428486 0.665676 70.000000
14.048093 10.300488 -1.508717 1.000000
17.953377 3.898060 -1.400723 6.000000
19.798611 -4.089285 -1.073655 29.000000
12.149058 -8.662641 -0.338608 5.000000
21.781939 -36.366154 0.621521 61.000000
14.157295 10.464380 -1.515462 3.000000
17.982780 3.973517 -1.404144 6.000000
19.993776 -4.053246 -1.097709 32.000000
12.180431 -8.617845 -0.354234 5.000000
21.946573 -36.338219 0.555719 54.000000
14.167212 10.552224 -1.514442 6.000000
17.977825 4.041588 -1.404904 6.000000
20.272352 -4.032422 -1.123039 109.000000
12.199352 -8.564309 -0.369487 5.000000
22.091770 -36.291759 0.511685 73.000000
14.073709 10.562999 -1.493107 1.000000
17.937637 4.104972 -1.406215 6.000000
20.708220 -4.040276 -1.150050 103.000000
12.310922 -8.578638 -0.385059 5.000000
8.999355 -14.668367 0.186226 7.000000
14.202420 10.741206 -1.501539 2.000000
17.990927 4.186620 -1.405101 5.000000
21.349743 -4.084268 -1.200059 78.000000
12.444839 -8.604367 -0.398829 5.000000
6.859567 -11.089261 0.127449 6.000000
14.222817 10.838806 -1.501599 6.000000
17.936649 4.243350 -1.402067 5.000000
21.501753 -4.031713 -1.211595 34.000000
12.525399 -8.592384 -0.416316 5.000000
9.043452 -14.506329 0.146197 20.000000
14.365824 11.031255 -1.505039 5.000000
18.008705 4.330157 -1.402428 6.000000
21.393425 -3.930288 -1.208479 39.000000
12.699670 -8.646897 -0.431837 6.000000
9.062193 -14.423993 0.127845 1.000000
14.455974 11.184941 -1.509133 3.000000
17.982792 4.393709 -1.404904 6.000000
21.323116 -3.836634 -1.222671 17.000000
12.714327 -8.588843 -0.447343 5.000000
14.998270 -23.679142 0.176117 29.000000
14.517892 11.318157 -1.506979 6.000000
17.967041 4.459707 -1.398442 6.000000
21.144880 -3.724608 -1.219178 9.000000
12.882530 -8.633874 -0.460272 8.000000
15.070166 -23.609930 0.146659 30.000000
14.461663 11.359786 -1.489299 6.000000
17.998602 4.540979 -1.395729 6.000000
21.020435 -3.623304 -1.214964 10.000000
12.992890 -8.638995 -0.473983 7.000000
15.098466 -23.473192 0.116909 35.000000
14.463731 11.447380 -1.480862 6.000000
17.981836 4.606916 -1.395729 6.000000
20.979219 -3.537071 -1.215550 15.000000
13.139339 -8.670381 -0.494719 8.000000
15.143659 -23.354870 0.082588 35.000000
14.593946 11.637689 -1.485436 3.000000
17.984369 4.677874 -1.393985 6.000000
20.848997 -3.436576 -1.210967 9.000000
13.304536 -8.709561 -0.510847 8.000000
6.432459 -9.844823 0.022578 29.000000
14.757739 11.857048 -1.496546 6.000000
17.991676 4.750247 -1.389360 6.000000
20.846039 -3.357656 -1.221164 14.000000
13.415696 -8.712255 -0.525065 23.000000
6.452008 -9.796142 0.010236 31.000000
14.819706 11.987919 -1.496811 5.000000
18.009542 4.818905 -1.391966 6.000000
20.787819 -3.277592 -1.220796 10.000000
13.529645 -8.719262 -0.542392 9.000000
6.497225 -9.790227 -0.004102 22.000000
14.930859 12.177311 -1.496046 6.000000
17.976086 4.887363 -1.384347 6.000000
20.676832 -3.175081 -1.224510 10.000000
13.986423 -8.941252 -0.570989 5.000000
6.542470 -9.784102 -0.018488 35.000000
15.187570 12.479650 -1.509085 6.000000
17.924870 4.944064 -1.375262 6.000000
20.628885 -3.090369 -1.224645 10.000000
14.186306 -8.989017 -0.595280 6.000000
6.581066 -9.764181 -0.030827 27.000000
15.307843 12.663749 -1.518224 5.000000
17.920158 5.016887 -1.376369 6.000000
20.608751 -3.017513 -1.233792 13.000000
14.329970 -9.013589 -0.608926 6.000000
15.348136 -22.601063 -0.095365 32.000000
15.281486 12.736573 -1.502770 6.000000
17.860708 5.064173 -1.366569 6.000000
20.451460 -2.917958 -1.227345 10.000000
14.687366 -9.166995 -0.634852 5.000000
15.382794 -22.474419 -0.123588 33.000000
15.460277 12.991116 -1.507746 6.000000
17.735268 5.105611 -1.352052 6.000000
20.551785 -2.848140 -1.236304 10.000000
14.937153 -9.246997 -0.656461 6.000000
15.409978 -22.346376 -0.151605 33.000000
15.433138 13.055870 -1.495123 6.000000
17.553680 5.123080 -1.339631 6.000000
20.249777 -2.734278 -1.221134 18.000000
15.106700 -9.275541 -0.677906 6.000000
15.416450 -22.189629 -0.183918 33.000000
15.482958 13.191016 -1.493693 6.000000
17.339172 5.129514 -1.318341 6.000000
20.353046 -2.672302 -1.237550 17.000000
15.319410 -9.329002 -0.698453 6.000000
15.744853 13.523598 -1.505975 6.000000
17.177391 5.150197 -1.301174 6.000000
20.253572 -2.583764 -1.234494 10.000000
15.429951 -9.318964 -0.717685 6.000000
15.519800 -22.000719 -0.244360 38.000000
15.859352 13.713596 -1.502876 4.000000
16.982285 5.159612 -1.281590 6.000000
20.158680 -2.496606 -1.231702 10.000000
15.710511 -9.413723 -0.742009 5.000000
15.550928 -21.874195 -0.271694 43.000000
15.835898 13.795078 -1.494382 6.000000
16.900387 5.205696 -1.276909 6.000000
20.127411 -2.417865 -1.239896 9.000000
16.015142 -9.516659 -0.764515 5.000000
15.577555 -21.750477 -0.294181 37.000000
16.112350 14.140105 -1.506550 6.000000
16.754902 5.221779 -1.261060 6.000000
18.753078 -2.183074 -1.154733 6.000000
16.255804 -9.579223 -0.794115 9.000000
15.613059 -21.632118 -0.325950 39.000000
16.177046 14.302176 -1.502342 6.000000
16.845455 5.317817 -1.263137 6.000000
18.562387 -2.091947 -1.145784 7.000000
16.389885 -9.577476 -0.802264 10.000000
15.632437 -21.500418 -0.347987 37.000000
16.243555 14.477565 -1.491009 5.000000
16.866932 5.399148 -1.263255 6.000000
18.570435 -2.017395 -1.149044 7.000000
16.566772 -9.599560 -0.829282 9.000000
15.688015 -21.403585 -0.379820 51.000000
16.315044 14.638652 -1.486645 6.000000
16.800419 5.445823 -1.247368 6.000000
18.502375 -1.947943 -1.147686 7.000000
9.891605 -5.685628 -0.496142 1.000000
15.708191 -21.282732 -0.406304 36.000000
16.328474 14.759085 -1.481210 6.000000
16.875124 5.538469 -1.254414 6.000000
18.459345 -1.875032 -1.151084 9.000000
9.842409 -5.609459 -0.506508 25.000000
15.731415 -21.159212 -0.432609 36.000000
16.381109 14.910889 -1.471280 7.000000
16.765400 5.570607 -1.238471 6.000000
18.540792 -1.814673 -1.152477 7.000000
9.797519 -5.536399 -0.507086 4.000000
15.739689 -21.009081 -0.453631 37.000000
16.503798 15.133546 -1.467646 8.000000
16.889088 5.673963 -1.242741 6.000000
18.512241 -1.740143 -1.160052 7.000000
15.752353 -20.873743 -0.483853 35.000000
16.584766 15.320067 -1.460044 11.000000
16.863865 5.734360 -1.236176 6.000000
18.483704 -1.669139 -1.157872 6.000000
15.810338 -20.791651 -0.506092 38.000000
16.496552 15.351018 -1.437475 22.000000
16.898726 5.818698 -1.234091 6.000000
18.583958 -1.609545 -1.167044 6.000000
7.359139 -9.607965 -0.247171 17.000000
16.393396 15.367526 -1.421572 10.000000
16.976410 5.915134 -1.238186 6.000000
7.384952 -9.568810 -0.261632 5.000000
16.308834 15.400945 -1.399472 10.000000
16.917385 5.964190 -1.229177 6.000000
19.868114 -1.574122 -1.257405 9.000000
15.949913 -20.518101 -0.589757 32.000000
16.187141 15.393271 -1.374064 24.000000
16.970991 6.053113 -1.228356 6.000000
19.809063 -1.496405 -1.253312 9.000000
11.022894 -5.915379 -0.616210 1.000000
15.978452 -20.400063 -0.610669 35.000000
16.084620 15.408438 -1.350636 15.000000
16.888292 6.093481 -1.214535 6.000000
19.858990 -1.426994 -1.259621 8.000000
11.269068 -5.994392 -0.635439 11.000000
15.993873 -20.266296 -0.635467 35.000000
15.964234 15.405715 -1.325828 11.000000
16.945911 6.184559 -1.213975 6.000000
19.814304 -1.350804 -1.256464 8.000000
11.396682 -6.008789 -0.648152 5.000000
16.020624 -20.155123 -0.656213 52.000000
15.883430 15.440569 -1.304410 13.000000
16.954298 6.264858 -1.206861 6.000000
19.798985 -1.276873 -1.258664 7.000000
17.915106 -9.361810 -1.031057 9.000000
16.059582 -20.052807 -0.681715 37.000000
15.816839 15.488994 -1.284210 9.000000
16.943172 6.324683 -1.201214 6.000000
19.878031 -1.212310 -1.263412 7.000000
17.970985 -9.307317 -1.042927 9.000000
12.906420 -16.000814 -0.563445 24.000000
16.831388 6.353338 -1.191778 9.000000
19.852182 -1.130765 -1.271924 7.000000
17.951183 -9.213777 -1.050405 9.000000
13.043337 -16.049822 -0.592137 21.000000
16.593960 6.333299 -1.170376 10.000000
19.850842 -1.064659 -1.271605 7.000000
12.492464 -6.354246 -0.736981 5.000000
13.079890 -15.980502 -0.612905 31.000000
12.619192 12.628006 -0.991857 7.000000
16.627064 6.415849 -1.164989 8.000000
19.809757 -0.989654 -1.268733 7.000000
12.720182 -6.411500 -0.761490 5.000000
13.207978 -16.016863 -0.634285 26.000000
12.503871 12.595867 -0.973642 8.000000
16.631704 6.487775 -1.160715 6.000000
19.932655 -0.922568 -1.279876 7.000000
9.012047 -4.505030 -0.543897 1.000000
13.336813 -16.058565 -0.659657 33.000000
12.424587 12.612493 -0.952637 3.000000
17.067917 6.730114 -1.183224 6.000000
19.786346 -0.843132 -1.270274 7.000000
8.970770 -4.441426 -0.547381 21.000000
13.475378 -16.104944 -0.681930 31.000000
12.358711 12.629116 -0.938421 1.000000
19.968798 -0.777595 -1.281796 7.000000
8.995694 -4.412787 -0.553174 1.000000
13.601564 -16.135221 -0.703755 28.000000
12.325984 12.697239 -0.921216 1.000000
15.940453 6.420951 -1.096250 6.000000
19.856396 -0.693401 -1.284838 7.000000
9.110328 -4.427668 -0.564541 1.000000
13.602340 -16.022314 -0.722932 27.000000
12.293777 12.757286 -0.906795 3.000000
15.782013 6.427670 -1.081071 6.000000
19.888508 -0.628496 -1.286774 7.000000
14.213345 -6.843476 -0.887486 8.000000
13.874745 -16.222294 -0.760356 27.000000
12.170305 12.717709 -0.885556 1.000000
15.717337 6.468593 -1.069322 6.000000
19.865837 -0.551433 -1.285161 7.000000
14.305496 -6.823372 -0.899998 6.000000
13.996069 -16.248972 -0.782631 19.000000
12.073436 12.700531 -0.869303 2.000000
15.707862 6.532120 -1.061357 6.000000
19.787914 -0.476695 -1.279998 7.000000
11.703832 -13.487473 -0.667290 7.000000
11.989618 12.705291 -0.851333 2.000000
15.651951 6.576260 -1.053252 7.000000
19.884312 -0.406101 -1.286129 7.000000
11.772452 -13.466521 -0.687142 7.000000
15.678782 6.655248 -1.047739 6.000000
19.865711 -0.332884 -1.284838 7.000000
10.687316 -4.954087 -0.691592 55.000000
16.434332 -18.667347 -0.977177 18.000000
11.715693 12.594357 -0.808171 10.000000
15.686892 6.726652 -1.040951 6.000000
19.816906 -0.259418 -1.281612 7.000000
10.723216 -4.923061 -0.698942 53.000000
16.492125 -18.595129 -0.998278 9.000000
11.611412 12.583167 -0.786487 9.000000
15.772543 6.831926 -1.039256 5.000000
19.942520 -0.180998 -1.289678 7.000000
10.772768 -4.898085 -0.705142 58.000000
11.542058 12.600360 -0.769969 9.000000
19.903097 -0.114635 -1.287097 7.000000
10.794862 -4.860465 -0.711639 24.000000
16.549944 -18.393480 -1.041369 26.000000
11.449064 12.577947 -0.751526 15.000000
19.997959 -0.041884 -1.296718 7.000000
17.177519 -7.665892 -1.140611 6.000000
16.556572 -18.278580 -1.059527 17.000000
11.366484 12.579536 -0.734303 10.000000
20.178305 9.005067 -1.305034 6.000000
19.983244 0.024414 -1.292259 7.000000
17.439632 -7.713620 -1.166332 7.000000
16.558853 -18.146976 -1.076888 29.000000
11.301771 12.591609 -0.718023 10.000000
20.303698 9.141887 -1.303398 6.000000
19.963062 0.097559 -1.290969 7.000000
17.520185 -7.665308 -1.179703 7.000000
11.386271 -12.391155 -0.752391 6.000000
11.214952 12.582964 -0.700559 9.000000
20.193424 9.181400 -1.286816 6.000000
19.947575 0.174080 -1.290001 7.000000
17.645861 -7.650676 -1.193190 9.000000
11.376872 -12.290206 -0.763434 6.000000
11.132824 12.583368 -0.680681 22.000000
19.910738 9.141081 -1.259419 6.000000
20.021639 0.248118 -1.294841 7.000000
11.312288 -12.130944 -0.773518 7.000000
11.060641 12.594496 -0.664434 8.000000
18.990017 8.802790 -1.192217 9.000000
19.965717 0.320618 -1.291291 7.000000
17.181332 -7.300122 -1.177755 9.000000
11.398543 -12.138216 -0.791077 7.000000
10.964521 12.573297 -0.643796 8.000000
18.837648 8.812175 -1.173651 15.000000
19.949440 0.393498 -1.290323 8.000000
11.390996 -12.041430 -0.801983 7.000000
10.935079 12.632708 -0.630180 6.000000
18.679380 8.821727 -1.154947 7.000000
20.077560 0.469648 -1.298713 7.000000
11.296565 -11.854273 -0.812324 30.000000
10.827188 12.601108 -0.612101 1.000000
18.597897 8.866757 -1.141089 5.000000
19.936045 0.539454 -1.289678 8.000000
11.098807 -11.565644 -0.809219 28.000000
10.721926 12.567080 -0.591305 1.000000
18.502829 8.904809 -1.126467 5.000000
20.028919 0.615438 -1.292311 7.000000
11.074686 -11.456163 -0.818335 9.000000
18.353483 8.915932 -1.115785 6.000000
20.125809 0.692258 -1.305777 7.000000
11.081263 -11.379207 -0.829631 6.000000
18.236032 8.941634 -1.099963 9.000000
20.083382 0.760995 -1.303188 7.000000
12.529169 -5.001167 -0.893669 17.000000
11.062943 -11.277401 -0.838984 5.000000
18.181274 8.997594 -1.087990 30.000000
20.070486 0.834184 -1.302541 7.000000
15.878794 -6.270835 -1.136926 9.000000
10.992951 -11.128082 -0.844415 7.000000
18.140083 9.060130 -1.069760 19.000000
20.152391 0.918639 -1.297479 7.000000
11.012115 -11.066062 -0.853697 7.000000
18.178429 9.162683 -1.066868 6.000000
20.088976 0.982515 -1.300649 7.000000
10.981275 -10.954475 -0.864480 6.000000
18.190054 9.252304 -1.051676 4.000000
20.165045 1.067393 -1.298762 7.000000
12.474149 -4.768404 -0.903392 9.000000
10.939335 -10.832935 -0.868829 7.000000
18.223145 9.353366 -1.044811 8.000000
20.216022 1.144409 -1.298759 7.000000
12.614080 -4.763948 -0.919227 10.000000
10.887448 -10.706539 -0.877777 7.000000
18.304190 9.479886 -1.047836 8.000000
20.261047 1.221472 -1.309044 7.000000
12.551414 -4.687788 -0.922799 9.000000
10.868916 -10.610235 -0.886441 7.000000
18.279137 9.552039 -1.026746 8.000000
20.212748 1.285846 -1.295544 7.000000
13.208401 -4.880695 -0.974782 7.000000
10.853407 -10.517683 -0.895261 7.000000
18.155048 9.563973 -1.010781 9.000000
20.372190 1.370977 -1.306077 7.000000
12.982100 -4.743068 -0.964064 5.000000
10.801394 -10.390783 -0.900949 6.000000
17.965990 9.548664 -0.991519 91.000000
20.441206 1.454486 -1.314441 8.000000
12.891184 -4.656367 -0.960846 8.000000
10.755840 -10.278504 -0.907332 6.000000
17.986860 9.648512 -0.983995 94.000000
20.385979 1.525673 -1.311241 9.000000
12.715262 -4.540208 -0.951223 7.000000
10.852588 -10.291524 -0.925254 6.000000
17.978031 9.728797 -0.978305 98.000000
20.470020 1.607431 -1.313418 8.000000
12.731346 -4.493408 -0.958293 8.000000
10.773372 -10.141666 -0.928287 6.000000
17.981195 9.807737 -0.969493 74.000000
20.424208 1.679175 -1.310864 9.000000
12.723867 -4.438391 -0.961227 6.000000
10.674977 -9.975498 -0.929453 6.000000
18.095398 9.964486 -0.963345 6.000000
20.313742 1.745073 -1.300603 8.000000
12.645433 -4.359109 -0.958781 37.000000
10.641366 -9.871277 -0.936089 6.000000
18.111021 10.051502 -0.947832 5.000000
20.496746 1.836498 -1.301924 7.000000
10.614475 -9.774195 -0.943211 6.000000
18.193113 10.192805 -0.939673 5.000000
20.335857 1.897240 -1.292138 7.000000
10.559675 -9.655835 -0.945373 6.000000
18.250980 10.304893 -0.933425 5.000000
20.532629 1.991536 -1.301481 7.000000
10.590684 -9.613155 -0.957526 6.000000
23.537189 13.409047 -1.192196 1.000000
20.470800 2.061301 -1.294427 7.000000
10.569757 -9.523734 -0.962449 6.000000
2.061461 2.821794 -0.053677 5.000000
20.383327 2.131584 -1.289403 7.000000
10.511135 -9.401341 -0.963857 5.000000
1.997837 2.756864 -0.048730 7.000000
24.373716 14.111904 -1.205053 6.000000
20.519476 2.221881 -1.294906 7.000000
13.425615 -4.297574 -1.040143 31.000000
10.470288 -9.295957 -0.969257 6.000000
1.974107 2.743217 -0.045423 7.000000
24.430401 14.264537 -1.190647 7.000000
20.525846 2.298715 -1.299450 7.000000
13.060234 -4.127903 -1.020271 9.000000
10.481071 -9.237057 -0.981816 6.000000
1.954880 2.738618 -0.040523 7.000000
24.339397 14.342724 -1.164312 7.000000
20.562571 2.379171 -1.291437 7.000000
13.003879 -4.057728 -1.014699 255.000000
10.412986 -9.109461 -0.982011 6.000000
1.952070 2.752930 -0.037698 7.000000
24.421265 14.500287 -1.150660 8.000000
20.718092 2.466815 -1.301711 7.000000
12.846778 -3.957094 -1.006021 11.000000
10.371092 -9.012275 -0.984877 6.000000
1.912273 2.719879 -0.033078 7.000000
24.443892 14.629369 -1.139186 8.000000
20.604235 2.537183 -1.291550 7.000000
13.013510 -3.956287 -1.022710 15.000000
10.269001 -8.854585 -0.983841 6.000000
1.923774 2.754590 -0.030494 7.000000
24.428946 14.742297 -1.131024 9.000000
20.660295 2.613666 -1.291951 7.000000
13.056233 -3.917058 -1.029717 9.000000
10.209807 -8.738506 -0.986885 38.000000
1.885204 2.720551 -0.026574 7.000000
24.426636 14.863308 -1.113439 8.000000
20.779465 2.706157 -1.296344 7.000000
10.157639 -8.629555 -0.988134 34.000000
1.871927 2.723670 -0.023073 8.000000
24.231504 14.878186 -1.077437 8.000000
20.793839 2.792962 -1.286902 7.000000
10.135173 -8.546708 -0.994528 31.000000
1.851622 2.713359 -0.020067 8.000000
24.212254 14.977154 -1.063855 7.000000
20.789627 2.862612 -1.283546 7.000000
15.139022 -4.358207 -1.206661 27.000000
10.169718 -8.512255 -1.004161 6.000000
1.839346 2.715682 -0.016602 7.000000
24.054443 14.995884 -1.039399 8.000000
20.857765 2.953645 -1.284753 7.000000
15.130509 -4.295767 -1.210243 24.000000
10.173328 -8.452061 -1.013061 6.000000
1.823860 2.708060 -0.013107 7.000000
24.152229 15.180052 -1.026080 8.000000
20.880533 3.042418 -1.283201 7.000000
15.131750 -4.236250 -1.209092 32.000000
10.184596 -8.398519 -1.018064 9.000000
1.822738 2.726890 -0.009732 7.000000
24.265715 15.375737 -1.018228 7.000000
20.929785 3.120509 -1.283149 7.000000
15.117935 -4.172691 -1.212265 37.000000
10.245479 -8.385827 -1.032694 9.000000
1.812735 2.733557 -0.007442 7.000000
24.420347 15.599453 -1.006853 7.000000
20.977633 3.206282 -1.283077 7.000000
15.176009 -4.128919 -1.221223 81.000000
10.205944 -8.291189 -1.034876 10.000000
1.811432 2.752404 -0.003451 6.000000
24.702768 15.901546 -0.989979 9.000000
20.951607 3.280934 -1.271068 7.000000
15.480238 -4.147917 -1.250042 38.000000
10.254958 -8.268800 -1.048333 10.000000
1.790399 2.742279 0.000000 6.000000
24.728590 16.046665 -0.977912 15.000000
20.944588 3.358529 -1.267665 7.000000
15.625256 -4.125453 -1.263360 10.000000
10.175667 -8.143502 -1.046326 9.000000
1.750908 2.702353 0.003372 5.000000
24.795639 16.219631 -0.962200 16.000000
20.966394 3.440894 -1.273461 7.000000
15.789392 -4.106944 -1.281136 9.000000
10.202042 -8.109258 -1.055425 8.000000
1.757686 2.733678 0.006807 5.000000
24.920153 16.431812 -0.948502 14.000000
21.013365 3.527743 -1.265894 7.000000
15.794681 -4.046571 -1.280353 7.000000
10.151601 -8.002877 -1.058230 20.000000
1.747650 2.740094 0.010210 5.000000
24.967255 16.588205 -0.931545 10.000000
21.217182 3.641966 -1.271428 7.000000
15.769874 -3.978679 -1.288576 7.000000
10.176209 -7.961974 -1.069098 8.000000
1.705979 2.695466 0.013919 5.000000
25.052423 16.777470 -0.905407 7.000000
21.203907 3.719745 -1.267670 7.000000
16.010538 -3.982972 -1.304257 6.000000
10.328167 -8.025793 -1.086858 7.000000
1.720484 2.739499 0.017503 5.000000
21.229654 3.804518 -1.266257 7.000000
16.259047 -3.972549 -1.329013 6.000000
10.485832 -8.081011 -1.111660 6.000000
1.678697 2.694843 0.020503 4.000000
21.265316 3.891407 -1.257869 7.000000
16.471735 -3.960595 -1.351154 6.000000
10.518720 -8.045078 -1.121324 5.000000
1.706067 2.760202 0.025486 6.000000
21.329849 3.984067 -1.254941 7.000000
16.641350 -3.936915 -1.363874 8.000000
10.662745 -8.093465 -1.140567 10.000000
1.685951 2.749067 0.028706 4.000000
34.192886 23.623343 -1.124575 6.000000
21.334934 4.065997 -1.252305 7.000000
16.853096 -3.928041 -1.383193 23.000000
10.680931 -8.051582 -1.149057 6.000000
1.670651 2.746658 0.031984 5.000000
34.028778 23.694683 -1.093057 9.000000
21.521433 4.183343 -1.252627 7.000000
16.936275 -3.875814 -1.394835 8.000000
10.935783 -8.175058 -1.184938 6.000000
1.648115 2.731034 0.035632 5.000000
33.877216 23.765165 -1.047483 9.000000
21.614113 4.283630 -1.251210 7.000000
16.979111 -3.823294 -1.394198 9.000000
11.102481 -8.242424 -1.204895 6.000000
1.630847 2.723868 0.038789 5.000000
33.782017 23.883610 -1.032788 8.000000
21.603374 4.363853 -1.247647 7.000000
16.992535 -3.760932 -1.400273 8.000000
11.212137 -8.260261 -1.223299 6.000000
1.621788 2.729231 0.041559 2.000000
33.760105 24.054190 -0.998611 8.000000
21.680349 4.462168 -1.249153 8.000000
16.991356 -3.695396 -1.402105 8.000000
11.345830 -8.294773 -1.249393 6.000000
1.555446 2.640623 0.043864 1.000000
35.581169 25.539425 -1.016865 2.000000
21.620724 4.532560 -1.231195 7.000000
16.981203 -3.621859 -1.406157 7.000000
11.487370 -8.327698 -1.268776 6.000000
36.581451 26.461098 -1.016680 2.000000
21.618820 4.614944 -1.228172 8.000000
16.934828 -3.553296 -1.398293 7.000000
11.678794 -8.401340 -1.296633 6.000000
36.545513 26.639677 -0.978903 8.000000
21.846107 4.747247 -1.234236 8.000000
16.957020 -3.493115 -1.405142 8.000000
11.888186 -8.492289 -1.327030 7.000000
36.380451 26.714323 -0.937568 10.000000
21.850374 4.824110 -1.223623 9.000000
16.882620 -3.410266 -1.394856 7.000000
12.048655 -8.540398 -1.349236 8.000000
36.218639 26.800383 -0.896588 37.000000
21.773651 4.894926 -1.212557 9.000000
16.889639 -3.347302 -1.400463 8.000000
12.233857 -8.604480 -1.376965 33.000000
30.241686 22.549669 -0.711152 139.000000
21.684038 4.954360 -1.196841 9.000000
16.946060 -3.293981 -1.401098 6.000000
12.334127 -8.607607 -1.392633 28.000000
1.588229 2.817502 0.066620 3.000000
30.271196 22.736519 -0.680658 8.000000
21.457415 4.985402 -1.169911 8.000000
16.879454 -3.216875 -1.397625 7.000000
12.399435 -8.582575 -1.401584 9.000000
1.590535 2.844760 0.071685 1.000000
30.283884 22.920145 -0.643044 1.000000
21.157749 4.997581 -1.143148 9.000000
16.886230 -3.154072 -1.397220 7.000000
12.463031 -8.559200 -1.413203 14.000000
1.602362 2.889548 0.077288 1.000000
30.005590 22.874689 -0.586130 1.000000
16.952862 -3.099200 -1.392655 6.000000
12.551711 -8.552570 -1.422368 10.000000
1.567996 2.817133 0.075980 1.000000
30.141006 22.977924 -0.568926 1.000000
20.985817 5.038249 -1.097080 9.000000
17.130314 -3.131640 -1.394997 8.000000
12.556437 -8.555790 -1.414879 9.000000
1.570513 2.798622 0.072826 1.000000
30.356592 22.966841 -0.571403 1.000000
21.184332 5.003860 -1.098874 9.000000
17.197748 -3.212258 -1.386118 6.000000
12.542828 -8.614002 -1.398145 15.000000
1.627568 2.875546 0.072675 1.000000
30.456476 22.867371 -0.578350 2.000000
21.440866 4.981557 -1.111227 9.000000
17.231112 -3.283894 -1.374365 6.000000
12.463433 -8.626873 -1.374137 10.000000
1.637632 2.869911 0.069215 3.000000
36.047295 26.868824 -0.714126 9.000000
21.765486 4.972969 -1.131005 9.000000
17.395348 -3.381313 -1.385332 6.000000
12.420262 -8.664495 -1.362211 10.000000
1.637699 2.846896 0.065930 4.000000
36.205303 26.780737 -0.754617 35.000000
22.110003 4.966487 -1.147954 9.000000
17.388439 -3.446157 -1.376440 7.000000
12.279199 -8.633167 -1.339637 7.000000
1.635613 2.819313 0.062015 4.000000
36.641529 26.896194 -0.777520 21.000000
22.337931 4.931753 -1.154839 9.000000
17.531908 -3.544607 -1.382583 7.000000
12.049480 -8.537824 -1.302394 6.000000
1.643299 2.797579 0.056067 3.000000
36.710506 26.750137 -0.808718 15.000000
22.501862 4.881521 -1.170439 10.000000
17.543447 -3.613918 -1.381384 6.000000
11.779682 -8.411674 -1.266373 6.000000
1.650532 2.787565 0.053153 1.000000
36.868717 26.659092 -0.833876 16.000000
22.421726 4.778157 -1.169363 10.000000
17.603977 -3.693698 -1.377733 6.000000
11.604109 -8.350688 -1.238209 6.000000
1.630010 2.730033 0.048839 1.000000
37.067238 26.596294 -0.868017 10.000000
22.635420 4.732909 -1.179552 9.000000
17.537159 -3.746837 -1.367272 9.000000
11.429111 -8.288507 -1.210358 6.000000
1.616355 2.685817 0.044866 1.000000
37.261143 26.538887 -0.902332 10.000000
22.623066 4.643848 -1.182054 9.000000
17.441185 -3.793228 -1.351465 14.000000
11.403358 -8.333776 -1.200925 6.000000
1.633988 2.692729 0.042332 1.000000
37.406898 26.436583 -0.919504 9.000000
22.635239 4.559954 -1.177769 7.000000
17.364342 -3.843223 -1.340350 9.000000
11.261244 -8.293407 -1.176859 6.000000
1.679913 2.746746 0.041025 1.000000
36.778568 25.790915 -0.933103 4.000000
22.636700 4.473977 -1.185059 7.000000
17.355003 -3.911119 -1.331411 13.000000
11.015682 -8.175003 -1.139855 5.000000
1.700006 2.757924 0.037887 4.000000
34.964264 24.327959 -0.914555 3.000000
22.572781 4.383615 -1.184969 7.000000
17.316704 -3.969236 -1.323344 9.000000
10.842617 -8.108362 -1.115498 5.000000
1.678453 2.700749 0.033855 3.000000
35.069275 24.219782 -0.929968 2.000000
22.653969 4.305087 -1.188315 7.000000
17.200285 -4.008961 -1.312461 8.000000
10.694199 -8.058658 -1.091496 33.000000
1.733005 2.766936 0.031341 5.000000
34.629452 23.729040 -0.945314 4.000000
22.574650 4.212498 -1.187433 7.000000
16.894798 -4.003103 -1.284168 6.000000
10.613596 -8.059077 -1.076912 5.000000
1.727134 2.735226 0.027666 5.000000
34.777641 23.643736 -0.976362 9.000000
22.728718 4.146902 -1.198695 7.000000
16.148617 -3.888866 -1.219782 6.000000
10.529163 -8.055979 -1.062018 6.000000
1.750108 2.750295 0.024466 6.000000
34.722599 23.420689 -1.001656 9.000000
22.604513 4.046832 -1.195449 7.000000
16.178263 -3.958796 -1.217264 9.000000
10.500297 -8.095079 -1.050448 7.000000
1.754310 2.735769 0.021555 5.000000
34.911842 23.371443 -1.019430 8.000000
22.535378 3.949267 -1.195024 7.000000
16.105076 -4.006491 -1.209994 9.000000
10.400418 -8.079027 -1.031848 8.000000
1.750765 2.708343 0.018012 5.000000
35.154896 23.348013 -1.053501 9.000000
22.603838 3.875927 -1.197893 7.000000
16.337276 -4.127899 -1.222655 33.000000
10.218344 -7.997815 -1.005293 23.000000
1.784779 2.739935 0.014839 5.000000
