VERSION .7
FIELDS x y z intensity
SIZE 4 4 4 4
TYPE F F F F
COUNT 1 1 1 1
WIDTH 1217
HEIGHT 1
VIEWPOINT 0 0 0 1 0 0 0
POINTS 1217
DATA ascii
59.138199 -41.301430 2.745845 20.000000
10.549579 -17.296556 1.104331 21.000000
41.851028 -8.362660 0.752405 11.000000
54.462002 -38.333366 2.581795 17.000000
10.475376 -17.317358 1.117373 24.000000
61.677917 45.273796 -2.604964 29.000000
41.685898 -8.473516 0.749937 7.000000
54.168911 -38.410530 2.574242 17.000000
10.414458 -17.353144 1.131502 17.000000
41.732761 -8.642439 0.758785 2.000000
59.908169 -42.811008 2.905907 10.000000
8.075463 -13.568244 0.896596 10.000000
61.291992 44.302826 -2.693817 25.000000
41.755081 8.852468 -0.394841 1.000000
59.977062 -43.193199 2.942749 21.000000
8.070569 -13.657466 0.911924 10.000000
61.272987 43.948082 -2.764951 17.000000
41.571674 8.654490 -0.415040 6.000000
47.447704 -10.180569 0.847053 20.000000
7.805822 -13.326009 0.898602 7.000000
47.234318 -10.324657 0.725773 2.000000
61.210472 43.903240 -2.946454 24.000000
47.453297 -10.190433 0.686195 13.000000
7.879498 -13.441027 0.876533 8.000000
61.296974 44.306431 -2.931974 28.000000
59.989468 -43.202137 2.672011 21.000000
7.962464 -13.474525 0.861344 9.000000
63.170410 46.014008 -3.002311 18.000000
41.525188 -8.599453 0.562531 9.000000
59.899593 -42.773304 2.608887 21.000000
8.094039 -13.583267 0.853578 9.000000
62.712597 46.033291 -2.947758 21.000000
41.619102 -8.467503 0.526330 9.000000
59.787601 -42.410358 2.508530 21.000000
10.417153 -17.343910 1.067389 10.000000
41.846241 -8.354109 0.506465 11.000000
10.494252 -17.328070 1.043957 18.000000
31.728617 23.632557 -1.471439 3.000000
41.447132 -8.131603 0.479187 11.000000
59.154922 -41.328476 2.343426 20.000000
10.586459 -17.343405 1.025767 28.000000
31.694239 23.805357 -1.446555 4.000000
47.376503 -9.097553 0.530471 7.000000
59.268276 -41.054607 2.290982 20.000000
10.626467 -17.273075 1.006053 23.000000
31.595415 23.912767 -1.425260 1.000000
43.572399 -8.201589 0.464319 7.000000
59.109245 -40.655048 2.216944 17.000000
10.703506 -17.256262 0.982484 10.000000
58.897087 -40.207005 2.153878 14.000000
8.370921 -13.391073 0.750265 10.000000
58.942139 -39.921833 2.087980 9.000000
10.846428 -17.210510 0.941570 26.000000
68.143593 16.800739 -0.906509 23.000000
47.102306 -8.356276 0.459224 5.000000
58.641235 -39.405273 2.022826 19.000000
10.917586 -17.190098 0.924725 28.000000
64.919777 16.258545 -0.841045 7.000000
47.201660 -8.195569 0.451534 7.000000
57.361382 -38.255287 1.937929 9.000000
11.005275 -17.188633 0.905393 25.000000
79.700851 20.271055 -1.047847 6.000000
47.002720 -7.966793 0.424358 9.000000
57.298347 -37.910564 1.871090 18.000000
11.060298 -17.142506 0.883587 22.000000
54.256504 42.941536 -2.247027 22.000000
79.271721 20.456785 -1.014556 4.000000
45.825481 -7.611014 0.405391 14.000000
57.458881 -37.714725 1.823788 18.000000
11.120747 -17.098303 0.865571 23.000000
46.996918 -7.637095 0.390584 9.000000
57.658504 -37.558434 1.765860 18.000000
8.773871 -13.387473 0.659674 8.000000
46.913681 -7.430397 0.381350 15.000000
57.632812 -37.241547 1.724930 18.000000
8.952684 -13.551711 0.652342 7.000000
46.874023 -7.264859 0.355992 22.000000
57.400085 -36.793636 1.642475 1.000000
9.462644 -14.215494 0.667970 4.000000
46.885567 -7.090775 0.347604 18.000000
57.355961 -36.483509 1.601946 1.000000
63.691566 52.316841 -2.446279 29.000000
62.211468 17.276155 -0.743777 1.000000
53.099327 -7.831557 0.365351 27.000000
57.392765 -36.212139 1.563705 1.000000
64.005409 52.968700 -2.393209 30.000000
62.124832 17.474203 -0.754695 4.000000
53.182178 -7.644720 0.356348 8.000000
9.538205 -13.998224 0.612242 8.000000
64.180000 53.510723 -2.377862 22.000000
62.169559 17.756399 -0.756098 4.000000
53.119591 -7.446564 0.327666 9.000000
57.015442 -35.406204 1.441006 33.000000
9.391786 -13.675357 0.582227 10.000000
64.398018 54.093834 -2.334508 21.000000
78.778152 22.812637 -0.930467 19.000000
53.210926 -7.260609 0.328063 20.000000
57.366798 -35.333710 1.411310 31.000000
9.314643 -13.462090 0.560225 8.000000
64.399246 54.498695 -2.268102 24.000000
84.427048 24.784199 -0.967536 26.000000
53.247150 -7.066855 0.318749 26.000000
57.629192 -35.204624 1.355624 34.000000
9.287074 -13.317661 0.538606 7.000000
64.626259 55.098576 -2.223863 22.000000
83.986137 24.989481 -0.932936 22.000000
53.317379 -6.877410 0.309634 24.000000
57.914780 -35.102077 1.323978 27.000000
9.497522 -13.518622 0.533638 1.000000
64.807716 55.664757 -2.192350 13.000000
84.146957 25.341379 -0.935651 7.000000
53.411839 -6.690666 0.281852 28.000000
58.292530 -35.039536 1.270295 38.000000
64.772934 56.028969 -2.137948 16.000000
53.426079 -6.493651 0.281800 20.000000
58.567307 -34.913124 1.225868 23.000000
65.321930 56.923748 -2.102415 6.000000
81.977081 25.344791 -0.868632 1.000000
53.399906 -6.291945 0.272153 6.000000
58.844273 -34.800407 1.193308 28.000000
59.708439 52.418228 -1.872412 21.000000
81.659676 25.574940 -0.836383 10.000000
59.084076 -34.650562 1.159713 24.000000
59.516647 52.637367 -1.830811 20.000000
56.051456 17.791336 -0.564527 9.000000
45.919670 -5.077692 0.201585 5.000000
59.384403 -34.534801 1.103151 34.000000
41.890877 37.323410 -1.253629 9.000000
55.833733 17.947752 -0.542519 6.000000
45.893230 -4.904572 0.201389 1.000000
59.671322 -34.409607 1.070055 26.000000
41.806679 37.524158 -1.206169 6.000000
52.162701 -5.381289 0.219660 10.000000
60.051914 -34.350311 1.038491 27.000000
41.498047 37.509521 -1.161965 1.000000
79.234550 26.081648 -0.727968 20.000000
60.317039 -34.209171 1.004585 36.000000
66.924042 60.938915 -1.816931 27.000000
78.351738 26.140118 -0.677564 11.000000
46.287880 -4.432556 0.186662 7.000000
60.664719 -34.113098 0.971838 31.000000
66.479904 60.981674 -1.763676 29.000000
78.136986 26.387123 -0.676539 16.000000
45.636726 -4.201458 0.159977 125.000000
61.008396 -34.012646 0.914374 20.000000
66.366356 61.284012 -1.702956 22.000000
77.618683 26.499163 -0.644177 8.000000
45.610565 -4.046564 0.159837 255.000000
61.293423 -33.891640 0.880188 25.000000
66.292839 61.711010 -1.628349 19.000000
77.020317 26.610472 -0.611570 15.000000
45.531136 -3.863373 0.151530 255.000000
61.571072 -33.751091 0.845623 19.000000
50.645977 -65.860199 1.740315 1.000000
61.184303 57.375561 -1.434804 13.000000
76.629837 26.790352 -0.580907 23.000000
45.490170 -3.692018 0.151348 255.000000
61.945141 -33.661472 0.812141 19.000000
50.888718 -65.699997 1.668213 1.000000
76.107086 26.921038 -0.549507 23.000000
45.397507 -3.533002 0.143052 242.000000
62.270950 -33.543472 0.777756 19.000000
61.616257 58.573921 -1.335515 1.000000
75.622063 27.061728 -0.518680 19.000000
62.617325 -33.448582 0.743444 19.000000
61.221115 58.626949 -1.287205 16.000000
75.193268 27.219584 -0.516420 21.000000
45.063145 -3.174833 0.118268 227.000000
74.750587 27.354832 -0.472353 7.000000
45.134350 -3.013645 0.118425 129.000000
48.362637 -25.380184 0.495709 10.000000
45.184238 -56.621582 1.175925 185.000000
68.994949 25.535698 -0.410890 9.000000
45.170040 -2.849773 0.118490 9.000000
48.393459 -25.170574 0.466512 23.000000
69.027466 25.835779 -0.385917 6.000000
45.255070 -2.688646 0.110774 101.000000
48.427906 -24.974104 0.437469 32.000000
6.986840 6.892366 -0.116484 1.000000
73.253273 27.723946 -0.382767 16.000000
45.274601 -2.523317 0.110799 255.000000
48.492607 -24.782888 0.408714 6.000000
72.372971 -88.706413 1.558637 217.000000
6.907240 6.859186 -0.108739 1.000000
72.973885 27.924406 -0.340927 7.000000
45.273148 -2.364742 0.110774 14.000000
64.739075 -32.787197 0.506630 1.000000
6.892709 6.895116 -0.102100 1.000000
72.311577 27.975239 -0.311245 17.000000
53.621677 -2.603776 0.121807 14.000000
65.069069 -32.655216 0.470151 9.000000
43.201466 -52.221600 0.816239 1.000000
6.816936 6.871886 -0.094609 1.000000
71.756882 28.063440 -0.309298 10.000000
65.385582 -32.514603 0.420592 1.000000
43.379326 -52.010086 0.732895 198.000000
6.760196 6.864831 -0.084080 1.000000
71.556122 28.287739 -0.241729 9.000000
81.540573 -3.360538 0.185167 120.000000
65.597412 -32.334831 0.408461 1.000000
43.625172 -51.935211 0.698463 215.000000
6.740920 6.890815 -0.079076 1.000000
70.806580 28.291945 -0.239546 1.000000
81.517418 -3.060344 0.156613 191.000000
43.867355 -51.836552 0.628175 222.000000
6.565878 6.761278 -0.070733 37.000000
70.869736 28.604460 -0.213419 6.000000
81.638046 -2.765271 0.142567 18.000000
14.613351 -17.140301 0.188703 31.000000
6.541092 6.785340 -0.062509 8.000000
70.134880 28.607237 -0.171860 14.000000
81.592659 -2.464374 0.142471 142.000000
14.666700 -17.081741 0.165042 33.000000
6.541605 6.833450 -0.054485 13.000000
69.770737 28.757421 -0.144882 15.000000
81.821068 -2.171141 0.142855 16.000000
14.736414 -17.048223 0.149457 39.000000
6.495874 6.835659 -0.047729 8.000000
69.452614 28.924555 -0.105048 16.000000
81.853470 -1.871809 0.142899 184.000000
70.675766 -33.257488 0.218124 3.000000
14.837674 -17.026733 0.126138 27.000000
6.447830 6.839879 -0.039375 3.000000
64.235176 27.028368 -0.072979 23.000000
53.789051 -25.070818 0.145007 7.000000
6.409232 6.841870 -0.034361 7.000000
68.585358 29.155151 -0.039021 14.000000
53.885567 -24.898626 0.113963 12.000000
6.353486 6.832381 -0.026054 9.000000
68.248337 29.307690 -0.012963 21.000000
53.944206 -24.663429 0.082819 11.000000
6.314848 6.840940 -0.017874 5.000000
67.640999 29.326956 0.000000 23.000000
54.002380 -24.451122 0.062078 11.000000
6.262716 6.834555 -0.011325 10.000000
67.235352 29.444302 0.038432 25.000000
53.969151 -24.220741 0.020649 11.000000
6.211905 6.826794 -0.003222 1.000000
66.884613 29.583336 0.063822 25.000000
51.056850 -22.710621 -0.009753 37.000000
35.009731 38.732445 0.027337 17.000000
66.521278 29.686766 0.101711 25.000000
51.116207 -22.502319 -0.038991 62.000000
34.784031 38.767437 0.063634 17.000000
66.143028 29.809149 0.126624 25.000000
51.170822 -22.302824 -0.058455 93.000000
34.595226 38.828831 0.108919 17.000000
65.732910 29.914658 0.163862 25.000000
92.386101 0.838493 0.129001 1.000000
51.258251 -22.138952 -0.077960 60.000000
7.523943 -8.099563 -0.019295 4.000000
34.422791 38.921577 0.154168 19.000000
65.469002 30.070856 0.188613 25.000000
92.657387 1.180603 0.129385 1.000000
47.146183 -20.158197 -0.098441 165.000000
7.512570 -8.028107 -0.028785 7.000000
34.190739 38.945911 0.198993 17.000000
61.221474 28.392092 0.212010 86.000000
92.761887 1.554386 0.129538 1.000000
47.415489 -20.048594 -0.125789 142.000000
7.505585 -7.959166 -0.038188 4.000000
34.008465 39.012115 0.243889 17.000000
61.166702 28.639561 0.247546 175.000000
90.231102 1.842807 0.126013 7.000000
51.372192 -21.499990 -0.155516 10.000000
7.300513 -7.685073 -0.046251 7.000000
33.829105 39.094730 0.288746 17.000000
61.255573 28.955376 0.283811 60.000000
90.114525 2.139403 0.125859 1.000000
51.452389 -21.333323 -0.174986 39.000000
7.301745 -7.635501 -0.053474 12.000000
33.600784 39.119724 0.315021 17.000000
64.091187 30.583662 0.297466 33.000000
87.976059 2.442027 0.092164 6.000000
51.543087 -21.139360 -0.204187 39.000000
7.330966 -7.607364 -0.064538 7.000000
33.415165 39.179489 0.359500 22.000000
63.946987 30.803102 0.334484 8.000000
88.341309 2.776237 0.107983 1.000000
51.587723 -20.937115 -0.223493 39.000000
7.404031 -7.627038 -0.074211 8.000000
33.200058 39.217491 0.403573 18.000000
63.353230 30.790009 0.368821 24.000000
51.615036 -20.749111 -0.242731 46.000000
7.432739 -7.605980 -0.081670 6.000000
33.027802 39.277397 0.438889 18.000000
63.097950 30.925024 0.404724 24.000000
92.421761 3.550486 0.112998 1.000000
51.685970 -20.557898 -0.271834 45.000000
7.397378 -7.514498 -0.090181 8.000000
32.805965 39.319092 0.491573 16.000000
62.614635 31.000490 0.439003 14.000000
92.228287 3.881636 0.112778 20.000000
51.744717 -20.341068 -0.291120 40.000000
7.355696 -7.414990 -0.098440 9.000000
32.716522 39.477291 0.545889 19.000000
62.281158 31.120131 0.486070 7.000000
92.199112 4.202862 0.161085 39.000000
51.797810 -20.163885 -0.310444 10.000000
7.359023 -7.369305 -0.101793 9.000000
32.462296 39.492130 0.579982 16.000000
92.198120 4.541501 0.128889 39.000000
44.690338 -17.208731 -0.292542 12.000000
7.321058 -7.272663 -0.113472 8.000000
32.249249 39.485172 0.613986 16.000000
61.704483 31.385761 0.531643 23.000000
44.594143 -16.984272 -0.308160 14.000000
7.302372 -7.206147 -0.119975 1.000000
32.108952 39.637104 0.667766 16.000000
61.539852 31.586466 0.567439 5.000000
44.499832 -16.752985 -0.323660 43.000000
13.293986 -13.013889 -0.233791 7.000000
31.884758 39.656643 0.710535 16.000000
61.165897 31.678307 0.601127 22.000000
44.648735 -16.640205 -0.340973 32.000000
13.349965 -12.977741 -0.246978 3.000000
31.616161 39.576538 0.742688 9.000000
60.865215 31.778996 0.635159 22.000000
44.662399 -16.459120 -0.357231 29.000000
13.443151 -12.981900 -0.260953 1.000000
31.460989 39.679661 0.804335 8.000000
60.225842 31.726622 0.689105 23.000000
44.811497 -16.327768 -0.382916 22.000000
59.898277 31.821663 0.698463 23.000000
93.766609 6.688376 0.164070 38.000000
45.096699 -16.244701 -0.401575 10.000000
31.244560 40.020000 0.886233 1.000000
59.518585 31.926960 0.730893 22.000000
93.462227 7.011056 0.179939 30.000000
52.305744 -18.625238 -0.484541 8.000000
12.539997 -11.841913 -0.282992 1.000000
31.148048 40.170300 0.922768 1.000000
59.264507 32.070938 0.764499 22.000000
52.222580 -18.380228 -0.502470 4.000000
12.502481 -11.728298 -0.293238 9.000000
31.052774 40.337410 0.977438 1.000000
58.911678 32.133030 0.796459 22.000000
52.402760 -18.228065 -0.522926 39.000000
12.556167 -11.692437 -0.308467 2.000000
30.680651 40.186741 1.023761 3.000000
58.576988 32.242924 0.851961 22.000000
71.043129 6.103035 0.174231 9.000000
52.459587 -18.032566 -0.542195 40.000000
12.617572 -11.655398 -0.317820 1.000000
30.556835 40.286331 1.059163 1.000000
58.277267 32.330215 0.860790 19.000000
52.496738 -17.830460 -0.561255 39.000000
58.325172 32.663666 0.921774 22.000000
69.059868 6.442963 0.181584 23.000000
52.601124 -17.661362 -0.581079 53.000000
30.067968 40.251236 1.148921 1.000000
58.468636 32.999184 0.960926 27.000000
52.617855 -17.452646 -0.599907 40.000000
29.870102 40.278843 1.190510 8.000000
58.561218 33.321503 0.999640 22.000000
52.681267 -17.259609 -0.619258 55.000000
29.594122 40.213917 1.237694 7.000000
58.595444 33.653061 1.049707 13.000000
66.821541 6.976065 0.199342 19.000000
52.739208 -17.064800 -0.638551 58.000000
29.505995 40.388737 1.283574 14.000000
59.106117 34.207512 1.096648 15.000000
52.982155 -16.929142 -0.660155 10.000000
37.722527 -33.374073 -1.151778 17.000000
29.544851 40.754681 1.335711 7.000000
58.844315 34.358292 1.129918 23.000000
64.563553 7.207735 0.215432 23.000000
53.148525 -16.767862 -0.680915 16.000000
37.776527 -33.152462 -1.193239 11.000000
29.395878 40.848484 1.379364 6.000000
58.962212 34.689827 1.170214 23.000000
61.943916 7.145245 0.206777 26.000000
54.116337 -16.855362 -0.712306 14.000000
37.878086 -33.019886 -1.228083 16.000000
29.355623 41.109520 1.428653 9.000000
59.044811 35.030373 1.210352 23.000000
62.262436 7.391284 0.218864 1.000000
44.285355 -13.615492 -0.598420 29.000000
38.058674 -32.932590 -1.265175 8.000000
29.265976 41.287968 1.484336 16.000000
59.100277 35.384800 1.262496 23.000000
62.088306 7.623486 0.229276 1.000000
49.157185 -14.916353 -0.681444 9.000000
29.159698 41.459286 1.530915 7.000000
59.172337 35.680950 1.302616 23.000000
61.903900 7.809305 0.239579 1.000000
49.259304 -14.750391 -0.691082 9.000000
29.083834 41.675198 1.588210 13.000000
59.317806 36.065792 1.369323 23.000000
104.045227 13.513116 0.439487 1.000000
45.165657 -13.344387 -0.632959 22.000000
28.963158 41.812515 1.625126 9.000000
59.355495 36.387344 1.385419 21.000000
103.965340 13.890407 0.421054 1.000000
61.029064 -17.788351 -0.898740 145.000000
28.916122 42.073219 1.693566 14.000000
59.949806 37.040215 1.476126 13.000000
86.095932 11.824294 0.394361 1.000000
61.089050 -17.563168 -0.898670 151.000000
28.900591 42.366684 1.746113 8.000000
59.668713 37.169403 1.509375 24.000000
52.174080 7.351162 0.248295 8.000000
61.128662 -17.332243 -0.920495 147.000000
28.761057 42.495880 1.791914 9.000000
59.662632 37.469845 1.549591 24.000000
52.067570 7.530882 0.257100 171.000000
61.206062 -17.112072 -0.931805 153.000000
28.653273 42.656647 1.848345 6.000000
59.830441 37.867096 1.606830 24.000000
52.103867 7.731202 0.266611 255.000000
61.306610 -16.898167 -0.954589 102.000000
47.473938 -38.718800 -1.882398 6.000000
28.534622 42.818233 1.895765 8.000000
59.947578 38.249683 1.650984 24.000000
52.089966 7.924369 0.275883 255.000000
54.671383 -14.853887 -0.870201 34.000000
47.532925 -38.477669 -1.921867 18.000000
28.437649 42.964603 1.943306 10.000000
59.781029 38.452454 1.687505 24.000000
52.075336 8.117537 0.285160 255.000000
54.756557 -14.671975 -0.880632 14.000000
47.522038 -38.195042 -1.947980 1.000000
28.444717 43.352394 2.010043 9.000000
59.835808 38.798462 1.742869 24.000000
52.059998 8.310705 0.294442 95.000000
43.667919 -11.529408 -0.717382 27.000000
47.715328 -38.063381 -1.992828 52.000000
28.294971 43.454117 2.055489 6.000000
60.000515 39.203438 1.789193 24.000000
52.142632 8.519996 0.304306 1.000000
53.570190 -13.934022 -0.898540 10.000000
47.849495 -37.884266 -2.035273 165.000000
28.285931 43.790394 2.130271 13.000000
60.076065 39.567749 1.871138 24.000000
79.833038 13.330824 0.508558 1.000000
47.983864 -12.293386 -0.795431 26.000000
48.104774 -37.800373 -2.082984 27.000000
28.271078 44.070560 2.194494 8.000000
60.198566 39.950409 1.942379 21.000000
79.734077 13.614873 0.550597 1.000000
44.591755 -11.250331 -0.738511 26.000000
35.424271 -27.626724 -1.545211 18.000000
28.148979 44.270256 2.253829 13.000000
60.233669 40.292488 1.986235 19.000000
35.484909 -27.465448 -1.574819 15.000000
28.129158 44.582016 2.310777 9.000000
60.457394 40.763672 2.049470 25.000000
35.544830 -27.304090 -1.604357 16.000000
28.120829 44.932899 2.369955 8.000000
60.557446 41.139347 2.108869 22.000000
43.297825 -10.418868 -0.746240 1.000000
35.683506 -27.203234 -1.637471 17.000000
28.015339 45.078640 2.419399 8.000000
60.166153 41.196625 2.138699 11.000000
43.247906 -10.239313 -0.760246 1.000000
35.913544 -27.171055 -1.674929 10.000000
27.977005 45.387180 2.486390 10.000000
60.120464 41.489815 2.193507 11.000000
41.677017 7.897558 0.333162 1.000000
32.863445 -24.674576 -1.557181 8.000000
27.811337 45.508682 2.552484 7.000000
59.817749 41.589905 2.251384 1.000000
41.853790 8.090077 0.357132 6.000000
32.885117 -24.502882 -1.568278 193.000000
27.602127 45.504803 2.593671 17.000000
41.956245 8.269518 0.365727 1.000000
33.050140 -24.437967 -1.600605 196.000000
27.413614 45.551849 2.637390 5.000000
41.786362 8.380081 0.371925 7.000000
33.243309 -24.392849 -1.634449 202.000000
26.978647 45.203274 2.675942 8.000000
61.294041 43.607727 2.495424 9.000000
41.838448 8.550157 0.395026 5.000000
41.434788 -9.011520 -0.747557 27.000000
33.408764 -24.326382 -1.652638 172.000000
26.801687 45.265068 2.720072 11.000000
61.311424 43.959442 2.542220 13.000000
41.650055 8.670808 0.408396 1.000000
41.400764 -8.860440 -0.753801 68.000000
33.537251 -24.232346 -1.683522 7.000000
61.500462 44.420837 2.609498 17.000000
41.403351 -8.702415 -0.768035 54.000000
62.122799 45.217735 2.723480 27.000000
41.423389 -8.533142 -0.760382 103.000000
52.591869 -37.416557 -2.693902 1.000000
62.265728 45.671833 2.777550 20.000000
68.900719 15.123595 0.751044 8.000000
41.441532 -8.393721 -0.767582 139.000000
52.665890 -37.179234 -2.735782 1.000000
26.577335 46.387867 2.979631 8.000000
62.466034 46.154980 2.847949 17.000000
68.439705 15.285544 0.758865 7.000000
41.491364 -8.245617 -0.782711 39.000000
52.681568 -36.901737 -2.774539 1.000000
26.450426 46.542255 3.049211 10.000000
62.302032 46.387779 2.929658 27.000000
68.470581 15.556135 0.796604 8.000000
52.011703 -36.149078 -2.754414 1.000000
26.402784 46.857391 3.129424 6.000000
68.493248 15.812912 0.846586 22.000000
43.608372 -8.334518 -0.805970 19.000000
26.395723 47.229584 3.204962 10.000000
43.584713 -8.164531 -0.797232 5.000000
26.317278 47.497173 3.283132 15.000000
26.245735 47.368057 3.321640 8.000000
26.328053 47.108501 3.262914 9.000000
43.708984 -8.187810 -0.714106 7.000000
26.488544 47.009594 3.224641 10.000000
31.813177 23.859974 1.631949 3.000000
68.203445 15.746006 1.026290 13.000000
43.672676 -8.354710 -0.690744 7.000000
26.487215 46.606991 3.147328 9.000000
62.343918 46.385147 3.134612 27.000000
68.373009 15.521417 1.015739 18.000000
41.556446 -8.107867 -0.650347 8.000000
26.601202 46.429523 3.104110 9.000000
62.313438 46.042233 3.098297 17.000000
68.292633 15.240185 1.025923 16.000000
41.453232 -8.245561 -0.627065 182.000000
62.232834 45.631004 3.058973 20.000000
68.601974 15.045470 1.029735 7.000000
41.432846 -8.399489 -0.605078 241.000000
62.082420 45.188343 2.990117 27.000000
98.469383 21.217888 1.459292 20.000000
41.421574 -8.555379 -0.590600 224.000000
61.495941 44.417572 2.900971 23.000000
98.489296 20.862692 1.440924 10.000000
41.404907 -8.710289 -0.568656 189.000000
48.487427 -34.764812 -2.250292 5.000000
26.973227 45.554779 2.885739 4.000000
61.374466 43.988426 2.874417 22.000000
41.796066 8.693595 0.611017 1.000000
41.382584 -8.864103 -0.561404 189.000000
33.513458 -24.215157 -1.537783 33.000000
61.468193 43.731628 2.818899 24.000000
41.788559 8.532365 0.603001 7.000000
41.369637 -9.020039 -0.539499 189.000000
33.413651 -24.329937 -1.493942 252.000000
61.607300 43.459167 2.790902 26.000000
41.912590 8.397786 0.611804 6.000000
41.463383 -9.199803 -0.526330 8.000000
33.240273 -24.390623 -1.468562 255.000000
27.680634 45.634228 2.769150 9.000000
33.042992 -24.432680 -1.435067 251.000000
27.791636 45.440788 2.716968 9.000000
32.890095 -24.506594 -1.396482 214.000000
27.856739 45.192074 2.670737 7.000000
60.462555 41.710323 2.603574 21.000000
88.300087 -20.613068 -1.028710 1.000000
27.931389 44.943562 2.606532 8.000000
60.485573 41.415337 2.547084 13.000000
104.431404 19.355217 1.464526 27.000000
88.219246 -20.935450 -1.012828 1.000000
35.931187 -27.184404 -1.471044 9.000000
28.033663 44.793621 2.565952 9.000000
60.451687 41.067501 2.513761 12.000000
104.893188 19.081236 1.488717 1.000000
43.223083 -10.424829 -0.473388 1.000000
35.709118 -27.222761 -1.426802 12.000000
28.254665 44.746319 2.514173 7.000000
60.457851 40.748638 2.469570 15.000000
43.257584 -10.601068 -0.458640 4.000000
35.574211 -27.326658 -1.394056 16.000000
28.058144 44.093391 2.428123 7.000000
60.252235 40.304909 2.404745 17.000000
44.578915 -11.089982 -0.465039 8.000000
35.533859 -27.503334 -1.365016 17.000000
28.269016 44.067345 2.395750 13.000000
60.304832 40.020935 2.363036 19.000000
79.794991 13.582279 1.087857 23.000000
44.504189 -11.244762 -0.448661 22.000000
35.530293 -27.729359 -1.337651 11.000000
28.347864 43.852688 2.343783 9.000000
60.089329 39.561451 2.298616 18.000000
79.659821 13.273317 1.057181 9.000000
28.454744 43.666149 2.302913 5.000000
60.030766 39.223202 2.278596 23.000000
52.168037 8.496104 0.701141 10.000000
53.541225 -13.946444 -0.492496 10.000000
28.499706 43.436203 2.250074 10.000000
59.886082 38.816216 2.217817 23.000000
52.042870 8.298656 0.699085 134.000000
28.486176 43.070576 2.191381 8.000000
59.743061 38.413292 2.170067 23.000000
52.102703 8.112489 0.690280 255.000000
53.486084 -14.351565 -0.463945 38.000000
28.582197 42.889626 2.133169 7.000000
59.957787 38.256195 2.135728 24.000000
52.122314 7.919983 0.680947 255.000000
53.438103 -14.548861 -0.444654 20.000000
28.617661 42.603626 2.079285 9.000000
59.765217 37.825817 2.074494 24.000000
52.121437 7.724512 0.671364 255.000000
53.355904 -14.716703 -0.434713 26.000000
28.856813 42.637363 2.040833 4.000000
59.756218 37.514076 2.032421 24.000000
52.095081 7.525579 0.661476 122.000000
53.291721 -14.929459 -0.415356 31.000000
28.633791 41.975571 1.969757 5.000000
59.612251 37.134232 1.974032 24.000000
86.177124 12.142083 1.078496 7.000000
53.270916 -15.114326 -0.396252 30.000000
28.874302 42.012367 1.940560 9.000000
59.471863 36.744911 1.952700 23.000000
87.355156 11.981700 1.108073 1.000000
61.070198 -17.592371 -0.421510 127.000000
29.017664 41.891205 1.895329 8.000000
59.381138 36.388809 1.908835 23.000000
87.497787 11.674698 1.093923 1.000000
61.083656 -17.815830 -0.399796 18.000000
29.145086 41.731918 1.839795 7.000000
59.290882 36.021080 1.853005 23.000000
53.048508 -15.703613 -0.328303 17.000000
29.128992 41.415627 1.785857 7.000000
59.154003 35.669895 1.808827 18.000000
29.261257 41.281307 1.740468 11.000000
59.070660 35.325062 1.766245 23.000000
62.480251 7.638405 0.758074 4.000000
53.008667 -16.115370 -0.299768 29.000000
29.304407 41.037796 1.690447 15.000000
59.019955 35.001701 1.724930 23.000000
61.852596 7.331684 0.739255 26.000000
52.930229 -16.303690 -0.280327 48.000000
38.169529 -33.028519 -0.969183 17.000000
29.400013 40.854233 1.643341 10.000000
58.953236 34.684547 1.671650 23.000000
62.026951 7.132884 0.730138 23.000000
52.884529 -16.502077 -0.261065 40.000000
37.928131 -33.063511 -0.930984 16.000000
29.458046 40.634937 1.603570 16.000000
58.933426 34.382744 1.655588 23.000000
64.502251 7.178095 0.770290 10.000000
52.860138 -16.697170 -0.222530 34.000000
37.762211 -33.163239 -0.886017 15.000000
29.545685 40.443066 1.556510 16.000000
59.137669 34.211994 1.621999 7.000000
52.737835 -16.851076 -0.212586 39.000000
37.682159 -33.338360 -0.843080 1.000000
29.657852 40.300514 1.511292 11.000000
58.628811 33.645016 1.569398 22.000000
66.870651 6.945798 0.786208 6.000000
52.751904 -17.068907 -0.193539 38.000000
65.021156 -57.952091 -1.398668 1.000000
29.826973 40.220684 1.468652 7.000000
58.452663 33.259731 1.526177 22.000000
52.692516 -17.283665 -0.174217 69.000000
65.101936 -58.433136 -1.343697 14.000000
30.195417 40.421848 1.426957 5.000000
58.413773 32.954777 1.486863 25.000000
52.605148 -17.468817 -0.154790 79.000000
65.340424 -59.081051 -1.291567 24.000000
30.190807 40.108231 1.375939 4.000000
58.268929 32.592102 1.433493 22.000000
68.879799 6.389785 0.784805 17.000000
52.561237 -17.647970 -0.116124 77.000000
65.386673 -59.559910 -1.219588 23.000000
30.486332 40.193382 1.338629 1.000000
58.339279 32.364616 1.397488 22.000000
52.508907 -17.865263 -0.116166 70.000000
65.691635 -60.279720 -1.167134 27.000000
30.599833 40.051884 1.293451 7.000000
58.648155 32.282101 1.378936 29.000000
71.023964 6.101389 0.796300 13.000000
28.468229 -9.791283 -0.042034 170.000000
12.577978 -11.626965 -0.212267 7.000000
31.097748 40.395832 1.263714 1.000000
58.944889 32.137794 1.335979 22.000000
70.773811 5.793796 0.793229 1.000000
28.272894 -9.851196 -0.031353 174.000000
12.569955 -11.709374 -0.197895 7.000000
31.217787 40.260239 1.218389 2.000000
59.300373 32.050217 1.306056 22.000000
28.084446 -9.890095 -0.020787 183.000000
12.538448 -11.757925 -0.186010 1.000000
31.488884 40.303932 1.178537 5.000000
59.549072 31.916552 1.273683 22.000000
27.890850 -9.942456 -0.010336 174.000000
65.151779 -61.546391 -0.907301 1.000000
31.293808 39.753059 1.121602 7.000000
59.900215 31.822695 1.243163 23.000000
27.947107 -10.067087 0.000000 14.000000
64.893715 -61.754269 -0.828671 18.000000
31.464035 39.683502 1.078516 1.000000
60.198380 31.698734 1.211298 12.000000
44.822334 -16.331715 0.016652 21.000000
13.505899 -12.947167 -0.160008 2.000000
31.709690 39.693615 1.037588 16.000000
61.081444 31.878328 1.190620 9.000000
44.681358 -16.483824 0.024936 25.000000
13.346938 -12.888989 -0.145729 7.000000
31.914417 39.665169 0.995305 16.000000
61.152752 31.644432 1.165808 23.000000
44.615948 -16.645725 0.041556 35.000000
13.354769 -12.996017 -0.130096 6.000000
32.069565 39.560242 0.951157 16.000000
61.326687 31.450014 1.130821 19.000000
44.509014 -16.774183 0.058112 9.000000
13.254514 -12.984311 -0.116584 6.000000
32.278000 39.520374 0.917401 16.000000
44.587383 -16.990608 0.074951 21.000000
7.320559 -7.224094 -0.055647 9.000000
32.415195 39.434830 0.873214 25.000000
44.711411 -17.225807 0.091990 11.000000
7.311788 -7.268527 -0.048585 10.000000
32.656651 39.405041 0.830776 16.000000
51.757675 -20.158663 0.135722 29.000000
7.346470 -7.354167 -0.039914 9.000000
32.839756 39.331673 0.787036 16.000000
62.835384 31.082478 1.003359 10.000000
51.752083 -20.364822 0.155306 38.000000
7.389899 -7.452069 -0.032971 7.000000
33.057720 39.312977 0.744132 16.000000
63.110809 30.931326 0.981402 24.000000
51.639870 -20.539560 0.174594 36.000000
7.397630 -7.514754 -0.023926 4.000000
33.220539 39.241684 0.708962 17.000000
63.478790 30.851030 0.948566 20.000000
51.629101 -20.754766 0.203949 38.000000
7.418971 -7.591891 -0.016674 1.000000
33.420303 39.157818 0.673918 17.000000
63.862720 30.735050 0.940160 19.000000
88.297523 2.744010 0.925130 7.000000
51.552540 -20.943798 0.242796 43.000000
7.381987 -7.606986 -0.005550 7.000000
33.684322 39.189301 0.622355 17.000000
64.111046 30.565664 0.880170 24.000000
88.282326 2.419688 0.894040 8.000000
51.466179 -21.128809 0.242753 40.000000
7.322837 -7.601583 0.000000 20.000000
33.814987 39.050858 0.577036 17.000000
64.308815 30.371178 0.856521 24.000000
90.159966 2.140482 0.912970 1.000000
51.443691 -21.340239 0.272176 61.000000
7.277646 -7.610301 0.009189 8.000000
34.016895 39.021786 0.533089 17.000000
64.613327 30.253345 0.821875 24.000000
90.302177 1.812724 0.914336 1.000000
47.662178 -19.976631 0.270595 6.000000
7.304776 -7.694938 0.016666 6.000000
34.202610 38.959435 0.497669 18.000000
65.151978 30.187275 0.789576 12.000000
47.380257 -20.053196 0.287349 115.000000
7.490501 -7.945948 0.026683 2.000000
34.455048 38.930649 0.462766 17.000000
47.145290 -20.157816 0.331117 123.000000
7.512550 -8.028086 0.038380 6.000000
34.630772 38.868729 0.417960 28.000000
51.234158 -22.128546 0.379884 100.000000
7.500069 -8.073861 0.046160 1.000000
34.819942 38.807461 0.364003 21.000000
66.381554 29.916649 0.711671 17.000000
51.180145 -22.328150 0.389834 33.000000
34.985577 38.705719 0.327823 17.000000
66.564148 29.705896 0.674287 25.000000
51.106983 -22.519560 0.409398 65.000000
6.215179 6.830393 0.049966 10.000000
67.029495 29.619444 0.652314 25.000000
51.000458 -22.685537 0.438405 32.000000
74.683365 -82.162338 0.717028 10.000000
6.260466 6.829706 0.043660 6.000000
64.512535 28.251902 0.590026 15.000000
72.094826 -32.355335 0.648239 24.000000
74.641350 -82.665207 0.797012 10.000000
6.308031 6.833555 0.035709 9.000000
64.836014 28.110806 0.567369 23.000000
71.743172 -32.513954 0.687389 17.000000
68.207031 -76.071388 0.820305 2.000000
6.370507 6.850685 0.027757 9.000000
64.548584 27.692234 0.527140 22.000000
71.205032 -32.585178 0.710709 22.000000
67.970474 -76.368858 0.910044 2.000000
6.399004 6.830952 0.021237 7.000000
64.185081 27.258175 0.486838 6.000000
69.305618 -32.023689 0.732896 13.000000
6.448029 6.832919 0.013118 8.000000
64.256836 27.037485 0.462364 13.000000
6.523511 6.864741 0.004958 7.000000
69.432838 28.916319 0.472587 24.000000
67.866302 -31.949928 0.785541 2.000000
14.794889 -16.989609 0.255589 34.000000
6.555543 6.848010 -0.001655 6.000000
69.872208 28.770716 0.435221 26.000000
66.976189 -31.831287 0.815415 1.000000
14.706213 -17.013285 0.274760 40.000000
6.525063 6.766348 -0.009844 33.000000
70.249771 28.654099 0.410494 27.000000
66.831627 -32.063385 0.853897 6.000000
14.617552 -17.036528 0.293861 36.000000
6.593919 6.790154 -0.016520 1.000000
70.650848 28.530453 0.385656 21.000000
66.560394 -32.233898 0.877754 3.000000
14.574070 -17.106318 0.309878 35.000000
6.741124 6.891024 -0.025237 1.000000
71.135841 28.423508 0.347621 24.000000
52.814991 -1.982791 0.544262 9.000000
66.117981 -32.319351 0.912016 8.000000
14.575657 -17.235754 0.330955 8.000000
6.759295 6.859125 -0.035296 1.000000
71.625687 28.315241 0.295735 27.000000
65.880257 -32.474255 0.923038 5.000000
43.690426 -52.031326 1.043596 6.000000
6.844253 6.894609 -0.042390 1.000000
71.980530 28.150909 0.269792 12.000000
65.606934 -32.653240 0.959336 3.000000
6.868249 6.870647 -0.050867 1.000000
72.540337 28.063742 0.230778 26.000000
52.051529 -2.518426 0.518451 21.000000
64.981667 -32.639751 0.977324 6.000000
6.932384 6.884155 -0.057976 1.000000
72.965401 27.891964 0.204504 26.000000
45.300503 -2.374099 0.459218 235.000000
64.874512 -32.884247 1.015609 6.000000
72.547722 -88.321037 2.034969 212.000000
6.989576 6.890252 -0.066808 1.000000
73.422646 27.758751 0.178099 26.000000
45.296490 -2.540398 0.459269 249.000000
48.377857 -24.745548 0.787227 24.000000
72.355400 -88.811386 2.159560 212.000000
73.710892 27.603371 0.151112 8.000000
45.307781 -2.691778 0.459471 68.000000
48.308582 -24.923243 0.815979 9.000000
54.594460 20.195105 0.081276 10.000000
45.221687 -2.868880 0.466620 13.000000
48.416080 -25.203815 0.847936 9.000000
61.251244 59.087688 -0.802131 13.000000
74.991417 27.428122 0.083619 19.000000
45.177006 -3.016493 0.466260 241.000000
48.283146 -25.359968 0.875793 19.000000
45.300430 -56.807850 1.547353 24.000000
61.488640 58.883137 -0.861850 1.000000
75.317055 27.264393 0.055920 21.000000
45.145695 -3.180649 0.466054 247.000000
60.833916 57.830208 -0.908300 1.000000
44.929806 -3.323092 0.471806 24.000000
62.579491 -33.442413 1.201358 28.000000
60.968506 57.534229 -0.980319 1.000000
50.291035 -3.905004 0.510641 131.000000
62.253704 -33.562225 1.222152 19.000000
61.214939 57.344074 -1.039463 9.000000
76.796974 26.848783 -0.056796 20.000000
50.296230 -4.090918 0.519651 152.000000
61.910118 -33.670437 1.254733 27.000000
50.863132 -65.690643 2.030436 1.000000
66.227753 61.607281 -1.199872 14.000000
77.419296 26.718073 -0.085765 4.000000
61.522732 -33.752525 1.286135 19.000000
50.515507 -65.785522 2.113997 9.000000
66.287033 61.210762 -1.275625 31.000000
77.857544 26.580709 -0.143588 15.000000
61.277084 -33.896572 1.320145 19.000000
66.495346 60.953110 -1.354061 28.000000
78.063499 26.347134 -0.172557 12.000000
46.185814 -4.268269 0.469543 8.000000
60.924820 -33.993935 1.351774 18.000000
66.821121 60.802540 -1.419235 19.000000
60.603146 -34.106323 1.383827 21.000000
41.510796 37.494724 -0.917798 10.000000
53.146317 17.504461 -0.156256 8.000000
60.264496 -34.207180 1.391047 20.000000
41.715370 37.415916 -0.958560 12.000000
53.376476 17.363670 -0.176337 1.000000
52.134487 -5.387575 0.548879 20.000000
59.979210 -34.322620 1.423418 34.000000
41.989731 37.385204 -1.010786 13.000000
55.881760 17.952429 -0.204884 9.000000
59.679173 -34.441902 1.455378 30.000000
59.548080 52.665165 -1.498639 7.000000
55.999462 17.764076 -0.246091 6.000000
59.347900 -34.513573 1.486046 19.000000
59.889534 52.540207 -1.571463 5.000000
61.083633 19.130741 -0.290467 7.000000
59.093544 -34.669979 1.518890 27.000000
65.109184 56.738350 -1.748714 22.000000
53.362808 -6.287574 0.572079 8.000000
58.780071 -34.748592 1.525710 24.000000
65.191528 56.351284 -1.820067 7.000000
53.466175 -6.517464 0.573463 30.000000
58.467468 -34.881275 1.568773 29.000000
64.808617 55.606590 -1.863318 1.000000
83.954208 25.283331 -0.474392 9.000000
53.382301 -6.705894 0.582215 31.000000
58.210022 -35.017609 1.600886 27.000000
9.564608 -13.518584 0.575394 7.000000
84.045982 24.975355 -0.535603 18.000000
53.333874 -6.889002 0.572558 26.000000
57.890339 -35.101078 1.619099 25.000000
9.471696 -13.491871 0.584299 7.000000
64.473320 54.561382 -1.990447 22.000000
84.650146 24.817600 -0.569664 12.000000
45.180111 -6.004238 0.493213 36.000000
57.559612 -35.162121 1.648439 20.000000
64.376801 54.076015 -2.054746 27.000000
78.928459 22.826303 -0.587955 2.000000
45.160034 -6.154038 0.485259 25.000000
57.255604 -35.265224 1.655167 36.000000
9.311861 -13.468114 0.606123 7.000000
64.212578 53.537888 -2.101630 31.000000
61.867531 17.658457 -0.471633 8.000000
53.158482 -7.442555 0.571494 23.000000
57.046482 -35.411686 1.687863 30.000000
63.991341 52.957058 -2.146049 25.000000
61.825794 17.401735 -0.493246 5.000000
53.081257 -7.630213 0.580321 29.000000
63.627663 52.264351 -2.184938 25.000000
53.097351 -7.831266 0.590176 32.000000
57.328888 -36.171837 1.786890 1.000000
63.398930 51.688480 -2.241998 14.000000
46.839409 -7.083795 0.529173 25.000000
57.380688 -36.499237 1.828295 1.000000
46.866306 -7.272040 0.521510 22.000000
57.988415 -37.199326 1.876262 10.000000
54.382259 43.677597 -2.021416 1.000000
46.767765 -7.415655 0.528949 8.000000
57.750561 -37.317635 1.908589 18.000000
54.411568 43.389561 -2.089805 1.000000
57.692406 -37.580517 1.935260 18.000000
8.754869 -13.368656 0.686536 20.000000
54.255577 42.940800 -2.126105 21.000000
79.480652 20.495905 -0.830925 6.000000
57.722977 -37.888069 1.976891 18.000000
11.111387 -17.096968 0.893830 16.000000
47.191006 -8.015653 0.543056 4.000000
11.053635 -17.145309 0.912071 28.000000
64.829643 16.211927 -0.734819 5.000000
10.979828 -17.162077 0.928734 22.000000
68.184731 16.785637 -0.796660 18.000000
47.205006 -8.374496 0.527172 1.000000
58.841785 -39.540039 2.141198 10.000000
10.908794 -17.182880 0.942033 29.000000
59.042797 -39.990009 2.203663 17.000000
10.850623 -17.230499 0.960265 18.000000
58.903763 -40.211563 2.216419 20.000000
8.347273 -13.358428 0.753866 7.000000
43.687115 -8.238974 0.496613 6.000000
59.033512 -40.602959 2.276690 18.000000
8.318882 -13.422214 0.772315 10.000000
31.650591 23.755299 -1.444184 7.000000
47.378143 -9.115017 0.538946 6.000000
59.221085 -41.052517 2.289712 20.000000
10.628683 -17.283434 1.006548 19.000000
31.672518 23.590773 -1.468838 4.000000
41.422604 -8.126792 0.478904 10.000000
59.081188 -41.276958 2.340505 20.000000
10.557003 -17.308729 1.023498 23.000000
41.686775 -8.337406 0.474887 20.000000
10.480541 -17.319073 1.039652 29.000000
55.325500 40.581184 -2.671825 17.000000
41.460060 -8.450217 0.465268 37.000000
59.704464 -42.351383 2.415509 21.000000
10.419188 -17.361023 1.054044 23.000000
63.021877 45.872154 -3.089867 22.000000
41.443417 -8.605151 0.472821 40.000000
59.900471 -42.805508 2.480926 21.000000
8.069316 -13.552532 0.834905 10.000000
61.291565 44.269951 -3.076361 28.000000
41.404869 -8.740471 0.472709 96.000000
59.993877 -43.205311 2.517173 21.000000
7.993830 -13.538390 0.845983 9.000000
61.215698 43.874634 -3.130297 28.000000
41.388851 -8.888113 0.465488 144.000000
7.888259 -13.466744 0.847976 8.000000
61.181957 43.511902 -3.317307 11.000000
61.294563 43.931156 -3.318933 28.000000
41.388638 -8.895624 0.317718 246.000000
55.673973 -40.404987 2.173852 7.000000
7.883667 -13.448138 0.816964 8.000000
61.320343 44.290737 -3.302642 27.000000
71.170197 15.036838 -1.409406 1.000000
41.416222 -8.742867 0.295517 248.000000
59.971931 -43.189507 2.270916 6.000000
7.997396 -13.544431 0.807820 10.000000
62.928440 45.804142 -3.343831 22.000000
71.363617 15.351153 -1.427086 12.000000
41.428555 -8.586982 0.273224 255.000000
58.631794 -41.914360 2.151664 9.000000
8.054757 -13.517345 0.788853 8.000000
55.285011 40.551483 -2.921583 144.000000
71.189667 15.586949 -1.424740 11.000000
41.433956 -8.437365 0.243543 255.000000
58.517784 -41.509613 2.066686 8.000000
8.148667 -13.567022 0.774025 7.000000
41.451939 -8.297964 0.236107 255.000000
58.267376 -41.027008 1.990534 10.000000
10.496252 -17.331371 0.966164 22.000000
31.811077 23.693977 -1.655541 5.000000
41.457664 -8.141185 0.213846 67.000000
58.218254 -40.674072 1.909323 10.000000
10.558971 -17.311956 0.945643 20.000000
31.621052 23.733128 -1.622518 7.000000
47.491863 -9.145492 0.236355 6.000000
57.907688 -40.142059 1.857380 10.000000
10.639365 -17.287279 0.925319 24.000000
43.678165 -8.245179 0.193949 8.000000
57.876087 -39.821766 1.778279 16.000000
10.720357 -17.296906 0.909837 10.000000
47.321850 -8.753502 0.184786 8.000000
57.771076 -39.438316 1.709520 6.000000
8.366842 -13.379353 0.686214 7.000000
68.250443 16.524130 -1.336076 22.000000
47.268539 -8.573106 0.167691 9.000000
57.369671 -38.856792 1.657114 1.000000
10.847510 -17.225555 0.867428 24.000000
47.245525 -8.390190 0.159124 9.000000
57.240406 -38.478458 1.601313 3.000000
10.910975 -17.186314 0.849663 25.000000
64.921875 16.222952 -1.261526 4.000000
47.197216 -8.203283 0.133776 9.000000
11.004373 -17.187225 0.826816 32.000000
53.759140 42.228359 -2.578385 22.000000
79.481140 20.170870 -1.531543 12.000000
47.113613 -8.010968 0.125114 8.000000
57.545490 -38.088528 1.493728 1.000000
11.042740 -17.121849 0.807620 11.000000
53.903175 42.661892 -2.544717 14.000000
78.961304 20.347282 -1.522953 5.000000
47.029274 -7.819382 0.099850 7.000000
57.865025 -37.995762 1.462135 1.000000
8.726094 -13.426744 0.615165 25.000000
53.993587 43.056248 -2.520210 20.000000
78.330513 20.491188 -1.483953 1.000000
47.042831 -7.644557 0.091501 6.000000
57.879284 -37.702248 1.398688 3.000000
8.813480 -13.447909 0.603629 7.000000
54.062363 43.436195 -2.494475 9.000000
78.003639 20.711435 -1.479189 14.000000
46.945820 -7.460687 0.066371 11.000000
57.444969 -37.134380 1.313393 6.000000
17.334217 -26.258793 1.142744 13.000000
54.315830 43.968395 -2.464741 9.000000
78.096382 21.042780 -1.468279 1.000000
46.898743 -7.277073 0.057983 25.000000
57.358231 -36.780933 1.272629 7.000000
17.375528 -26.112701 1.111744 15.000000
78.023567 21.330194 -1.468370 16.000000
46.920181 -7.104387 0.033130 15.000000
57.257347 -36.420780 1.208182 1.000000
9.446782 -14.079519 0.580233 3.000000
63.481598 -9.374146 0.033599 15.000000
57.194588 -36.101055 1.156959 3.000000
9.283849 -13.737996 0.552938 7.000000
54.375553 44.999359 -2.353737 2.000000
61.801987 17.383394 -1.120619 10.000000
63.555122 -9.147111 0.033620 8.000000
56.818546 -35.573151 1.111597 1.000000
9.305896 -13.657290 0.533799 10.000000
64.309593 53.618774 -2.748348 7.000000
61.800358 17.627621 -1.121753 9.000000
56.987572 -35.388897 1.053804 29.000000
9.296788 -13.537031 0.513213 7.000000
64.435524 54.125343 -2.703378 31.000000
78.664169 22.749872 -1.415060 15.000000
59.280682 -8.088824 -0.010442 12.000000
57.364250 -35.332142 1.023083 24.000000
9.307269 -13.451433 0.496908 7.000000
64.459351 54.510956 -2.652952 27.000000
84.174438 24.678133 -1.485171 9.000000
82.578964 -10.974380 -0.029079 35.000000
57.632870 -35.220688 0.978511 21.000000
64.655945 55.123886 -2.610755 27.000000
84.458122 25.113869 -1.461101 5.000000
82.350853 -10.637052 -0.043477 146.000000
57.958675 -35.128681 0.946357 27.000000
64.863945 55.713058 -2.582570 22.000000
58.241993 -35.009155 0.889569 26.000000
64.978127 56.226295 -2.535261 21.000000
82.607552 25.192616 -1.401940 1.000000
53.415714 -6.501853 -0.056350 9.000000
58.548866 -34.915981 0.856690 21.000000
65.030052 56.649433 -2.484342 18.000000
82.414810 25.464367 -1.370125 1.000000
58.810360 -34.780350 0.810938 30.000000
59.652905 52.369476 -2.217257 14.000000
59.084435 -34.650768 0.777091 35.000000
59.641136 52.747467 -2.182270 6.000000
55.939106 17.734186 -0.911620 8.000000
59.423374 -34.557465 0.719883 35.000000
65.645164 58.446613 -2.347629 14.000000
55.945431 17.962112 -0.892275 9.000000
59.734520 -34.459942 0.686078 31.000000
79.447517 25.829393 -1.239444 1.000000
59.419510 -6.129928 -0.125109 12.000000
60.042995 -34.345211 0.651949 27.000000
66.753029 60.315987 -2.261583 1.000000
79.134277 26.048639 -1.206951 18.000000
59.454437 -5.934342 -0.125140 6.000000
60.338375 -34.221272 0.617467 24.000000
66.806198 60.810280 -2.207814 31.000000
78.307838 26.095100 -1.195797 1.000000
59.375229 -5.717184 -0.135341 8.000000
60.659874 -34.110374 0.570885 18.000000
66.458733 60.940899 -2.140711 25.000000
77.984680 26.305367 -1.163591 17.000000
45.760605 -4.220918 -0.112289 108.000000
60.922920 -33.978935 0.535713 18.000000
60.679058 56.032249 -1.917560 169.000000
77.594772 26.490999 -1.130589 15.000000
45.580082 -4.051877 -0.127786 113.000000
61.270588 -33.879013 0.476573 19.000000
60.415924 56.200920 -1.843696 106.000000
77.043877 26.618612 -1.095517 20.000000
45.529835 -3.879270 -0.135580 117.000000
61.631317 -33.784115 0.441611 34.000000
50.625446 -65.833504 1.406113 1.000000
67.060585 62.842060 -1.989293 24.000000
76.629776 26.790331 -1.076847 22.000000
45.458977 -3.705459 -0.151248 114.000000
61.980457 -33.708691 0.394051 24.000000
50.734974 -65.548759 1.316604 1.000000
66.743813 63.006241 -1.906599 28.000000
76.078941 26.911081 -1.042311 26.000000
45.387482 -3.532222 -0.158912 115.000000
62.320873 -33.584400 0.358324 19.000000
61.430965 58.418194 -1.701730 1.000000
75.575310 27.030119 -1.008676 25.000000
45.351433 -3.346318 -0.158737 99.000000
62.690678 -33.487766 0.322527 19.000000
61.313957 58.715858 -1.659688 17.000000
75.128159 27.181185 -0.976138 24.000000
45.193783 -3.168184 -0.166051 20.000000
44.872837 -56.656048 0.958730 1.000000
61.077774 58.920349 -1.585044 1.000000
74.652733 27.319021 -0.943503 22.000000
45.163837 -56.636559 0.897704 55.000000
74.130554 27.436434 -0.896774 19.000000
75.105171 -4.738377 -0.275823 196.000000
68.813255 25.755602 -0.833586 19.000000
75.146057 -4.477661 -0.315331 217.000000
34.866653 -17.980612 0.082163 8.000000
6.941339 6.845090 -0.158251 1.000000
73.259346 27.726244 -0.833978 28.000000
45.258984 -2.530370 -0.174054 27.000000
34.812122 -17.791269 0.075057 8.000000
6.913914 6.865813 -0.153068 1.000000
72.755791 27.840948 -0.815804 25.000000
45.252911 -2.363685 -0.189814 4.000000
34.728264 -17.603415 0.040773 10.000000
6.864035 6.866432 -0.145740 1.000000
72.252495 27.952383 -0.784259 26.000000
34.637783 -17.383135 0.020292 17.000000
43.227928 -52.216465 0.520585 27.000000
6.807215 6.859692 -0.136631 1.000000
71.907692 28.122421 -0.754675 23.000000
34.805698 -17.315573 0.000000 15.000000
43.381859 -52.050049 0.473050 225.000000
6.764565 6.866870 -0.127866 1.000000
71.409271 28.229687 -0.710316 27.000000
81.649910 -3.365044 -0.356570 33.000000
34.936199 -17.221046 -0.013596 23.000000
43.642796 -51.956188 0.402657 235.000000
6.688172 6.836894 -0.120194 1.000000
71.032234 28.353363 -0.680798 26.000000
81.556763 -3.061821 -0.356111 141.000000
35.060478 -17.138029 -0.034056 19.000000
43.847301 -51.849556 0.355548 204.000000
6.557519 6.747956 -0.110035 31.000000
70.557449 28.449776 -0.650637 26.000000
81.531433 -2.790153 -0.370197 35.000000
35.195042 -17.044270 -0.054601 28.000000
14.617468 -17.157257 0.098349 38.000000
6.520033 6.763494 -0.101662 8.000000
70.179100 28.625273 -0.608515 27.000000
81.696907 -2.467522 -0.370900 25.000000
35.389393 -16.963350 -0.075345 24.000000
14.693071 -17.112455 0.074795 67.000000
6.543643 6.837966 -0.095812 7.000000
69.736450 28.743290 -0.579255 26.000000
81.750381 -2.169265 -0.371105 15.000000
35.570286 -16.897623 -0.096223 18.000000
14.749187 -17.050968 0.055088 40.000000
6.506012 6.846327 -0.087367 4.000000
69.317039 28.868095 -0.537328 23.000000
81.877747 -1.872364 -0.371649 54.000000
35.725609 -16.826429 -0.110277 27.000000
14.845381 -17.053596 0.039462 30.000000
6.438685 6.820632 -0.081855 1.000000
64.164635 26.972328 -0.498079 23.000000
35.841312 -16.720695 -0.144958 28.000000
6.393177 6.822345 -0.073434 8.000000
68.373131 29.036757 -0.492673 19.000000
35.984009 -16.626945 -0.159125 25.000000
6.346546 6.824918 -0.065065 9.000000
67.994377 29.198633 -0.452037 24.000000
36.194660 -16.563570 -0.180629 19.000000
67.936539 -76.357559 -0.107029 15.000000
6.277438 6.800412 -0.056535 7.000000
67.639877 29.326471 -0.424623 25.000000
53.943085 -24.446968 -0.299763 11.000000
68.172470 -76.059540 -0.196095 2.000000
6.242368 6.812349 -0.048380 8.000000
67.197792 29.427855 -0.384110 23.000000
53.986610 -24.228577 -0.320166 16.000000
6.207285 6.824109 -0.041862 1.000000
66.860977 29.572880 -0.357281 19.000000
138.263153 -0.144789 -0.699819 10.000000
51.055344 -22.699280 -0.331567 34.000000
35.012932 38.708817 -0.200414 17.000000
66.403145 29.606256 -0.329924 21.000000
138.258087 0.265437 -0.675663 10.000000
51.130116 -22.529753 -0.370574 36.000000
34.787415 38.743992 -0.154495 28.000000
66.011673 29.722231 -0.290611 23.000000
51.175499 -22.326122 -0.399543 46.000000
34.555195 38.797531 -0.108814 17.000000
65.518791 29.817211 -0.251275 14.000000
51.227856 -22.104609 -0.418733 76.000000
7.519834 -8.089473 -0.067470 5.000000
34.353508 38.829575 -0.063341 19.000000
65.196960 29.932125 -0.225377 17.000000
51.282413 -21.926718 -0.428317 39.000000
7.504188 -8.021956 -0.074772 5.000000
34.174885 38.900455 -0.018075 17.000000
61.208378 28.373039 -0.176623 17.000000
47.499050 -20.103474 -0.432111 9.000000
7.464913 -7.921573 -0.083590 7.000000
33.972923 38.957615 0.027065 17.000000
61.167915 28.614100 -0.141434 169.000000
51.381298 -21.524878 -0.495878 10.000000
