VERSION .7
FIELDS x y z intensity
SIZE 4 4 4 4
TYPE F F F F
COUNT 1 1 1 1
WIDTH 1250
HEIGHT 1
VIEWPOINT 0 0 0 1 0 0 0
POINTS 1250
DATA ascii
6.751932 -6.409584 -1.501180 7.000000
10.486494 14.002295 -1.884983 1.000000
5.442550 0.514472 -1.118199 27.000000
7.722451 -2.686220 -1.669434 8.000000
6.817526 -6.424512 -1.518907 7.000000
10.535220 14.180514 -1.875449 4.000000
5.425916 0.535840 -1.114241 24.000000
7.819989 -2.688059 -1.689882 10.000000
6.849110 -6.402561 -1.531964 8.000000
10.493381 14.232875 -1.855430 1.000000
5.448864 0.558280 -1.116379 30.000000
7.899270 -2.681441 -1.707811 10.000000
6.904295 -6.406890 -1.545797 7.000000
10.649584 14.540159 -1.872038 1.000000
5.446882 0.577297 -1.116379 23.000000
7.982496 -2.677104 -1.728265 10.000000
6.961500 -6.414895 -1.565460 8.000000
10.673224 14.679656 -1.862779 3.000000
5.449688 0.598763 -1.116420 24.000000
8.066242 -2.670779 -1.748800 9.000000
7.014671 -6.421008 -1.579442 8.000000
10.792588 14.958789 -1.867145 6.000000
5.447543 0.619706 -1.115464 28.000000
8.159934 -2.667078 -1.768442 12.000000
7.047880 -6.404088 -1.591873 7.000000
10.848813 15.147874 -1.863014 6.000000
5.455162 0.640834 -1.116499 25.000000
8.238374 -2.659335 -1.789618 4.000000
7.072289 -6.374626 -1.601844 8.000000
10.788531 15.175328 -1.838775 6.000000
5.457718 0.662390 -1.116535 18.000000
8.457553 -2.694271 -1.839816 1.000000
7.131091 -6.380411 -1.620161 7.000000
10.736780 15.214718 -1.816026 6.000000
5.460190 0.683974 -1.116570 23.000000
8.453825 -2.657372 -1.836772 1.000000
7.191677 -6.391807 -1.637740 7.000000
10.790505 15.410439 -1.814768 4.000000
5.477280 0.706515 -1.119583 24.000000
8.494086 -2.639109 -1.850085 1.000000
7.247025 -6.393610 -1.655412 7.000000
10.979364 15.797235 -1.832074 6.000000
5.484823 0.728909 -1.118673 29.000000
8.630214 -2.645111 -1.879153 5.000000
7.298976 -6.392021 -1.670632 7.000000
11.035663 15.997105 -1.826819 6.000000
5.506262 0.753285 -1.123627 32.000000
8.551248 -2.581774 -1.864467 14.000000
7.350777 -6.389933 -1.687621 8.000000
11.164196 16.304897 -1.826197 6.000000
4.426743 2.781199 -0.840184 1.000000
5.484632 0.770815 -1.116764 26.000000
8.663218 -2.580971 -1.890099 10.000000
7.398911 -6.384315 -1.703831 7.000000
11.256437 16.563345 -1.833107 6.000000
4.350400 2.755525 -0.822997 2.000000
5.506080 0.795400 -1.120734 25.000000
8.808598 -2.587501 -1.922980 1.000000
7.447312 -6.378610 -1.718400 6.000000
11.208033 16.622850 -1.810438 6.000000
4.357401 2.782390 -0.822544 2.000000
5.522573 0.819443 -1.123710 27.000000
11.320471 16.916704 -1.805897 6.000000
5.529272 0.842147 -1.124707 23.000000
9.155484 -2.614920 -2.003043 6.000000
5.155529 -4.324469 -1.198632 9.000000
11.405860 17.173702 -1.803688 6.000000
5.546619 0.859653 -1.127670 36.000000
9.136527 -2.571604 -2.000181 4.000000
5.121367 -4.263935 -1.193049 9.000000
11.459277 17.385508 -1.799751 7.000000
4.289203 2.800365 -0.803067 1.000000
5.553349 0.882545 -1.127677 29.000000
9.130507 -2.532114 -2.005357 6.000000
5.101856 -4.216125 -1.192050 9.000000
11.566247 17.681812 -1.796516 8.000000
5.569468 0.907045 -1.130625 20.000000
9.120853 -2.493472 -2.001216 4.000000
5.105056 -4.187375 -1.195154 9.000000
11.451383 17.640324 -1.762350 9.000000
5.590806 0.929563 -1.134547 33.000000
9.134408 -2.459522 -2.005553 5.000000
5.081249 -4.136786 -1.193110 8.000000
11.380099 17.665228 -1.735009 9.000000
5.611753 0.955203 -1.137467 25.000000
9.071520 -2.405270 -1.996551 8.000000
5.076437 -4.102023 -1.194327 7.000000
11.319094 17.712791 -1.709740 9.000000
5.618292 0.978528 -1.136441 11.000000
9.112983 -2.382248 -2.003834 7.000000
5.052423 -4.052099 -1.189849 10.000000
11.250298 17.741318 -1.682859 10.000000
5.644026 1.004338 -1.140303 13.000000
9.087824 -2.340121 -1.999826 7.000000
5.051039 -4.020657 -1.191869 11.000000
11.153248 17.711058 -1.647249 9.000000
5.707874 1.038326 -1.152947 9.000000
9.077442 -2.300318 -1.997292 8.000000
5.038452 -3.979129 -1.192239 12.000000
11.112772 17.797974 -1.621876 7.000000
5.795855 1.077337 -1.169406 8.000000
9.052321 -2.256997 -1.993248 6.000000
5.028970 -3.941799 -1.192338 13.000000
11.078709 17.868128 -1.602944 6.000000
9.027004 -2.213904 -1.989180 5.000000
5.023167 -3.907613 -1.193307 19.000000
11.165236 18.163036 -1.595603 7.000000
9.718684 1.850422 -1.957127 8.000000
9.029632 -2.179494 -1.991376 6.000000
5.009239 -3.867392 -1.193484 17.000000
11.206923 18.374308 -1.576724 9.000000
9.760329 1.897216 -1.963359 9.000000
9.008717 -2.137873 -1.988320 7.000000
4.983885 -3.818745 -1.187506 28.000000
11.169525 18.457617 -1.554021 9.000000
9.749170 1.932156 -1.958922 10.000000
9.050185 -2.111040 -1.995669 7.000000
4.992946 -3.796725 -1.193146 40.000000
11.099473 18.472626 -1.529657 9.000000
9.732397 1.967699 -1.955255 8.000000
8.995604 -2.061921 -1.985243 8.000000
4.994893 -3.768023 -1.195803 35.000000
10.992722 18.440462 -1.489919 9.000000
9.750130 2.010283 -1.953135 6.000000
9.045679 -2.038532 -1.996325 7.000000
4.988178 -3.734350 -1.196548 39.000000
10.888575 18.411573 -1.458248 9.000000
9.720017 2.041243 -1.941389 2.000000
9.010487 -1.994277 -1.986853 7.000000
4.985395 -3.703832 -1.197113 40.000000
10.809986 18.425175 -1.430110 9.000000
9.783751 2.093883 -1.957523 1.000000
9.003072 -1.956404 -1.986913 7.000000
4.982291 -3.673262 -1.198730 43.000000
10.701546 18.387096 -1.390682 9.000000
9.810909 2.137331 -1.957234 3.000000
9.024177 -1.924734 -1.993296 6.000000
4.979666 -3.641896 -1.200311 37.000000
10.665702 18.473537 -1.364486 9.000000
9.842297 2.183787 -1.957849 1.000000
9.026717 -1.889068 -1.992240 8.000000
4.980556 -3.614603 -1.200669 39.000000
10.557448 18.434343 -1.329081 9.000000
9.897139 2.234047 -1.966699 3.000000
8.903653 -1.829277 -1.966907 24.000000
4.970781 -3.594280 -1.197910 37.000000
10.444640 18.385891 -1.293313 9.000000
9.875469 2.269042 -1.956771 1.000000
8.915737 -1.796109 -1.966377 51.000000
4.963138 -3.561125 -1.198449 37.000000
10.359116 18.384468 -1.264786 8.000000
9.929903 2.319897 -1.965536 1.000000
8.917101 -1.760782 -1.968494 39.000000
4.971478 -3.539579 -1.201747 32.000000
10.255203 18.342007 -1.226394 9.000000
4.294788 3.281239 -0.738442 2.000000
10.017798 2.381034 -1.977274 5.000000
8.914201 -1.724673 -1.966377 23.000000
4.980166 -3.517027 -1.206102 37.000000
10.174888 18.348431 -1.198723 9.000000
4.240056 3.264104 -0.726327 95.000000
10.014026 2.420798 -1.974621 1.000000
8.858005 -1.678542 -1.954192 27.000000
4.984473 -3.492759 -1.207349 28.000000
10.082901 18.333149 -1.158785 9.000000
10.054452 2.469610 -1.974999 1.000000
8.922714 -1.655338 -1.963735 27.000000
4.984037 -3.466577 -1.207609 25.000000
10.095222 18.355551 -1.149199 9.000000
10.123243 2.486507 -1.977201 1.000000
9.011238 -1.671761 -1.973173 11.000000
4.992032 -3.483785 -1.202037 27.000000
10.198267 18.383026 -1.171653 9.000000
4.255080 3.262679 -0.719251 184.000000
10.095183 2.438552 -1.966121 1.000000
9.035263 -1.712131 -1.971463 17.000000
4.984269 -3.505603 -1.196625 28.000000
10.268977 18.359119 -1.198189 9.000000
4.337690 3.300846 -0.734070 1.000000
10.137930 2.407717 -1.972632 1.000000
9.101641 -1.760938 -1.982330 29.000000
4.984587 -3.533204 -1.192052 23.000000
10.378964 18.404669 -1.225718 9.000000
10.127295 2.364150 -1.972542 5.000000
9.047830 -1.784955 -1.968656 31.000000
4.968623 -3.549320 -1.184700 65.000000
10.469535 18.414743 -1.254784 9.000000
10.117550 2.319087 -1.968815 3.000000
9.104582 -1.832499 -1.975742 9.000000
4.964720 -3.574087 -1.179132 74.000000
10.552835 18.411383 -1.283077 9.000000
10.153999 2.290165 -1.976222 1.000000
9.227169 -1.894066 -2.002190 6.000000
4.979610 -3.613916 -1.180388 59.000000
10.641213 18.416273 -1.312081 9.000000
10.104887 2.236499 -1.968644 5.000000
9.235894 -1.931161 -1.998721 9.000000
4.976343 -3.654150 -1.176614 65.000000
10.734875 18.429562 -1.338111 8.000000
10.107832 2.200168 -1.967709 3.000000
9.248231 -1.970834 -1.999565 4.000000
4.979865 -3.684906 -1.172791 62.000000
10.828503 18.441984 -1.371730 9.000000
10.116205 2.161340 -1.967709 2.000000
9.255960 -2.009666 -1.997710 7.000000
4.987003 -3.718552 -1.170927 37.000000
10.915623 18.435272 -1.396727 9.000000
10.089739 2.117047 -1.964768 3.000000
9.272742 -2.050624 -1.999554 8.000000
4.993964 -3.752301 -1.169011 39.000000
11.012263 18.451271 -1.427208 9.000000
10.058971 2.070300 -1.959072 7.000000
9.304034 -2.093342 -2.004467 7.000000
4.992086 -3.780967 -1.166306 37.000000
11.101411 18.453957 -1.456834 9.000000
10.057218 2.029718 -1.957198 6.000000
9.282979 -2.126086 -1.994733 5.000000
4.990887 -3.808925 -1.162478 46.000000
11.185519 18.447680 -1.485892 9.000000
10.049467 1.989848 -1.957963 4.000000
9.322748 -2.172902 -2.003313 7.000000
4.989390 -3.836802 -1.159717 36.000000
11.280239 18.458258 -1.512669 9.000000
9.311316 -2.206250 -1.995609 6.000000
5.015288 -3.886052 -1.161027 26.000000
11.382857 18.480881 -1.544420 8.000000
9.341524 -2.251325 -2.000421 4.000000
5.024912 -3.923068 -1.161976 21.000000
11.483260 18.498968 -1.572190 9.000000
9.391226 -2.301493 -2.005900 5.000000
5.027239 -3.954626 -1.156633 15.000000
11.540870 18.454916 -1.598423 8.000000
5.732460 1.026269 -1.118287 8.000000
9.378655 -2.334884 -2.001511 7.000000
5.036480 -3.991865 -1.157485 17.000000
11.410952 18.092262 -1.600827 8.000000
5.677764 0.995013 -1.108984 15.000000
9.441500 -2.389067 -2.013320 9.000000
5.068753 -4.047781 -1.162460 17.000000
11.357983 17.869730 -1.610651 7.000000
5.632958 0.964883 -1.100535 25.000000
9.442423 -2.427916 -2.011941 6.000000
5.058821 -4.070305 -1.155410 11.000000
11.397711 17.794722 -1.633436 8.000000
5.626772 0.942608 -1.098644 29.000000
9.447923 -2.468044 -2.011564 6.000000
5.086720 -4.123557 -1.159332 10.000000
11.449923 17.753189 -1.655174 9.000000
5.610402 0.917733 -1.097839 28.000000
9.444226 -2.504091 -2.009163 7.000000
5.079825 -4.148913 -1.156497 10.000000
11.532441 17.744839 -1.684156 8.000000
4.283822 2.800052 -0.767593 1.000000
5.584609 0.891511 -1.093138 29.000000
9.473392 -2.550797 -2.012083 4.000000
5.096097 -4.193434 -1.155381 13.000000
11.615582 17.723454 -1.716125 9.000000
4.467721 2.896939 -0.803389 1.000000
5.572911 0.868709 -1.092260 38.000000
9.473656 -2.589922 -2.010664 3.000000
5.119389 -4.244164 -1.158200 15.000000
11.698004 17.720757 -1.741994 9.000000
4.311528 2.773268 -0.777130 1.000000
5.561834 0.845120 -1.088427 27.000000
9.488379 -2.631360 -2.012241 4.000000
5.123633 -4.279466 -1.155500 10.000000
11.808273 17.752707 -1.775403 9.000000
4.346092 2.773033 -0.786126 6.000000
5.545427 0.820855 -1.085606 30.000000
9.502460 -2.674600 -2.013801 7.000000
5.169007 -4.349625 -1.163249 9.000000
11.855532 17.676195 -1.802218 10.000000
4.380506 2.763893 -0.793511 9.000000
5.539140 0.793269 -1.085658 30.000000
9.498181 -2.712799 -2.007905 6.000000
5.187789 -4.398009 -1.163764 8.000000
11.890429 17.608389 -1.821516 9.000000
4.397317 2.754155 -0.800459 8.000000
5.512790 0.767905 -1.080916 32.000000
8.923718 -2.584137 -1.886765 22.000000
7.457952 -6.331519 -1.672257 9.000000
11.726604 17.229290 -1.812386 6.000000
4.436285 2.755976 -0.809442 5.000000
5.520374 0.747365 -1.082841 26.000000
8.782716 -2.579898 -1.855706 21.000000
7.443294 -6.366166 -1.665395 9.000000
11.681322 17.021873 -1.824319 6.000000
4.441547 2.736734 -0.813229 1.000000
5.508290 0.725180 -1.080949 30.000000
8.685192 -2.585868 -1.830505 11.000000
7.424962 -6.397757 -1.655971 12.000000
11.609111 16.790720 -1.829014 6.000000
5.500736 0.702709 -1.081943 29.000000
8.562897 -2.585291 -1.805184 16.000000
7.342974 -6.374155 -1.634158 8.000000
11.575359 16.629974 -1.836847 6.000000
5.488732 0.681712 -1.078105 25.000000
8.501953 -2.602553 -1.791200 1.000000
7.294860 -6.379423 -1.618210 8.000000
11.531821 16.432497 -1.848176 6.000000
5.481493 0.658480 -1.077155 28.000000
8.479800 -2.629803 -1.780491 1.000000
7.231775 -6.371181 -1.600741 7.000000
11.435427 16.168777 -1.847620 6.000000
5.483794 0.637407 -1.078119 26.000000
8.484263 -2.666940 -1.780336 3.000000
7.183797 -6.375832 -1.584949 8.000000
11.282692 15.835281 -1.834542 6.000000
5.471384 0.614681 -1.076205 28.000000
8.283299 -2.638760 -1.735545 29.000000
7.140862 -6.382425 -1.568365 8.000000
11.241142 15.672547 -1.843547 6.000000
5.463450 0.595450 -1.075245 25.000000
8.194814 -2.643694 -1.715899 25.000000
7.096632 -6.389837 -1.553518 9.000000
11.075369 15.316900 -1.830008 6.000000
5.465709 0.572540 -1.076205 33.000000
8.124858 -2.655613 -1.698720 18.000000
7.042688 -6.392642 -1.538795 8.000000
11.104651 15.250632 -1.843099 6.000000
5.458290 0.550583 -1.073325 33.000000
8.078942 -2.673419 -1.684983 10.000000
7.000770 -6.397065 -1.524074 9.000000
11.124106 15.165815 -1.860731 6.000000
5.459899 0.532462 -1.074283 25.000000
7.962479 -2.668845 -1.658249 10.000000
6.967550 -6.413727 -1.511778 8.000000
11.110243 15.031084 -1.872246 1.000000
5.456832 0.511018 -1.074279 26.000000
7.888696 -2.676316 -1.638873 8.000000
6.910251 -6.405687 -1.492385 9.000000
11.056529 14.838877 -1.876417 2.000000
5.459298 0.488190 -1.072365 27.000000
7.777086 -2.671794 -1.613334 14.000000
6.845922 -6.397342 -1.473970 9.000000
11.042219 14.722904 -1.885602 1.000000
5.450549 0.469194 -1.073310 28.000000
7.656742 -2.660367 -1.588817 11.000000
6.822192 -6.417677 -1.463385 8.000000
10.902802 14.426553 -1.875081 1.000000
5.447234 0.447844 -1.073301 26.000000
7.569283 -2.661111 -1.566866 13.000000
6.752927 -6.399335 -1.445233 9.000000
10.837240 14.236217 -1.877344 5.000000
5.449062 0.425023 -1.073301 25.000000
7.499206 -2.670347 -1.550240 12.000000
6.716221 -6.411436 -1.432440 9.000000
10.843308 14.141494 -1.888702 3.000000
5.445807 0.405649 -1.071385 31.000000
7.392693 -2.664448 -1.526055 13.000000
6.675943 -6.419916 -1.418930 9.000000
10.726675 13.883704 -1.878092 1.000000
5.432387 0.384634 -1.069447 40.000000
7.310965 -2.676880 -1.506322 10.000000
6.633427 -6.423749 -1.403107 9.000000
10.724607 13.781326 -1.893961 1.000000
5.433452 0.363747 -1.071348 30.000000
7.227871 -2.692330 -1.486691 9.000000
6.576620 -6.420096 -1.388327 9.000000
10.687943 13.630840 -1.897005 1.000000
5.439518 0.343179 -1.073265 30.000000
7.156361 -2.704163 -1.469048 9.000000
6.542220 -6.429022 -1.375735 9.000000
10.564612 13.377120 -1.887894 2.000000
5.426421 0.322389 -1.068469 32.000000
7.077836 -2.705594 -1.450937 9.000000
6.489291 -6.421689 -1.357908 9.000000
10.572680 13.291680 -1.902040 2.000000
5.431957 0.301792 -1.072282 28.000000
7.045674 -2.722939 -1.442281 8.000000
6.435020 -6.414836 -1.343358 9.000000
10.564147 13.181495 -1.909714 4.000000
4.984193 2.561527 -0.956884 1.000000
5.437974 0.281185 -1.073249 31.000000
7.012997 -2.741306 -1.433650 8.000000
6.405474 -6.432361 -1.332391 9.000000
10.490054 12.995823 -1.908776 5.000000
5.428982 0.260773 -1.072264 35.000000
6.972580 -2.752197 -1.423178 8.000000
6.341091 -6.414559 -1.314232 8.000000
10.386612 12.776167 -1.902209 4.000000
5.089912 2.567756 -0.982672 1.000000
5.425043 0.239708 -1.071296 31.000000
6.787875 -2.712208 -1.386463 9.000000
6.298927 -6.423276 -1.301208 9.000000
10.346926 12.632473 -1.906668 5.000000
5.164777 2.581819 -0.999443 1.000000
5.425736 0.218869 -1.072244 35.000000
6.711617 -2.707582 -1.366171 8.000000
6.269302 -6.433372 -1.289654 9.000000
10.271991 12.447636 -1.898716 4.000000
5.191236 2.571308 -1.006899 1.000000
5.426537 0.198034 -1.072244 33.000000
6.651311 -2.714350 -1.352208 8.000000
6.223719 -6.438100 -1.276014 9.000000
10.174040 12.241643 -1.895237 6.000000
5.178328 2.540200 -1.006645 4.000000
5.432129 0.178304 -1.073213 27.000000
6.595850 -2.721307 -1.340468 10.000000
6.177008 -6.436824 -1.261735 9.000000
10.176981 12.158590 -1.907516 6.000000
5.244714 2.548959 -1.020874 1.000000
5.427870 0.157303 -1.072244 34.000000
6.532471 -2.723219 -1.323214 10.000000
6.137160 -6.435650 -1.248222 9.000000
10.108191 11.986867 -1.903035 6.000000
5.213445 2.510182 -1.017154 1.000000
5.428247 0.136455 -1.073192 34.000000
6.472779 -2.727555 -1.309429 15.000000
6.076978 -6.419488 -1.231321 10.000000
10.016956 11.794888 -1.894542 6.000000
5.428336 0.116551 -1.075087 36.000000
6.395108 -2.722469 -1.294471 10.000000
6.050896 -6.439044 -1.221379 9.000000
10.036026 11.729934 -1.909150 6.000000
5.428710 0.097602 -1.075087 33.000000
6.331990 -2.721747 -1.279877 9.000000
6.017843 -6.451089 -1.211627 10.000000
9.955333 11.553733 -1.907740 4.000000
5.424166 0.074794 -1.074116 29.000000
6.281249 -2.729861 -1.266880 10.000000
5.959113 -6.433004 -1.194961 9.000000
9.957275 11.470698 -1.916201 4.000000
5.439108 0.056011 -1.077029 35.000000
6.226308 -2.734454 -1.254225 10.000000
5.926277 -6.444778 -1.183768 9.000000
9.855555 11.273780 -1.904973 4.000000
5.434008 0.034143 -1.077955 28.000000
6.167593 -2.735677 -1.239539 10.000000
5.898032 -6.459169 -1.171743 9.000000
9.826432 11.157671 -1.909889 5.000000
5.439380 0.013291 -1.077029 27.000000
6.090790 -2.728370 -1.222493 12.000000
5.848510 -6.452270 -1.157313 10.000000
9.738635 10.988188 -1.899131 3.000000
5.439207 -0.004747 -1.077979 34.000000
6.036041 -2.731721 -1.210015 14.000000
5.813559 -6.465683 -1.144715 10.000000
9.711251 10.876717 -1.904119 3.000000
5.438960 -0.025631 -1.078928 30.000000
5.965067 -2.723469 -1.192861 26.000000
5.768635 -6.460939 -1.131077 9.000000
9.610062 10.691804 -1.892630 5.000000
5.444118 -0.044659 -1.078001 35.000000
5.929281 -2.732181 -1.184074 13.000000
5.724930 -6.454948 -1.117510 10.000000
9.623089 10.623962 -1.902421 5.000000
5.438602 -0.067398 -1.078928 30.000000
5.687744 -6.456021 -1.106791 10.000000
9.600153 10.528260 -1.906159 4.000000
5.448156 -0.085586 -1.080874 31.000000
5.812412 -2.730159 -1.156599 10.000000
5.643199 -6.450717 -1.091855 10.000000
9.546813 10.392998 -1.903037 5.000000
5.447788 -0.106505 -1.080874 27.000000
5.771308 -2.737950 -1.147050 22.000000
5.604003 -6.453489 -1.079746 10.000000
9.466837 10.233997 -1.899786 5.000000
5.462048 -0.127766 -1.083792 25.000000
5.717207 -2.738000 -1.136001 26.000000
5.559620 -6.447704 -1.064959 10.000000
9.447054 10.134271 -1.905237 5.000000
5.456589 -0.149557 -1.082820 30.000000
5.689514 -2.752869 -1.125854 29.000000
5.521633 -6.455869 -1.052098 11.000000
9.374630 9.989952 -1.893685 5.000000
8.391979 3.520771 -1.683413 1.000000
5.465837 -0.168906 -1.084765 22.000000
5.667126 -2.766491 -1.119922 25.000000
5.476206 -6.443630 -1.039803 10.000000
9.375566 9.917850 -1.903514 4.000000
8.354403 3.467342 -1.679724 1.000000
5.465338 -0.189899 -1.083811 26.000000
5.626385 -2.772185 -1.111613 28.000000
5.443767 -6.453243 -1.027658 11.000000
9.283909 9.749064 -1.894408 4.000000
8.861851 3.639931 -1.784246 1.000000
5.474370 -0.211261 -1.085755 23.000000
5.612817 -2.791112 -1.104177 54.000000
5.421896 -6.473027 -1.018816 13.000000
9.299329 9.690477 -1.904293 5.000000
8.697306 3.533378 -1.753459 1.000000
5.478459 -0.231531 -1.086727 17.000000
5.580250 -2.802913 -1.095480 31.000000
5.367187 -6.455632 -1.002571 10.000000
9.268028 9.587273 -1.904922 5.000000
8.886597 3.572389 -1.797621 1.000000
5.482619 -0.252800 -1.086741 18.000000
5.539039 -2.808900 -1.087265 28.000000
5.335802 -6.463646 -0.992016 9.000000
9.189573 9.439951 -1.896092 5.000000
8.726433 3.469141 -1.764211 1.000000
5.491310 -0.276256 -1.088684 23.000000
5.512010 -2.820638 -1.078413 35.000000
5.324295 -6.500387 -0.984101 9.000000
9.202114 9.390330 -1.906299 5.000000
5.485465 -0.294202 -1.087712 19.000000
5.489332 -2.833256 -1.073683 27.000000
5.275147 -6.484128 -0.970114 9.000000
9.165548 9.284697 -1.905614 5.000000
5.499175 -0.316117 -1.089664 23.000000
5.435877 -2.830945 -1.060843 31.000000
5.270812 -6.527524 -0.963323 12.000000
5.507331 -0.337808 -1.093531 20.000000
5.413034 -2.844317 -1.054016 29.000000
5.254838 -6.554419 -0.955667 9.000000
5.506185 -0.358964 -1.092568 30.000000
5.376102 -2.852509 -1.044671 29.000000
5.274711 -6.628845 -0.954708 59.000000
7.647902 7.576159 -1.610784 1.000000
7.206545 2.682954 -1.475249 1.000000
5.524404 -0.380491 -1.096453 22.000000
5.348053 -2.863997 -1.039170 32.000000
5.313765 -6.725980 -0.956932 10.000000
7.640262 7.518556 -1.613480 1.000000
7.157083 2.630458 -1.466995 1.000000
5.537910 -0.400849 -1.098397 29.000000
5.317635 -2.870439 -1.029676 29.000000
5.358451 -6.831431 -0.958529 12.000000
7.638265 7.461683 -1.618709 1.000000
7.317274 2.677742 -1.500472 1.000000
5.536373 -0.424057 -1.097428 23.000000
5.286063 -2.878465 -1.021275 22.000000
5.413477 -6.953918 -0.962029 18.000000
7.369915 2.675148 -1.512664 4.000000
5.554339 -0.445916 -1.101306 25.000000
5.301871 -2.912318 -1.023126 7.000000
5.949130 -7.697275 -1.051680 36.000000
7.410803 2.660750 -1.523417 1.000000
5.571945 -0.468869 -1.106160 20.000000
5.265399 -2.918658 -1.013921 8.000000
5.954941 -7.763435 -1.045638 222.000000
7.581655 2.690763 -1.560871 1.000000
5.584954 -0.491567 -1.108092 29.000000
5.250978 -2.935875 -1.008890 9.000000
7.729844 2.709983 -1.595160 1.000000
5.592795 -0.513906 -1.110031 21.000000
5.253682 -2.962714 -1.007161 1.000000
7.864129 2.724736 -1.625324 1.000000
5.615482 -0.536753 -1.113894 32.000000
5.217674 -2.967666 -0.998029 9.000000
7.901583 2.703776 -1.635447 1.000000
5.613186 -0.558292 -1.114879 24.000000
5.172835 -2.967308 -0.989387 15.000000
7.951245 2.691348 -1.649956 1.000000
5.655312 -0.582425 -1.122611 17.000000
5.144921 -2.977610 -0.981964 40.000000
5.928478 -8.020658 -1.011349 2.000000
9.403026 3.142559 -1.954087 1.000000
5.667772 -0.604710 -1.125517 24.000000
5.164540 -3.014287 -0.982450 9.000000
5.810032 -7.918087 -0.982000 7.000000
9.456517 3.118292 -1.968003 1.000000
5.684886 -0.630630 -1.128393 10.000000
5.179561 -3.048560 -0.983118 1.000000
5.891354 -8.087955 -0.989928 1.000000
9.415812 3.064834 -1.964252 1.000000
5.726087 -0.657468 -1.138109 9.000000
5.265308 -3.127554 -0.998476 1.000000
5.836040 -8.074033 -0.975066 7.000000
9.410939 3.028771 -1.966510 3.000000
5.772668 -0.683240 -1.146780 9.000000
5.208921 -3.117475 -0.985388 1.000000
5.837523 -8.135753 -0.967704 12.000000
9.393804 2.983500 -1.964098 1.000000
5.872583 -0.716901 -1.166071 8.000000
5.231856 -3.157303 -0.987532 4.000000
5.754907 -8.080008 -0.946446 20.000000
9.413564 2.950032 -1.971218 2.000000
5.131732 -3.123823 -0.966586 7.000000
5.722949 -8.097785 -0.935588 13.000000
9.399580 2.907859 -1.973189 1.000000
10.152979 -1.275419 -2.018721 1.000000
5.150131 -3.160952 -0.968982 7.000000
5.772494 -8.228683 -0.935990 10.000000
9.344705 2.851614 -1.961130 1.000000
10.201870 -1.321370 -2.027571 8.000000
5.159361 -3.185243 -0.966858 8.000000
5.590747 -8.029070 -0.899003 21.000000
9.367859 2.821189 -1.970913 3.000000
10.124367 -1.349081 -2.011285 8.000000
5.126977 -3.191262 -0.960813 8.000000
5.617011 -8.127138 -0.897351 25.000000
9.377633 2.784904 -1.976035 1.000000
10.123625 -1.388564 -2.014034 7.000000
5.099223 -3.199977 -0.952417 10.000000
5.542738 -8.082854 -0.878141 24.000000
9.372822 2.744357 -1.979884 1.000000
10.128282 -1.428846 -2.014183 1.000000
5.075499 -3.211077 -0.945881 16.000000
5.938157 -8.724625 -0.934467 22.000000
9.320954 2.692118 -1.970356 1.000000
10.138238 -1.468168 -2.013505 4.000000
5.056060 -3.224788 -0.939092 29.000000
5.938972 -8.791642 -0.926357 32.000000
9.320805 2.653342 -1.973440 1.000000
10.137727 -1.507859 -2.012681 7.000000
5.052363 -3.249789 -0.937494 34.000000
5.969904 -8.904283 -0.922828 25.000000
9.283091 2.604115 -1.966829 5.000000
10.146760 -1.549048 -2.013780 2.000000
5.040966 -3.268641 -0.933300 54.000000
5.821960 -8.752809 -0.891975 29.000000
9.277082 2.565789 -1.970551 1.000000
10.135820 -1.585415 -2.014608 7.000000
5.037904 -3.292946 -0.929583 31.000000
5.772668 -8.744744 -0.878044 22.000000
9.239491 2.513778 -1.965537 1.000000
10.125505 -1.623656 -2.010065 40.000000
5.034595 -3.317183 -0.926900 33.000000
5.781005 -8.824215 -0.869160 24.000000
9.251843 2.484217 -1.969886 1.000000
10.037231 -1.649057 -1.991940 49.000000
5.027193 -3.338794 -0.922394 28.000000
5.731646 -8.815852 -0.855275 10.000000
9.208569 2.434728 -1.962133 4.000000
10.016944 -1.683451 -1.987284 50.000000
5.011215 -3.354716 -0.918481 30.000000
9.165231 2.382240 -1.957648 7.000000
10.049095 -1.728556 -1.994964 38.000000
5.019773 -3.387154 -0.919075 33.000000
9.143298 2.344198 -1.958164 5.000000
10.013045 -1.761966 -1.990979 31.000000
5.013131 -3.406920 -0.915594 28.000000
5.208754 -8.201354 -0.756106 4.000000
9.137329 2.305314 -1.958407 1.000000
10.074791 -1.809111 -2.002645 9.000000
5.005347 -3.428516 -0.911046 29.000000
5.199189 -8.249785 -0.746908 1.000000
9.097940 2.258255 -1.951506 5.000000
10.082615 -1.852325 -2.001947 1.000000
5.004141 -3.457284 -0.910089 26.000000
5.509147 -8.809633 -0.784905 12.000000
9.090568 2.221085 -1.954982 3.000000
10.133623 -1.898287 -2.015246 6.000000
4.997358 -3.477136 -0.905517 28.000000
5.355299 -8.630485 -0.754795 9.000000
9.041262 2.172284 -1.945958 4.000000
10.107669 -1.933626 -2.007817 7.000000
4.993196 -3.501471 -0.902731 23.000000
5.292679 -8.599763 -0.739774 9.000000
9.029163 2.132740 -1.948339 1.000000
10.114275 -1.977010 -2.010690 6.000000
4.983652 -3.524706 -0.899202 24.000000
5.307211 -8.691197 -0.735321 10.000000
9.030827 2.098216 -1.953785 6.000000
10.097342 -2.010318 -2.010572 6.000000
4.991845 -3.556706 -0.899636 24.000000
5.285121 -8.723336 -0.722161 14.000000
8.994562 2.053422 -1.950947 5.000000
10.143140 -2.059958 -2.017501 3.000000
4.986824 -3.582077 -0.895730 20.000000
5.185644 -8.626950 -0.702086 9.000000
8.949214 2.006947 -1.942770 1.000000
10.115953 -2.093072 -2.015477 1.000000
4.989846 -3.594820 -0.897174 25.000000
5.242804 -8.791395 -0.701410 8.000000
8.917305 1.965492 -1.939262 4.000000
10.117447 -2.133924 -2.017392 7.000000
4.993033 -3.624989 -0.896830 22.000000
5.122037 -8.660892 -0.678910 9.000000
8.914564 1.929026 -1.940368 7.000000
10.090673 -2.168780 -2.009959 5.000000
5.000312 -3.658335 -0.895020 27.000000
5.056845 -8.619183 -0.661989 7.000000
8.872085 1.884201 -1.939463 6.000000
10.100760 -2.211557 -2.017392 1.000000
4.994445 -3.683568 -0.894283 29.000000
4.786080 -8.223310 -0.621958 10.000000
8.892950 1.852975 -1.945771 7.000000
10.073769 -2.244371 -2.011761 5.000000
4.994101 -3.710299 -0.890994 21.000000
4.480792 -7.760959 -0.574808 31.000000
8.854914 1.811211 -1.944234 5.000000
10.055506 -2.280864 -2.009848 7.000000
4.996691 -3.740723 -0.890561 27.000000
4.421780 -7.720863 -0.559777 76.000000
8.787927 1.762382 -1.937848 5.000000
10.045990 -2.319299 -2.013447 8.000000
5.014148 -3.783923 -0.894018 24.000000
8.699371 1.744623 -1.929671 3.000000
9.951733 -2.297539 -2.013067 5.000000
5.010795 -3.769054 -0.904649 26.000000
8.692609 1.778013 -1.929671 5.000000
9.882523 -2.243440 -2.002904 8.000000
5.007174 -3.739034 -0.909428 22.000000
4.443425 -7.764941 -0.576971 90.000000
8.666585 1.807387 -1.925420 6.000000
9.856189 -2.197701 -2.003168 4.000000
5.004050 -3.708211 -0.914158 23.000000
4.524891 -7.843664 -0.598275 9.000000
8.697814 1.848777 -1.933921 3.000000
9.810118 -2.149715 -1.999478 4.000000
5.004879 -3.680485 -0.918486 17.000000
4.950976 -8.506629 -0.665817 54.000000
8.671222 1.877953 -1.931219 5.000000
9.778585 -2.103489 -1.998651 7.000000
5.000808 -3.650665 -0.923126 24.000000
4.997383 -8.524649 -0.682315 3.000000
4.466606 3.353622 -1.085703 1.000000
8.678260 1.914392 -1.934409 5.000000
9.809187 -2.072485 -2.008799 8.000000
4.985209 -3.611342 -0.925486 25.000000
4.993632 -8.450502 -0.691543 4.000000
4.317158 3.267411 -1.049477 1.000000
8.695339 1.953202 -1.936616 1.000000
9.782784 -2.027698 -2.005410 7.000000
4.993740 -3.589688 -0.930110 25.000000
5.150208 -8.646416 -0.723166 8.000000
8.664306 1.979617 -1.931307 8.000000
9.741775 -1.980216 -1.999040 7.000000
4.997634 -3.547697 -0.936747 27.000000
5.154165 -8.584758 -0.733564 8.000000
8.681094 2.018557 -1.933505 5.000000
9.714293 -1.937581 -1.997327 5.000000
4.993773 -3.517500 -0.939056 24.000000
5.199469 -8.585344 -0.749406 47.000000
8.678691 2.053155 -1.931452 1.000000
9.701736 -1.896372 -1.996825 6.000000
5.005687 -3.498514 -0.946518 27.000000
5.261119 -8.622479 -0.768349 7.000000
8.651738 2.081890 -1.927219 3.000000
9.645007 -1.846863 -1.990811 7.000000
4.997497 -3.465595 -0.947997 21.000000
5.239877 -8.517299 -0.774728 6.000000
8.701670 2.127676 -1.936792 5.000000
9.675450 -1.815955 -1.997497 8.000000
5.001206 -3.441091 -0.952814 24.000000
5.377805 -8.676892 -0.805203 5.000000
8.698507 2.162332 -1.936284 1.000000
9.594239 -1.762603 -1.986410 35.000000
5.007823 -3.421231 -0.957332 22.000000
5.382267 -8.620122 -0.814081 3.000000
8.705010 2.199473 -1.936317 5.000000
9.522545 -1.716808 -1.972136 34.000000
5.014815 -3.400393 -0.962898 29.000000
5.141068 -8.170200 -0.785151 1.000000
8.706624 2.235481 -1.935288 3.000000
9.518740 -1.678411 -1.973513 36.000000
5.010159 -3.370497 -0.965029 29.000000
5.345088 -8.429012 -0.825840 7.000000
8.727010 2.276469 -1.938454 1.000000
9.534430 -1.643455 -1.977202 29.000000
5.017811 -3.348995 -0.968452 47.000000
8.685529 2.299681 -1.931099 1.000000
9.583402 -1.612310 -1.991301 5.000000
5.021992 -3.322723 -0.974224 25.000000
5.702316 -8.848262 -0.900593 26.000000
8.748428 2.352319 -1.942116 1.000000
9.578619 -1.577143 -1.992682 6.000000
5.019896 -3.297455 -0.977070 26.000000
5.702367 -8.787589 -0.909129 27.000000
8.725183 2.382030 -1.938972 1.000000
9.544889 -1.533970 -1.989701 2.000000
5.035222 -3.281167 -0.984167 16.000000
5.334380 -8.151788 -0.860885 20.000000
8.749606 2.424836 -1.943139 3.000000
9.540951 -1.494073 -1.989371 5.000000
5.076638 -3.279199 -0.995098 8.000000
8.774262 2.466334 -1.947282 1.000000
9.526060 -1.457692 -1.988700 2.000000
5.107661 -3.275285 -1.003396 7.000000
5.723411 -8.614426 -0.939414 29.000000
8.779816 2.504310 -1.945636 4.000000
9.531243 -1.421053 -1.990382 3.000000
5.099214 -3.241055 -1.004590 7.000000
5.838665 -8.721693 -0.966259 22.000000
8.760739 2.535285 -1.943552 1.000000
9.496835 -1.378668 -1.987316 5.000000
5.126853 -3.232302 -1.014217 6.000000
5.887800 -8.729022 -0.984170 17.000000
8.794150 2.581589 -1.948133 4.000000
9.467546 -1.339003 -1.981887 5.000000
5.116042 -3.201827 -1.014305 8.000000
5.973512 -8.789756 -1.006461 19.000000
8.813408 2.622367 -1.951160 1.000000
9.462574 -1.301259 -1.981524 2.000000
5.135367 -3.187786 -1.021237 9.000000
8.812965 2.659113 -1.951629 4.000000
9.481124 -1.263368 -1.991249 1.000000
5.147055 -3.166490 -1.028621 9.000000
8.785278 2.687606 -1.941068 1.000000
9.460647 -1.228724 -1.987819 1.000000
5.153805 -3.144662 -1.031997 6.000000
5.828638 -8.383188 -1.008329 5.000000
8.794384 2.725681 -1.943595 6.000000
5.163265 -3.117139 -1.038524 3.000000
5.928514 -8.463651 -1.033239 8.000000
8.784501 2.759632 -1.940381 4.000000
5.783825 -0.681490 -1.218784 8.000000
5.233054 -3.133159 -1.055726 1.000000
5.865401 -8.311656 -1.031525 10.000000
8.840081 2.814431 -1.949958 1.000000
5.722864 -0.653050 -1.206475 7.000000
5.141143 -3.055015 -1.039435 4.000000
5.893736 -8.296359 -1.042687 9.000000
8.797430 2.836406 -1.941146 4.000000
5.676478 -0.625686 -1.197222 15.000000
5.149024 -3.030586 -1.042750 7.000000
5.984068 -8.352297 -1.067227 25.000000
8.838286 2.887090 -1.949204 1.000000
5.639703 -0.599724 -1.190004 18.000000
5.180575 -3.023646 -1.052283 8.000000
5.942575 -8.233524 -1.067236 12.000000
8.842043 2.925938 -1.947405 1.000000
5.627359 -0.576568 -1.186924 24.000000
5.151429 -2.983777 -1.049703 10.000000
5.710284 -7.853766 -1.032584 14.000000
8.818301 2.953985 -1.939466 1.000000
5.614208 -0.554435 -1.186798 23.000000
5.200118 -2.986578 -1.061704 9.000000
5.781157 -7.898950 -1.053004 30.000000
7.899254 2.679898 -1.735028 1.000000
5.581994 -0.529620 -1.180571 27.000000
5.206980 -2.962786 -1.066061 9.000000
5.955167 -8.071491 -1.093215 20.000000
7.898739 2.713587 -1.734149 1.000000
5.564291 -0.506390 -1.177426 36.000000
5.212868 -2.940897 -1.069364 9.000000
7.677796 2.666181 -1.683135 1.000000
5.551403 -0.485685 -1.174333 22.000000
5.209564 -2.915108 -1.070893 10.000000
7.791538 2.742305 -1.709069 1.000000
5.528319 -0.461311 -1.172083 27.000000
5.227836 -2.900223 -1.078920 21.000000
7.561788 2.689658 -1.656239 1.000000
5.510340 -0.438512 -1.168913 24.000000
5.237769 -2.880678 -1.083094 34.000000
7.357766 2.651860 -1.609702 4.000000
5.511983 -0.417351 -1.168913 25.000000
5.256265 -2.865809 -1.089056 33.000000
4.992389 -6.525052 -0.944795 9.000000
7.363061 2.682846 -1.608623 1.000000
5.498704 -0.395117 -1.166772 24.000000
5.287698 -2.857855 -1.097727 32.000000
5.011396 -6.502733 -0.954254 9.000000
7.125641 6.982817 -1.605153 3.000000
7.122529 2.658755 -1.555057 1.000000
5.480392 -0.373616 -1.163589 25.000000
5.314460 -2.847201 -1.107635 35.000000
5.039331 -6.491986 -0.966885 10.000000
7.106326 7.012684 -1.592008 1.000000
7.067234 2.670485 -1.538445 1.000000
5.481786 -0.352570 -1.163589 25.000000
5.346385 -2.837937 -1.116378 33.000000
5.064725 -6.470905 -0.975490 9.000000
7.193430 7.150870 -1.610123 1.000000
7.006835 2.678453 -1.526162 1.000000
5.477608 -0.331187 -1.165427 28.000000
5.369113 -2.824827 -1.123334 31.000000
5.111021 -6.483298 -0.991734 10.000000
7.210240 7.220315 -1.608845 1.000000
7.015998 2.711470 -1.526211 1.000000
5.469479 -0.309622 -1.161437 26.000000
5.414589 -2.821059 -1.134880 29.000000
5.126689 -6.456689 -1.000614 11.000000
7.190919 7.248885 -1.598932 1.000000
7.136026 2.783655 -1.550040 1.000000
5.460150 -0.289977 -1.162226 22.000000
5.428064 -2.804033 -1.140059 32.000000
5.172208 -6.469844 -1.014108 10.000000
7.271846 7.386978 -1.610249 1.000000
5.446616 -0.267337 -1.159108 24.000000
5.455094 -2.792714 -1.148006 32.000000
5.212652 -6.473971 -1.027909 10.000000
7.287343 7.457194 -1.608541 1.000000
5.447602 -0.246421 -1.159108 23.000000
5.504629 -2.790242 -1.162755 31.000000
5.244057 -6.459718 -1.039303 10.000000
7.302425 7.527627 -1.606708 1.000000
5.433647 -0.224887 -1.156938 30.000000
5.531836 -2.778595 -1.169700 30.000000
5.284489 -6.463285 -1.054679 10.000000
7.292306 7.567247 -1.598732 1.000000
5.419738 -0.205363 -1.153817 30.000000
5.549564 -2.763283 -1.175885 33.000000
5.336710 -6.483163 -1.069740 9.000000
5.430229 -0.185832 -1.155898 10.000000
5.585346 -2.755600 -1.185824 32.000000
5.364799 -6.471119 -1.081274 9.000000
5.425813 -0.164826 -1.155805 10.000000
5.612978 -2.742485 -1.192835 33.000000
5.386627 -6.451480 -1.090076 9.000000
8.757119 9.292829 -1.903762 4.000000
7.935902 3.303397 -1.712967 1.000000
5.421114 -0.143851 -1.156657 12.000000
5.639543 -2.729905 -1.203148 30.000000
5.428523 -6.453434 -1.104238 9.000000
8.753131 9.347258 -1.893280 5.000000
7.725630 3.250730 -1.662658 1.000000
5.412251 -0.122821 -1.152681 19.000000
5.693404 -2.730266 -1.214782 27.000000
5.472696 -6.460035 -1.117649 9.000000
8.770753 9.441758 -1.891486 5.000000
7.622787 3.243535 -1.640309 1.000000
5.412683 -0.102039 -1.152681 19.000000
5.854056 -2.779710 -1.250292 7.000000
5.513786 -6.455814 -1.131294 10.000000
8.794446 9.537127 -1.890245 5.000000
5.393088 -0.080014 -1.150399 22.000000
5.952827 -2.797382 -1.276124 4.000000
5.554641 -6.457866 -1.147151 9.000000
8.819263 9.624537 -1.888111 3.000000
5.398224 -0.061244 -1.151442 27.000000
6.130313 -2.856007 -1.317035 3.000000
5.581722 -6.445990 -1.157416 9.000000
8.852013 9.738474 -1.887065 5.000000
5.393530 -0.040479 -1.150399 23.000000
5.618527 -6.438370 -1.170547 9.000000
8.877386 9.831695 -1.885259 5.000000
5.388555 -0.019750 -1.150296 23.000000
6.234904 -2.847983 -1.343570 5.000000
5.681531 -6.467151 -1.188384 9.000000
8.893902 9.919379 -1.881876 5.000000
5.393682 0.000000 -1.150399 32.000000
6.239697 -2.823889 -1.346194 6.000000
5.703243 -6.446343 -1.197398 9.000000
8.914973 10.016501 -1.877383 5.000000
5.393649 0.018827 -1.150399 25.000000
6.249361 -2.800712 -1.349780 7.000000
5.745621 -6.446479 -1.212082 9.000000
8.940248 10.122898 -1.874056 5.000000
5.393537 0.039537 -1.150399 31.000000
6.169054 -2.737614 -1.335154 7.000000
5.803614 -6.465962 -1.228827 9.000000
9.061567 10.321830 -1.893683 5.000000
5.393345 0.060247 -1.150399 26.000000
6.178879 -2.713625 -1.338688 17.000000
5.822943 -6.439858 -1.238734 10.000000
9.054264 10.390076 -1.885398 5.000000
5.393088 0.080014 -1.150399 23.000000
6.246387 -2.716006 -1.356091 18.000000
5.862294 -6.435804 -1.251383 8.000000
9.068288 10.479800 -1.876216 4.000000
5.393143 0.100729 -1.148516 38.000000
6.305661 -2.713037 -1.370425 10.000000
5.915032 -6.452864 -1.267664 8.000000
9.163259 10.668326 -1.891446 4.000000
5.398943 2.589058 -1.138954 1.000000
5.387426 0.121317 -1.149356 25.000000
6.387072 -2.720365 -1.389722 9.000000
5.939833 -6.427926 -1.278358 9.000000
9.162834 10.743479 -1.881528 5.000000
5.363877 2.595310 -1.130228 1.000000
5.396697 0.142260 -1.151442 28.000000
6.446265 -2.716382 -1.405402 10.000000
5.987309 -6.436350 -1.291811 9.000000
9.316831 11.005484 -1.906054 4.000000
5.337378 2.606673 -1.122355 1.000000
5.376760 0.162396 -1.146331 32.000000
6.514308 -2.716982 -1.421901 18.000000
6.028943 -6.435911 -1.306948 9.000000
9.241778 10.994423 -1.878139 5.000000
5.354933 2.639599 -1.123757 5.000000
5.385903 0.182433 -1.148415 37.000000
6.619145 -2.730918 -1.446386 16.000000
6.060578 -6.417850 -1.317658 8.000000
9.339270 11.193440 -1.890751 4.000000
5.358482 2.666971 -1.123398 6.000000
5.385163 0.203112 -1.148415 30.000000
6.632944 -2.708205 -1.451128 10.000000
6.118345 -6.436133 -1.335078 8.000000
9.345691 11.280954 -1.884415 5.000000
5.366939 2.695769 -1.122894 6.000000
5.384544 0.223796 -1.147475 32.000000
6.683243 -2.698849 -1.465093 22.000000
6.163734 -6.438721 -1.349617 8.000000
9.377239 11.399802 -1.877841 5.000000
5.336145 2.704839 -1.112036 4.000000
5.388531 0.244692 -1.148516 31.000000
6.760620 -2.701318 -1.483845 21.000000
6.202111 -6.426962 -1.363524 8.000000
9.415273 11.531931 -1.875429 5.000000
5.312936 2.718767 -1.107211 6.000000
5.382667 0.265140 -1.147475 33.000000
6.815779 -2.693055 -1.497668 13.000000
6.248740 -6.427965 -1.378194 8.000000
9.469717 11.681615 -1.881054 5.000000
5.325465 2.749855 -1.107587 6.000000
5.391626 0.285394 -1.148615 29.000000
6.875055 -2.687386 -1.512545 15.000000
6.281712 -6.421395 -1.390641 8.000000
9.506037 11.814677 -1.878044 6.000000
5.390598 0.304213 -1.148615 30.000000
6.938906 -2.681676 -1.531082 19.000000
6.321345 -6.414707 -1.405470 8.000000
9.580567 11.992781 -1.884709 6.000000
5.075344 2.669137 -1.051426 3.000000
5.389590 0.324921 -1.147673 26.000000
6.998253 -2.675172 -1.546093 12.000000
6.364652 -6.411479 -1.419557 7.000000
9.648986 12.169626 -1.887673 6.000000
4.892377 2.595849 -1.011490 1.000000
5.383301 0.347179 -1.146633 29.000000
7.062678 -2.668764 -1.562172 8.000000
6.417186 -6.419426 -1.437633 9.000000
9.724548 12.353260 -1.891392 4.000000
4.766353 2.551413 -0.983462 1.000000
5.387071 0.367254 -1.146730 28.000000
7.185149 -2.689276 -1.590178 8.000000
6.466364 -6.416896 -1.452648 7.000000
9.695013 12.404588 -1.874547 5.000000
5.385821 0.387950 -1.145788 32.000000
7.232685 -2.685502 -1.603350 8.000000
6.506338 -6.409404 -1.466150 7.000000
9.781548 12.610295 -1.883255 3.000000
5.389311 0.407116 -1.146826 22.000000
7.311515 -2.697360 -1.620988 9.000000
6.558206 -6.417787 -1.482893 9.000000
9.869364 12.815630 -1.885868 1.000000
5.387908 0.427823 -1.145882 29.000000
7.388116 -2.699281 -1.640380 10.000000
6.597147 -6.410966 -1.496515 8.000000
9.958504 13.025182 -1.894176 1.000000
5.396173 0.449336 -1.147011 27.000000
7.471073 -2.698593 -1.659485 9.000000
6.647878 -6.413058 -1.512612 8.000000
9.993162 13.170278 -1.889472 1.000000
5.404236 0.469958 -1.149083 25.000000
7.563524 -2.699201 -1.682095 9.000000
6.709385 -6.425084 -1.531229 8.000000
10.059313 13.354007 -1.887137 1.000000
5.402592 0.490724 -1.148137 28.000000
7.651454 -2.697505 -1.703769 13.000000
6.723229 -6.386800 -1.538501 8.000000
10.025914 13.406795 -1.868929 1.000000
5.406135 0.511982 -1.146329 27.000000
7.730317 -2.693494 -1.720612 9.000000
6.775871 -6.394195 -1.552371 7.000000
10.137418 13.655023 -1.877554 3.000000
5.418536 0.534157 -1.150377 29.000000
7.827649 -2.693748 -1.744487 9.000000
6.843536 -6.413035 -1.574514 8.000000
10.168254 13.801970 -1.871425 4.000000
5.417140 0.554074 -1.147526 23.000000
7.934337 -2.696433 -1.770527 7.000000
6.886271 -6.401358 -1.586858 7.000000
10.209202 13.959327 -1.869594 1.000000
5.434434 0.576936 -1.151650 29.000000
8.109570 -2.726021 -1.810722 1.000000
6.938624 -6.407264 -1.605887 7.000000
10.287728 14.170241 -1.865198 2.000000
5.432378 0.597821 -1.150697 30.000000
8.231440 -2.728665 -1.840110 1.000000
6.990090 -6.407483 -1.620868 7.000000
10.367449 14.385404 -1.866837 2.000000
5.439965 0.619806 -1.151801 25.000000
8.458913 -2.769702 -1.893550 1.000000
7.027058 -6.394130 -1.632529 7.000000
10.419927 14.570512 -1.866926 1.000000
5.443115 0.640382 -1.149961 35.000000
8.502062 -2.747730 -1.900833 1.000000
7.067667 -6.383887 -1.645075 7.000000
10.507915 14.791540 -1.868603 6.000000
5.440815 0.661302 -1.149004 20.000000
8.510652 -2.717732 -1.905511 1.000000
7.140863 -6.402632 -1.668708 7.000000
10.592448 15.021317 -1.867015 6.000000
5.448146 0.683431 -1.150098 12.000000
8.520390 -2.684834 -1.908629 1.000000
7.167089 -6.378915 -1.676264 7.000000
10.584040 15.121192 -1.852046 6.000000
5.455388 0.705627 -1.151188 30.000000
8.594575 -2.673621 -1.927968 1.000000
7.229475 -6.387108 -1.697517 7.000000
10.493316 15.114784 -1.820366 6.000000
5.462866 0.726961 -1.151313 22.000000
8.562667 -2.624408 -1.923232 1.000000
7.298374 -6.395997 -1.716384 8.000000
10.509673 15.257416 -1.810039 6.000000
5.469932 0.749287 -1.152394 22.000000
8.679655 -2.623849 -1.950543 1.000000
7.336977 -6.386935 -1.729228 8.000000
10.539050 15.414968 -1.801326 6.000000
4.483506 2.821229 -0.880759 1.000000
5.467213 0.770313 -1.151431 24.000000
8.753807 -2.611287 -1.970048 2.000000
7.377583 -6.374903 -1.743815 7.000000
10.768688 15.869464 -1.826386 6.000000
4.340361 2.753414 -0.850928 1.000000
5.488636 0.794836 -1.155566 26.000000
8.828749 -2.596768 -1.988017 6.000000
7.436861 -6.378665 -1.762879 8.000000
10.858953 16.111189 -1.829742 6.000000
4.351645 2.782993 -0.850504 4.000000
5.495853 0.814498 -1.156637 29.000000
8.827706 -2.563015 -1.989114 6.000000
10.781739 16.117737 -1.802302 6.000000
5.502764 0.837127 -1.156732 20.000000
8.841070 -2.531796 -1.993382 5.000000
10.924786 16.461819 -1.811944 6.000000
5.514918 0.854740 -1.159784 28.000000
8.826210 -2.490911 -1.992888 6.000000
5.114178 -4.263998 -1.223277 8.000000
11.049036 16.788603 -1.814935 6.000000
4.296308 2.808213 -0.834070 1.000000
5.540852 0.881550 -1.163930 30.000000
8.826480 -2.451118 -1.993962 5.000000
5.102102 -4.222326 -1.225044 9.000000
11.130960 17.029345 -1.812115 6.000000
5.552840 0.903342 -1.164031 23.000000
8.815464 -2.414946 -1.992899 6.000000
5.090291 -4.181212 -1.223278 10.000000
11.146001 17.183027 -1.795497 6.000000
5.578712 0.929553 -1.168136 18.000000
8.795624 -2.374888 -1.988099 7.000000
5.074276 -4.137004 -1.221688 8.000000
11.251435 17.478903 -1.800365 8.000000
5.599033 0.955049 -1.174184 16.000000
8.784452 -2.335720 -1.990181 8.000000
5.069140 -4.101980 -1.225070 7.000000
11.237289 17.591547 -1.778555 8.000000
5.610573 0.978193 -1.174239 22.000000
8.787960 -2.300561 -1.992282 7.000000
5.060488 -4.064376 -1.224062 10.000000
11.216820 17.695351 -1.762983 9.000000
5.640522 1.005746 -1.181306 10.000000
8.781867 -2.262971 -1.992235 6.000000
5.039608 -4.017308 -1.223598 10.000000
11.174405 17.772158 -1.737027 9.000000
5.670546 1.033580 -1.187368 9.000000
8.775228 -2.226994 -1.992177 8.000000
5.030348 -3.979862 -1.223600 12.000000
11.063910 17.726603 -1.699606 9.000000
5.754208 1.070635 -1.201441 9.000000
8.768827 -2.189566 -1.992108 8.000000
5.017879 -3.938764 -1.221495 15.000000
10.965845 17.713697 -1.668885 9.000000
8.771753 -2.154549 -1.994185 8.000000
5.011904 -3.904471 -1.223447 21.000000
10.907763 17.758081 -1.640187 8.000000
8.727756 -2.108242 -1.982327 8.000000
5.002033 -3.867405 -1.223293 14.000000
10.847402 17.791838 -1.610702 9.000000
9.357187 1.822243 -1.948170 9.000000
8.720862 -2.071170 -1.982222 6.000000
5.003813 -3.839561 -1.224847 9.000000
10.845041 17.935539 -1.594344 7.000000
9.360723 1.858567 -1.946841 9.000000
8.733150 -2.040303 -1.983302 7.000000
5.005287 -3.811627 -1.227478 9.000000
10.976653 18.289904 -1.588904 8.000000
9.345243 1.892820 -1.938186 6.000000
8.730729 -2.004416 -1.984270 6.000000
5.007284 -3.782860 -1.230083 9.000000
10.934137 18.364040 -1.565764 9.000000
9.386562 1.937030 -1.946473 5.000000
8.742445 -1.971798 -1.988480 5.000000
5.000801 -3.749251 -1.229638 9.000000
10.866131 18.395601 -1.531475 9.000000
9.403696 1.978242 -1.948094 6.000000
8.721357 -1.931881 -1.981981 8.000000
5.001840 -3.721471 -1.232183 9.000000
10.764966 18.370470 -1.500101 9.000000
9.416528 2.018728 -1.945345 6.000000
8.708957 -1.894083 -1.980761 7.000000
5.002743 -3.693734 -1.234702 10.000000
10.674113 18.362072 -1.470288 9.000000
9.409728 2.053373 -1.941983 4.000000
8.667437 -1.851809 -1.973007 18.000000
4.988501 -3.653705 -1.232203 10.000000
10.636014 18.444414 -1.440298 9.000000
9.455734 2.101481 -1.946093 6.000000
8.626716 -1.808501 -1.962142 38.000000
4.985123 -3.623234 -1.233673 12.000000
10.557569 18.456957 -1.412297 9.000000
9.510834 2.148592 -1.957194 5.000000
8.628479 -1.774311 -1.962593 37.000000
4.982238 -3.610516 -1.231710 14.000000
10.462150 18.439188 -1.374689 9.000000
9.527351 2.192558 -1.955289 1.000000
8.683070 -1.750814 -1.973466 33.000000
4.974664 -3.577292 -1.232150 18.000000
10.327566 18.350939 -1.339581 9.000000
9.538623 2.233751 -1.955792 6.000000
8.650753 -1.709757 -1.967846 23.000000
4.974896 -3.549869 -1.234527 27.000000
10.274189 18.406120 -1.307741 8.000000
4.312742 3.299726 -0.772843 4.000000
9.575429 2.275891 -1.957731 6.000000
8.666837 -1.678384 -1.970024 33.000000
4.971786 -3.518918 -1.234820 28.000000
10.162405 18.356125 -1.272255 9.000000
4.238523 3.267639 -0.755967 72.000000
9.596549 2.319877 -1.956692 2.000000
4.968081 -3.489036 -1.234025 24.000000
10.078293 18.347515 -1.240001 8.000000
4.227140 3.283635 -0.750362 194.000000
9.626752 2.364557 -1.961008 2.000000
4.968497 -3.460917 -1.236321 31.000000
10.081110 18.352644 -1.225679 9.000000
9.738989 2.392125 -1.969325 4.000000
8.811409 -1.636280 -1.988480 14.000000
4.980531 -3.480932 -1.231839 20.000000
10.157462 18.332090 -1.245137 9.000000
4.241694 3.257119 -0.747801 175.000000
9.758308 2.357178 -1.967748 3.000000
8.792373 -1.667694 -1.977422 32.000000
4.973147 -3.502973 -1.224341 24.000000
10.257261 18.360733 -1.271610 8.000000
4.324180 3.295335 -0.763111 3.000000
9.714775 2.307220 -1.957168 4.000000
8.763288 -1.697062 -1.965797 30.000000
4.965489 -3.524878 -1.217888 32.000000
10.354807 18.384325 -1.301614 8.000000
9.727943 2.272714 -1.958130 3.000000
8.791556 -1.735992 -1.968633 34.000000
4.993281 -3.572202 -1.222337 10.000000
10.420588 18.351009 -1.327706 9.000000
9.721586 2.231898 -1.958727 5.000000
8.799861 -1.772765 -1.968718 43.000000
5.000911 -3.605444 -1.221839 16.000000
10.520953 18.378056 -1.358288 10.000000
9.724632 2.193324 -1.961243 6.000000
8.783757 -1.804644 -1.965010 17.000000
4.984898 -3.621740 -1.213340 22.000000
10.611636 18.387304 -1.387746 9.000000
9.713446 2.153419 -1.957382 3.000000
8.888069 -1.861672 -1.983287 7.000000
4.973391 -3.657330 -1.205576 35.000000
10.712526 18.413357 -1.418666 9.000000
9.697008 2.110744 -1.956021 5.000000
8.934764 -1.907294 -1.988645 3.000000
4.976570 -3.687848 -1.204005 34.000000
10.799813 18.400476 -1.450783 10.000000
9.680388 2.068228 -1.954642 5.000000
8.950905 -1.948340 -1.993962 8.000000
4.967793 -3.709627 -1.199549 38.000000
10.889916 18.421181 -1.473868 9.000000
9.682727 2.035176 -1.951946 8.000000
8.945067 -1.979798 -1.989166 8.000000
4.978872 -3.746402 -1.197636 56.000000
10.973513 18.415548 -1.506550 9.000000
9.709715 1.998417 -1.959278 5.000000
8.981659 -2.024104 -1.992287 7.000000
4.980931 -3.777993 -1.195956 36.000000
11.088132 18.461048 -1.539871 9.000000
9.682978 1.957708 -1.952492 6.000000
8.984024 -2.060917 -1.991184 6.000000
4.984484 -3.808170 -1.192051 46.000000
11.167794 18.440220 -1.564231 9.000000
9.704859 1.921614 -1.957127 4.000000
8.966837 -2.094899 -1.985858 6.000000
4.978432 -3.833909 -1.188435 40.000000
11.238884 18.412249 -1.591672 9.000000
9.692235 1.880469 -1.956692 4.000000
9.021971 -2.141018 -1.996325 7.000000
5.007867 -3.885900 -1.193125 25.000000
11.095519 18.035509 -1.592173 8.000000
9.009607 -2.174661 -1.992037 7.000000
