VERSION .7
FIELDS x y z intensity
SIZE 4 4 4 4
TYPE F F F F
COUNT 1 1 1 1
WIDTH 1233
HEIGHT 1
VIEWPOINT 0 0 0 1 0 0 0
POINTS 1233
DATA ascii
8.792007 13.193034 -0.429002 4.000000
14.284796 9.149566 -1.183248 4.000000
16.654133 2.560341 -1.696685 6.000000
14.478963 -3.955564 -1.739320 7.000000
7.148061 -5.833972 -0.994183 5.000000
8.733300 13.214613 -0.409245 5.000000
14.100997 9.104898 -1.159005 5.000000
16.680204 2.626966 -1.688403 6.000000
14.494725 -3.897410 -1.739320 8.000000
7.195891 -5.829198 -1.004398 8.000000
8.683782 13.229856 -0.389523 6.000000
13.959841 9.086424 -1.132608 3.000000
16.661867 2.680731 -1.684463 6.000000
14.517256 -3.849180 -1.745714 9.000000
7.212648 -5.799119 -1.011935 10.000000
8.615940 13.226915 -0.372009 5.000000
13.942804 9.141303 -1.121987 1.000000
16.740587 2.756379 -1.690441 6.000000
14.684438 -3.835959 -1.769485 7.000000
7.118661 -5.684787 -1.002535 16.000000
8.559470 13.246130 -0.355140 6.000000
13.725139 9.074140 -1.095728 1.000000
16.843102 2.842750 -1.692899 6.000000
14.978095 -3.848508 -1.808466 9.000000
7.133082 -5.649559 -1.007794 27.000000
8.497219 13.251035 -0.335233 1.000000
16.749001 2.893055 -1.681549 5.000000
15.088438 -3.815160 -1.825514 8.000000
7.176626 -5.641366 -1.017469 7.000000
8.343747 13.112204 -0.314700 1.000000
10.619462 7.133293 -0.834003 7.000000
16.831964 2.970958 -1.684936 6.000000
15.184240 -3.780227 -1.835417 10.000000
12.461748 -9.722182 -1.775672 7.000000
10.511209 7.116624 -0.816420 8.000000
16.768436 3.017118 -1.676567 6.000000
15.244608 -3.741614 -1.843981 9.000000
12.562851 -9.727199 -1.799028 7.000000
10.491126 7.156561 -0.803442 6.000000
16.772236 3.081308 -1.675059 6.000000
15.253408 -3.681735 -1.848875 7.000000
12.589541 -9.674266 -1.808987 7.000000
10.502294 7.220726 -0.797386 1.000000
16.791323 3.148478 -1.666065 6.000000
15.222692 -3.615328 -1.849071 8.000000
12.604409 -9.612421 -1.814457 7.000000
13.048376 9.041864 -0.976518 1.000000
16.818499 3.220470 -1.666959 6.000000
15.231319 -3.558453 -1.845754 8.000000
12.619110 -9.557614 -1.825998 7.000000
8.151556 13.328224 -0.226339 1.000000
12.921320 9.024099 -0.963956 1.000000
16.904551 3.301224 -1.673642 6.000000
15.258129 -3.502987 -1.858442 8.000000
12.572702 -9.443284 -1.827689 7.000000
8.037703 13.245725 -0.202823 1.000000
12.870150 9.055364 -0.945951 1.000000
16.883150 3.361331 -1.666666 6.000000
15.183685 -3.427361 -1.847832 8.000000
12.661947 -9.437924 -1.846796 7.000000
12.703314 9.007769 -0.919744 1.000000
16.939856 3.437217 -1.664361 6.000000
15.230078 -3.379216 -1.851958 8.000000
12.570289 -9.301524 -1.836981 7.000000
7.976016 13.353383 -0.168318 1.000000
12.670861 9.054731 -0.906153 1.000000
16.947206 3.503429 -1.660238 6.000000
15.237772 -3.319586 -1.854091 8.000000
12.446099 -9.132540 -1.827119 7.000000
7.978081 13.468729 -0.150275 1.000000
12.639688 9.099273 -0.895281 2.000000
16.944843 3.567750 -1.652126 6.000000
15.215219 -3.256306 -1.855390 8.000000
12.438317 -9.056882 -1.831984 7.000000
12.538064 9.096070 -0.879589 6.000000
17.028915 3.653792 -1.655544 6.000000
15.251662 -3.205690 -1.855630 8.000000
12.438457 -8.987409 -1.835290 7.000000
7.800913 13.381814 -0.113547 1.000000
12.318866 8.999548 -0.855615 90.000000
16.996243 3.711995 -1.650616 6.000000
15.257724 -3.145839 -1.865915 8.000000
12.346146 -8.858542 -1.828086 7.000000
7.711668 13.335492 -0.094103 1.000000
12.293092 9.053318 -0.837524 5.000000
17.085127 3.797068 -1.654424 6.000000
15.250006 -3.086022 -1.860821 8.000000
12.258967 -8.721659 -1.823300 7.000000
7.682694 13.398468 -0.072783 3.000000
12.192366 9.048248 -0.816969 4.000000
17.135340 3.874188 -1.648277 6.000000
15.275823 -3.033007 -1.862603 8.000000
12.286015 -8.673254 -1.830573 7.000000
7.601304 13.364416 -0.056352 4.000000
12.151577 9.087234 -0.805838 1.000000
17.209194 3.957240 -1.647438 6.000000
15.282164 -2.973320 -1.864726 7.000000
12.216803 -8.554297 -1.823278 6.000000
7.505502 13.303828 -0.034658 2.000000
12.060735 9.085115 -0.783414 3.000000
17.273260 4.038686 -1.642486 6.000000
15.331972 -2.924730 -1.869483 8.000000
12.203832 -8.485043 -1.822399 6.000000
7.493216 13.391063 -0.013391 1.000000
11.943553 9.059081 -0.764633 1.000000
17.200769 4.088285 -1.630783 6.000000
15.328770 -2.863163 -1.864978 6.000000
12.180436 -8.402719 -1.827403 6.000000
7.424592 13.377794 0.005341 1.000000
11.867359 9.070000 -0.743583 1.000000
17.268776 4.171376 -1.629288 6.000000
15.402647 -2.818579 -1.872697 6.000000
12.149201 -8.315618 -1.823350 6.000000
7.480392 13.478337 0.018833 1.000000
11.933048 9.116906 -0.731835 1.000000
17.595285 4.250247 -1.634610 6.000000
15.517543 -2.839604 -1.864328 7.000000
12.271000 -8.395839 -1.825603 8.000000
12.113419 9.184591 -0.746147 1.000000
17.640369 4.192770 -1.630979 6.000000
15.532395 -2.901197 -1.858989 7.000000
12.311437 -8.489921 -1.817692 7.000000
7.498012 13.285132 -0.010650 1.000000
12.011013 9.037808 -0.745683 1.000000
17.622669 4.117138 -1.624685 6.000000
15.570876 -2.970304 -1.856532 7.000000
12.468777 -8.666026 -1.834843 7.000000
7.569059 13.302321 -0.024041 1.000000
12.122190 9.055364 -0.758561 6.000000
17.648762 4.048590 -1.625579 6.000000
15.590403 -3.033291 -1.848934 8.000000
12.487552 -8.747127 -1.823415 7.000000
7.677624 13.384212 -0.043089 1.000000
12.203007 9.046241 -0.772170 4.000000
17.612961 3.978944 -1.627412 6.000000
15.613600 -3.097240 -1.850203 8.000000
12.525660 -8.842430 -1.820130 7.000000
7.699065 13.308336 -0.056352 4.000000
12.207599 8.980500 -0.778328 1.000000
17.636871 3.916460 -1.631463 6.000000
15.602538 -3.157361 -1.841868 8.000000
12.615580 -8.975371 -1.827004 7.000000
7.742920 13.277004 -0.072429 1.000000
12.421472 9.067859 -0.800605 4.000000
17.670570 3.856038 -1.633261 6.000000
15.615814 -3.219670 -1.839176 6.000000
12.743469 -9.140260 -1.839494 7.000000
7.870259 13.387753 -0.089446 1.000000
12.460794 9.030058 -0.809183 1.000000
17.699293 3.791168 -1.640929 5.000000
15.634017 -3.283206 -1.834249 8.000000
12.840242 -9.281132 -1.841543 8.000000
7.985713 13.476248 -0.106627 1.000000
12.660419 9.110843 -0.831100 1.000000
17.679241 3.719156 -1.634616 6.000000
15.694782 -3.358940 -1.837202 9.000000
12.855871 -9.364355 -1.831816 10.000000
7.909323 13.236479 -0.121107 1.000000
12.627205 9.010223 -0.840114 1.000000
17.731207 3.662275 -1.644540 5.000000
15.634765 -3.406071 -1.823138 7.000000
12.870801 -9.447628 -1.824749 12.000000
8.007000 13.294331 -0.138144 1.000000
12.761770 9.035836 -0.852332 1.000000
17.602703 3.568515 -1.634559 6.000000
15.690701 -3.478545 -1.825452 9.000000
12.833116 -9.492539 -1.813038 7.000000
12.901443 9.070650 -0.870691 2.000000
17.610779 3.503002 -1.634105 6.000000
15.687230 -3.541024 -1.823774 8.000000
12.827637 -9.561426 -1.800235 7.000000
12.943737 9.026319 -0.885013 1.000000
17.618933 3.434349 -1.636785 6.000000
15.723190 -3.609757 -1.823777 8.000000
12.738132 -9.567537 -1.778506 7.000000
13.021636 9.009885 -0.893620 1.000000
17.694702 3.381847 -1.645832 5.000000
15.769154 -3.681204 -1.819213 8.000000
12.731705 -9.635901 -1.771242 7.000000
8.251835 13.272614 -0.204590 1.000000
10.499987 7.213743 -0.727847 1.000000
17.667259 3.309529 -1.648467 6.000000
15.740708 -3.738355 -1.814714 15.000000
12.689623 -9.677407 -1.756214 7.000000
8.308273 13.254798 -0.221169 3.000000
10.487077 7.143075 -0.736068 1.000000
17.679554 3.244805 -1.645330 6.000000
15.723298 -3.795153 -1.802865 9.000000
12.612165 -9.691652 -1.733542 7.000000
8.378414 13.263590 -0.235495 6.000000
10.522896 7.116504 -0.741371 1.000000
17.598497 3.163298 -1.633550 6.000000
15.647150 -3.837518 -1.790041 7.000000
12.625154 -9.775439 -1.723323 7.000000
8.451372 13.276220 -0.252727 6.000000
10.559674 7.087784 -0.751124 1.000000
17.614855 3.096465 -1.640247 6.000000
15.411465 -3.839653 -1.761871 8.000000
12.500032 -9.752050 -1.699915 7.000000
8.486301 13.223849 -0.271522 6.000000
13.658339 9.088329 -0.980427 1.000000
17.679779 3.041118 -1.648401 6.000000
15.180995 -3.844202 -1.726131 7.000000
12.383281 -9.734186 -1.674976 37.000000
8.578372 13.265221 -0.292291 6.000000
13.703478 9.046078 -0.992785 1.000000
17.650675 2.969547 -1.654114 6.000000
15.060910 -3.872589 -1.714079 7.000000
7.156346 -5.667984 -0.965945 27.000000
8.651774 13.276860 -0.307045 4.000000
13.815138 9.047262 -1.012930 1.000000
17.676178 2.907258 -1.655494 6.000000
15.047769 -3.928065 -1.703222 8.000000
7.132424 -5.691702 -0.955863 14.000000
8.697453 13.240606 -0.323538 3.000000
13.906197 9.034241 -1.028793 2.000000
17.680941 2.841524 -1.664410 6.000000
15.018164 -3.981994 -1.701589 10.000000
7.197431 -5.786883 -0.959264 13.000000
8.809643 13.309918 -0.342703 5.000000
14.146746 9.120451 -1.056024 5.000000
17.631931 2.767393 -1.661973 5.000000
15.071236 -4.055246 -1.703762 9.000000
7.230927 -5.857579 -0.958376 1.000000
8.880774 13.316158 -0.363224 4.000000
14.138619 9.048979 -1.061996 1.000000
17.672241 2.704233 -1.661634 5.000000
15.066721 -4.113310 -1.696670 9.000000
7.159831 -5.843578 -0.945265 1.000000
8.966510 13.348605 -0.378959 2.000000
14.406965 9.146465 -1.091589 1.000000
17.675900 2.644835 -1.664291 6.000000
15.066485 -4.172643 -1.692833 9.000000
13.830432 -11.368532 -1.815383 7.000000
8.975425 13.251665 -0.393953 1.000000
14.430408 9.080279 -1.099559 1.000000
17.602911 2.561712 -1.653305 6.000000
15.061058 -4.233472 -1.682988 6.000000
13.843772 -11.464779 -1.803623 5.000000
10.994133 6.867229 -0.842799 8.000000
17.567532 2.490846 -1.652238 6.000000
14.830856 -4.227479 -1.653539 7.000000
13.944215 -11.634384 -1.806246 5.000000
11.054918 6.843660 -0.856741 5.000000
17.709261 2.441613 -1.674115 6.000000
14.729294 -4.256963 -1.643944 7.000000
14.066464 -11.824100 -1.811490 7.000000
11.248400 6.909242 -0.876804 5.000000
17.673971 2.370771 -1.666807 5.000000
14.724233 -4.314037 -1.634299 7.000000
7.127941 -6.036384 -0.912555 30.000000
11.307205 6.888411 -0.888698 1.000000
17.682255 2.305939 -1.669919 6.000000
14.717637 -4.373537 -1.629999 7.000000
7.042009 -6.008070 -0.896212 37.000000
19.085901 11.540628 -1.512696 6.000000
17.630253 2.239725 -1.667427 6.000000
14.768706 -4.447688 -1.632005 8.000000
7.005316 -6.021269 -0.887836 38.000000
19.049864 11.414660 -1.521773 6.000000
17.584463 2.162216 -1.665381 6.000000
14.857755 -4.533966 -1.635446 9.000000
6.953681 -6.021344 -0.875983 71.000000
19.005695 11.302710 -1.522997 6.000000
17.641043 2.106690 -1.673161 6.000000
15.321414 -4.736910 -1.682723 10.000000
6.771061 -5.906773 -0.844623 34.000000
18.861555 11.123612 -1.519689 6.000000
17.678024 2.045417 -1.679080 6.000000
15.412815 -4.830084 -1.689085 15.000000
6.749917 -5.932034 -0.836781 69.000000
18.819473 11.006026 -1.528333 6.000000
17.670269 1.978915 -1.680774 6.000000
15.462492 -4.907962 -1.685041 8.000000
6.748247 -5.972445 -0.832808 82.000000
27.380625 37.493198 -1.621256 4.000000
18.599888 10.786315 -1.522365 6.000000
17.786573 1.925959 -1.688004 6.000000
15.468632 -4.972391 -1.681952 6.000000
6.726851 -5.997620 -0.824944 47.000000
27.292299 37.072533 -1.655854 3.000000
18.447517 10.599226 -1.521327 6.000000
17.843998 1.856589 -1.692701 6.000000
15.569095 -5.067719 -1.689107 6.000000
6.857246 -6.159139 -0.835587 38.000000
27.247868 36.742847 -1.693333 2.000000
18.450647 10.511263 -1.533299 6.000000
17.795906 1.785679 -1.690656 6.000000
15.664629 -5.162389 -1.692786 7.000000
6.853627 -6.201424 -0.829779 1.000000
26.621122 35.650005 -1.693686 2.000000
18.415241 10.410358 -1.538614 6.000000
17.821251 1.728549 -1.695663 6.000000
15.697151 -5.240011 -1.692625 7.000000
26.275627 34.932316 -1.717421 7.000000
18.267616 10.242926 -1.541657 6.000000
17.667990 1.648341 -1.689869 6.000000
15.621848 -5.278589 -1.680764 31.000000
26.351080 34.766640 -1.759768 2.000000
18.143309 10.085997 -1.535322 6.000000
17.783260 1.590242 -1.700298 6.000000
15.553308 -5.312959 -1.666582 12.000000
12.864015 -11.899703 -1.523894 4.000000
26.049767 34.121021 -1.776711 5.000000
18.284016 10.076672 -1.558749 6.000000
17.694448 1.516949 -1.694391 6.000000
15.551208 -5.382049 -1.662855 25.000000
12.856173 -11.975997 -1.512461 7.000000
26.060629 33.852638 -1.805516 4.000000
18.031324 9.851420 -1.544937 6.000000
17.680340 1.450482 -1.689395 6.000000
15.536892 -5.440943 -1.654738 9.000000
12.849479 -12.058026 -1.501372 5.000000
24.965319 32.196697 -1.764577 1.000000
17.982077 9.730986 -1.551713 6.000000
17.650803 1.382949 -1.686077 6.000000
15.600834 -5.530674 -1.657962 7.000000
12.922005 -12.215462 -1.499438 1.000000
25.215467 32.297558 -1.810504 4.000000
17.947641 9.635544 -1.556704 6.000000
17.769621 1.326748 -1.700089 6.000000
16.030590 -5.749253 -1.699857 7.000000
17.924662 9.538738 -1.565927 6.000000
17.700109 1.253235 -1.692966 6.000000
16.127174 -5.850693 -1.703290 7.000000
18.020504 9.505154 -1.581977 6.000000
17.729120 1.189999 -1.698442 6.000000
16.176250 -5.935678 -1.704685 6.000000
13.100083 -12.655023 -1.487889 10.000000
23.604082 29.578909 -1.791233 7.000000
17.842199 9.327677 -1.577454 6.000000
17.688656 1.122175 -1.694160 6.000000
16.285841 -6.043712 -1.709373 7.000000
12.990615 -12.641645 -1.458417 9.000000
23.770805 29.564920 -1.828830 9.000000
17.778166 9.211390 -1.579346 6.000000
17.697323 1.057614 -1.697730 6.000000
16.352936 -6.136894 -1.709531 8.000000
13.215602 -12.955236 -1.472744 19.000000
23.825500 29.422045 -1.864866 9.000000
17.739880 9.109233 -1.586977 6.000000
17.711191 0.990209 -1.698684 6.000000
16.367027 -6.213983 -1.707317 8.000000
14.644371 -14.461491 -1.619788 25.000000
23.818283 29.193697 -1.895467 9.000000
16.026703 8.155445 -1.440512 5.000000
17.749199 0.927090 -1.705122 6.000000
16.415218 -6.301212 -1.699253 6.000000
14.605599 -14.524254 -1.599396 33.000000
17.461180 21.250025 -1.412531 3.000000
16.091410 8.114261 -1.453142 6.000000
17.762421 0.862512 -1.706077 6.000000
16.531765 -6.415568 -1.707492 7.000000
17.901144 21.623392 -1.466264 3.000000
16.062180 8.025816 -1.460453 6.000000
17.670715 0.799332 -1.697005 6.000000
16.561646 -6.490438 -1.709659 6.000000
17.310898 20.755077 -1.440058 7.000000
16.032740 7.937806 -1.464551 6.000000
17.668638 0.725090 -1.699613 6.000000
16.573305 -6.571876 -1.704151 6.000000
16.919687 20.142672 -1.433889 7.000000
16.038204 7.867451 -1.478101 6.000000
17.650688 0.659561 -1.703866 6.000000
16.748327 -6.712420 -1.718310 6.000000
13.540154 -13.860584 -1.439928 8.000000
16.541082 19.546032 -1.418136 7.000000
15.905130 7.729979 -1.469432 6.000000
17.658556 0.595051 -1.698178 4.000000
16.754492 -6.779460 -1.711691 6.000000
13.591148 -14.015185 -1.426823 8.000000
16.125603 18.920738 -1.407312 7.000000
15.824917 7.619420 -1.468691 6.000000
17.650669 0.530026 -1.697222 6.000000
16.779846 -6.864816 -1.707384 6.000000
13.623384 -14.151846 -1.421856 8.000000
15.982668 18.614399 -1.410354 7.000000
15.793579 7.533151 -1.472437 6.000000
17.697056 0.463414 -1.704617 5.000000
16.904778 -6.995275 -1.713276 7.000000
13.841033 -14.483814 -1.432530 8.000000
15.893127 18.379913 -1.422313 7.000000
15.675772 7.406557 -1.474151 6.000000
17.638193 0.403347 -1.705024 6.000000
16.909599 -7.063037 -1.709676 7.000000
13.767383 -14.507795 -1.409090 7.000000
15.477468 17.767178 -1.404040 7.000000
15.706623 7.350835 -1.483655 6.000000
17.674383 0.339365 -1.708391 6.000000
17.022028 -7.183385 -1.713936 6.000000
13.776518 -14.624399 -1.397882 27.000000
14.613319 16.651567 -1.339506 6.000000
15.628802 7.244704 -1.482872 6.000000
17.715412 0.269018 -1.712239 6.000000
17.090042 -7.293046 -1.713906 7.000000
13.764702 -14.719577 -1.380944 30.000000
14.356452 16.244148 -1.333542 6.000000
15.695285 7.205753 -1.495774 6.000000
17.701315 0.207003 -1.710796 6.000000
17.039148 -7.338217 -1.701437 7.000000
13.731026 -14.786691 -1.365044 32.000000
14.083274 15.817834 -1.321326 7.000000
15.489619 7.042708 -1.482681 6.000000
17.726837 0.142323 -1.713201 6.000000
17.099707 -7.438713 -1.700350 8.000000
14.093577 15.713066 -1.339072 12.000000
15.446255 6.954788 -1.487997 6.000000
17.781984 0.077589 -1.718492 6.000000
17.114170 -7.519722 -1.694648 7.000000
14.165487 15.693767 -1.359737 25.000000
15.391438 6.868810 -1.486442 6.000000
17.692570 0.006176 -1.709834 6.000000
17.116512 -7.602872 -1.688002 8.000000
20.840830 -22.935921 -2.004051 24.000000
14.235536 15.655624 -1.379487 26.000000
15.465906 6.834178 -1.500128 6.000000
17.781794 -0.046553 -1.721595 6.000000
17.084257 -7.652895 -1.677303 7.000000
20.807922 -23.069021 -1.981781 38.000000
14.339016 15.653773 -1.406272 15.000000
15.427429 6.746492 -1.502758 6.000000
17.756901 -0.114671 -1.716087 6.000000
17.156717 -7.760979 -1.677260 8.000000
20.785732 -23.198641 -1.959692 36.000000
14.453279 15.668354 -1.438265 21.000000
15.391917 6.663867 -1.505762 6.000000
17.756361 -0.179752 -1.716087 6.000000
17.187317 -7.850832 -1.679729 6.000000
20.769007 -23.343414 -1.932938 37.000000
14.564255 15.673004 -1.458588 23.000000
15.314816 6.563939 -1.504651 6.000000
17.675961 -0.243733 -1.708391 6.000000
17.141659 -7.906041 -1.661485 6.000000
20.700939 -23.439339 -1.907193 34.000000
14.654813 15.654996 -1.480703 29.000000
15.241781 6.466613 -1.503877 6.000000
17.759542 -0.309994 -1.716568 6.000000
17.185598 -8.002824 -1.658574 6.000000
20.708319 -23.621628 -1.882820 40.000000
14.762860 15.660488 -1.512509 25.000000
15.172350 6.371637 -1.509192 6.000000
17.787474 -0.378806 -1.725664 6.000000
17.165428 -8.070120 -1.656135 8.000000
20.642982 -23.713579 -1.862367 6.000000
14.863707 15.652133 -1.539670 11.000000
15.144296 6.294661 -1.512756 6.000000
17.756115 -0.443253 -1.722768 6.000000
17.123016 -8.126944 -1.644906 7.000000
15.035242 -17.400068 -1.338028 3.000000
14.962839 15.652247 -1.563547 17.000000
15.194156 6.250173 -1.524115 6.000000
17.799744 -0.509628 -1.720896 6.000000
16.698549 -8.000605 -1.597169 8.000000
15.167251 -17.677195 -1.326708 1.000000
14.995684 15.577378 -1.580257 10.000000
15.036638 6.121037 -1.511770 6.000000
17.767309 -0.573881 -1.724216 6.000000
16.329023 -7.897274 -1.555015 8.000000
14.710711 -17.260597 -1.279860 2.000000
14.938673 15.393995 -1.594074 6.000000
15.025912 6.052567 -1.517007 6.000000
17.740410 -0.641210 -1.718704 6.000000
16.210917 -7.913598 -1.540177 6.000000
14.648747 -17.328318 -1.252703 5.000000
14.896231 15.238109 -1.606015 6.000000
14.931649 5.951083 -1.513768 6.000000
17.747887 -0.706624 -1.719668 6.000000
16.028292 -7.904279 -1.510120 6.000000
14.627387 -17.426064 -1.236157 5.000000
14.778913 15.023388 -1.603067 6.000000
14.776652 5.826637 -1.504270 6.000000
17.755119 -0.772101 -1.720631 6.000000
16.042849 -7.977704 -1.504528 6.000000
14.503515 -17.407660 -1.207276 6.000000
14.831088 14.955861 -1.620690 6.000000
14.580462 5.684685 -1.487577 6.000000
17.831711 -0.840922 -1.728341 6.000000
15.929591 -7.994340 -1.487246 7.000000
14.440278 -17.455297 -1.183287 12.000000
14.604698 14.630211 -1.612418 6.000000
14.618558 5.637901 -1.503143 6.000000
17.753494 -0.905566 -1.724216 6.000000
15.967322 -8.086674 -1.487235 9.000000
14.348463 -17.474321 -1.157263 10.000000
14.533515 14.452570 -1.616696 6.000000
14.670936 5.596418 -1.514707 8.000000
17.775507 -0.972022 -1.720415 6.000000
15.902771 -8.127355 -1.474572 9.000000
14.325966 -17.577894 -1.140797 9.000000
14.352149 14.172917 -1.612264 6.000000
14.783982 5.577557 -1.529825 7.000000
17.767153 -1.036893 -1.716828 6.000000
15.949080 -8.224885 -1.469039 8.000000
14.240131 -17.597654 -1.115082 8.000000
14.363841 14.080853 -1.625436 6.000000
14.950826 5.583937 -1.553600 8.000000
17.763018 -1.095768 -1.723041 6.000000
15.968138 -8.308945 -1.464102 8.000000
14.210339 -17.680414 -1.101460 7.000000
15.047055 5.551151 -1.569749 8.000000
17.743376 -1.169183 -1.721595 6.000000
15.933841 -8.365454 -1.454274 28.000000
14.127489 -17.716215 -1.076519 7.000000
15.239748 5.558867 -1.593433 7.000000
17.774023 -1.236646 -1.721858 8.000000
15.877540 -8.410274 -1.439314 40.000000
14.106549 -17.823584 -1.056039 5.000000
15.367858 5.538830 -1.613228 8.000000
17.714773 -1.297783 -1.716568 6.000000
15.913210 -8.504003 -1.435856 34.000000
14.069611 -17.904993 -1.034049 6.000000
10.874355 10.355509 -1.271509 5.000000
15.457294 5.507135 -1.632055 9.000000
17.555775 -1.350843 -1.704731 6.000000
15.935022 -8.590892 -1.434296 6.000000
13.973830 -17.917894 -1.007987 5.000000
10.933147 10.335350 -1.287170 5.000000
15.453374 5.441992 -1.635300 9.000000
16.890987 -1.364951 -1.637689 6.000000
16.057566 -8.733068 -1.435357 6.000000
14.015819 -18.101681 -0.991547 5.000000
10.861157 10.192174 -1.287382 39.000000
15.439514 5.373587 -1.640383 8.000000
16.688559 -1.404311 -1.612605 8.000000
16.201363 -8.888372 -1.434889 6.000000
23.148544 -30.124201 -1.605583 1.000000
10.777340 10.039488 -1.286027 99.000000
15.496198 5.329719 -1.650097 6.000000
16.648314 -1.462395 -1.612167 8.000000
16.299967 -9.020349 -1.439998 6.000000
23.198460 -30.408268 -1.589649 8.000000
10.774595 9.966910 -1.299611 59.000000
15.475019 5.265112 -1.657502 6.000000
16.662668 -1.525219 -1.614087 8.000000
16.319689 -9.109555 -1.434836 6.000000
23.188997 -30.605801 -1.555669 7.000000
10.802501 9.912552 -1.313642 9.000000
15.444239 5.182561 -1.660483 6.000000
16.611824 -1.590759 -1.606854 7.000000
16.295748 -9.174689 -1.422546 5.000000
27.367933 -36.410946 -1.797609 10.000000
10.830953 9.872701 -1.323427 5.000000
15.399417 5.110766 -1.659556 6.000000
16.576460 -1.642864 -1.606886 8.000000
16.379501 -9.301071 -1.426211 5.000000
27.175663 -36.432400 -1.746070 24.000000
10.969586 9.925702 -1.348929 5.000000
15.379407 5.041624 -1.663961 6.000000
16.728758 -1.719897 -1.622249 8.000000
16.345947 -9.361412 -1.416348 6.000000
26.303387 -35.495136 -1.658572 23.000000
11.082800 9.954508 -1.371464 4.000000
15.416156 4.991170 -1.671662 6.000000
16.742416 -1.783337 -1.621231 8.000000
16.351238 -9.444198 -1.406540 6.000000
26.552437 -36.133541 -1.628551 23.000000
11.067923 9.871560 -1.383625 5.000000
15.416560 4.923017 -1.675259 6.000000
16.750568 -1.849280 -1.619727 8.000000
16.313049 -9.502046 -1.392989 5.000000
26.538874 -36.380543 -1.596150 23.000000
11.009943 9.747628 -1.384847 5.000000
15.286915 4.817012 -1.673287 6.000000
16.357813 -9.604749 -1.389680 6.000000
18.547716 -25.622665 -1.088007 37.000000
11.055901 9.716265 -1.399098 5.000000
15.346643 4.774071 -1.683570 6.000000
16.327206 -9.667425 -1.383422 6.000000
18.452986 -25.680048 -1.054549 35.000000
11.086763 9.671599 -1.411465 5.000000
15.266766 4.693754 -1.678727 6.000000
14.209463 -1.727084 -1.375764 185.000000
16.352434 -9.763487 -1.375216 6.000000
18.379866 -25.758108 -1.027602 34.000000
11.053293 9.571287 -1.418182 5.000000
15.173307 4.604218 -1.677777 6.000000
14.213153 -1.780419 -1.374220 6.000000
16.381449 -9.862434 -1.367269 6.000000
18.336569 -25.888081 -1.002514 39.000000
11.098680 9.539632 -1.432402 5.000000
15.152206 4.534351 -1.679089 6.000000
17.814232 -2.301019 -1.726402 6.000000
16.473497 -10.000298 -1.371240 6.000000
11.098545 9.469008 -1.440751 5.000000
15.144319 4.471580 -1.681962 6.000000
17.810909 -2.366992 -1.723744 6.000000
16.624723 -10.175673 -1.373247 6.000000
27.194523 -39.011448 -1.394772 1.000000
11.162394 9.453008 -1.460000 5.000000
15.154701 4.414323 -1.692452 6.000000
17.767895 -2.427581 -1.717272 6.000000
16.630575 -10.263235 -1.363119 6.000000
27.212429 -39.329063 -1.360952 1.000000
11.205766 9.422769 -1.474267 5.000000
15.074650 4.331130 -1.687266 6.000000
17.822655 -2.501639 -1.726609 6.000000
16.703566 -10.393009 -1.361864 6.000000
26.926859 -39.193478 -1.311634 1.000000
11.231597 9.374432 -1.486033 1.000000
15.072213 4.265007 -1.690595 6.000000
17.808290 -2.569387 -1.722991 7.000000
16.687288 -10.467917 -1.349838 6.000000
12.678026 10.503093 -1.689723 2.000000
15.105591 4.217557 -1.698215 6.000000
17.769508 -2.630311 -1.716996 6.000000
16.788538 -10.617375 -1.350717 6.000000
27.799688 -41.106312 -1.256119 1.000000
12.603889 10.364010 -1.689160 6.000000
15.024524 4.135622 -1.692890 6.000000
17.794491 -2.700695 -1.717185 7.000000
16.756174 -10.678972 -1.340653 6.000000
14.990469 4.067202 -1.698334 6.000000
17.744829 -2.759731 -1.716521 6.000000
16.772074 -10.775749 -1.334591 6.000000
14.985619 4.004174 -1.706990 6.000000
17.763891 -2.832596 -1.716236 6.000000
16.775120 -10.864775 -1.323978 6.000000
11.368999 9.140910 -1.548710 5.000000
14.927528 3.930090 -1.704174 5.000000
17.753979 -2.897781 -1.709956 6.000000
16.840397 -10.994877 -1.318200 6.000000
11.381935 9.082828 -1.558779 5.000000
14.878717 3.858982 -1.702407 6.000000
17.723307 -2.959505 -1.711200 6.000000
16.775743 -11.040573 -1.302218 6.000000
11.530769 9.132624 -1.590149 4.000000
14.896422 3.805358 -1.713691 6.000000
17.732260 -3.027845 -1.709956 6.000000
16.827017 -11.162918 -1.302287 6.000000
11.586515 9.107869 -1.606235 3.000000
14.790154 3.717774 -1.702506 5.000000
17.700596 -3.092432 -1.711200 6.000000
16.865553 -11.277720 -1.294237 6.000000
11.587138 9.039845 -1.617292 3.000000
14.788054 3.659673 -1.711478 6.000000
17.646435 -3.143309 -1.703805 6.000000
16.787422 -11.314735 -1.280772 11.000000
11.679011 9.049378 -1.636358 2.000000
14.766995 3.597075 -1.712876 6.000000
17.629898 -3.207074 -1.703332 6.000000
16.806028 -11.404222 -1.274242 13.000000
11.809212 9.081190 -1.665719 3.000000
14.735432 3.532224 -1.718415 6.000000
17.666672 -3.280703 -1.711200 6.000000
16.871759 -11.539364 -1.271680 9.000000
10.939252 8.342532 -1.555293 5.000000
14.729251 3.470992 -1.718803 6.000000
17.688469 -3.355062 -1.711376 6.000000
17.031242 -11.749066 -1.276370 6.000000
10.890743 8.248563 -1.554160 5.000000
14.687468 3.404372 -1.723122 6.000000
17.666864 -3.418093 -1.704148 6.000000
17.173071 -11.931150 -1.278967 6.000000
10.776649 8.100163 -1.547933 6.000000
14.688984 3.348041 -1.732504 6.000000
17.649044 -3.481802 -1.706817 8.000000
17.203360 -12.045922 -1.273465 6.000000
10.693485 7.976487 -1.545934 6.000000
14.599647 3.268759 -1.723120 6.000000
17.641043 -3.547447 -1.707289 8.000000
17.135349 -12.092139 -1.257008 6.000000
10.617778 7.859610 -1.542499 7.000000
14.576396 3.207495 -1.729536 6.000000
17.613585 -3.609143 -1.702734 8.000000
13.174489 -9.369545 -0.960467 8.000000
10.573171 7.766766 -1.545800 8.000000
14.548332 3.145461 -1.732725 6.000000
17.580107 -3.672676 -1.700848 8.000000
13.133859 -9.409856 -0.954234 18.000000
10.508189 7.659894 -1.543691 7.000000
14.481389 3.072831 -1.733810 6.000000
17.386097 -3.698700 -1.686509 9.000000
13.047075 -9.420237 -0.941976 10.000000
25.168205 -42.523228 -0.422597 15.000000
10.156978 7.347023 -1.499226 34.000000
14.433919 3.007516 -1.729404 6.000000
17.333506 -3.753970 -1.682731 9.000000
13.012990 -9.468379 -0.930741 9.000000
25.024858 -42.619747 -0.379553 21.000000
10.128648 7.272812 -1.506742 34.000000
14.389553 2.943284 -1.738378 5.000000
17.251287 -3.802412 -1.679202 7.000000
13.006508 -9.536766 -0.929947 8.000000
14.345708 2.876972 -1.744682 6.000000
17.017445 -3.819445 -1.663998 8.000000
12.927437 -9.551841 -0.923975 9.000000
14.260264 2.859837 -1.757466 5.000000
16.975159 -3.809954 -1.696640 18.000000
12.880567 -9.520685 -0.943184 9.000000
10.476767 7.522777 -1.585943 7.000000
14.083532 2.880689 -1.739581 6.000000
17.007870 -3.751872 -1.704661 10.000000
12.958706 -9.505195 -0.966053 9.000000
10.464557 7.575076 -1.581620 6.000000
14.077739 2.933301 -1.740182 6.000000
17.078987 -3.701969 -1.719656 9.000000
13.041051 -9.492276 -0.986544 9.000000
24.996716 -42.588840 -0.482674 26.000000
10.453428 7.625566 -1.577276 8.000000
14.037239 2.981147 -1.736578 6.000000
17.027996 -3.625625 -1.725445 6.000000
13.069215 -9.443164 -1.003124 13.000000
25.157637 -42.522301 -0.543280 22.000000
10.450068 7.681956 -1.574115 6.000000
14.025922 3.032511 -1.739083 6.000000
16.971512 -3.548625 -1.733673 6.000000
13.135323 -9.417844 -1.022534 15.000000
10.441157 7.728870 -1.569723 6.000000
14.000170 3.080698 -1.737278 5.000000
16.993557 -3.488276 -1.740723 6.000000
13.156675 -9.360334 -1.038497 6.000000
10.399206 7.762629 -1.556600 7.000000
14.037266 3.145419 -1.738272 6.000000
16.971195 -3.418911 -1.746294 6.000000
17.174618 -12.128833 -1.367035 10.000000
10.408192 7.826060 -1.557414 7.000000
13.991469 3.189058 -1.736578 6.000000
16.881411 -3.333425 -1.738759 9.000000
17.172831 -12.033481 -1.385426 9.000000
10.404047 7.882801 -1.551864 7.000000
14.018372 3.249284 -1.741384 6.000000
16.902084 -3.273189 -1.751784 6.000000
17.055874 -11.858557 -1.394325 9.000000
10.375943 7.921535 -1.542751 7.000000
13.904922 3.279298 -1.723782 6.000000
16.888632 -3.206407 -1.758254 7.000000
17.001928 -11.733224 -1.401046 9.000000
10.384474 7.994235 -1.537183 8.000000
13.960978 3.346581 -1.727156 6.000000
16.826317 -3.130726 -1.756597 6.000000
16.903864 -11.574317 -1.407421 24.000000
10.397794 8.059544 -1.536120 6.000000
13.958264 3.400077 -1.728351 5.000000
16.803125 -3.062735 -1.756005 6.000000
16.792286 -11.407742 -1.416001 19.000000
10.439273 8.153120 -1.539623 5.000000
13.988474 3.464389 -1.733726 6.000000
16.799164 -2.995412 -1.763406 6.000000
16.787458 -11.314759 -1.429841 10.000000
13.971455 3.514572 -1.728100 6.000000
16.741135 -2.921796 -1.759176 7.000000
16.879698 -11.291443 -1.452143 9.000000
11.502358 9.119926 -1.680264 4.000000
13.987631 3.573203 -1.729153 6.000000
16.755421 -2.861047 -1.771559 6.000000
16.820396 -11.162753 -1.457679 39.000000
11.570458 9.243190 -1.687294 5.000000
13.930560 3.615661 -1.723801 6.000000
16.711533 -2.790555 -1.768814 6.000000
16.855745 -11.097441 -1.478453 22.000000
11.599571 9.336299 -1.683357 5.000000
13.917797 3.666848 -1.718778 6.000000
16.701712 -2.726031 -1.769691 6.000000
16.803593 -10.975032 -1.484428 10.000000
11.875652 9.637322 -1.715507 6.000000
13.943213 3.728249 -1.718483 6.000000
16.775593 -2.672002 -1.779417 6.000000
16.734034 -10.842312 -1.488760 90.000000
11.882804 9.708657 -1.713046 6.000000
13.971918 3.793468 -1.723803 6.000000
16.700821 -2.597363 -1.779411 6.000000
16.703360 -10.739841 -1.503599 90.000000
11.925027 9.816259 -1.710663 6.000000
13.939352 3.839537 -1.716392 6.000000
16.655230 -2.527788 -1.782473 6.000000
16.745703 -10.680520 -1.521310 23.000000
11.901589 9.870367 -1.698822 6.000000
13.940109 3.894771 -1.713107 6.000000
16.707478 -2.479065 -1.790156 6.000000
16.662191 -10.549689 -1.524386 96.000000
12.003783 10.029604 -1.704830 6.000000
14.016682 3.974249 -1.716645 5.000000
16.652283 -2.405564 -1.789179 6.000000
16.690836 -10.474201 -1.536988 92.000000
11.986637 10.090111 -1.699335 6.000000
13.992476 4.022852 -1.715475 6.000000
16.660057 -2.344383 -1.797988 6.000000
16.609709 -10.338634 -1.539760 65.000000
27.011255 -39.360458 -1.625316 1.000000
12.037906 10.208887 -1.697962 6.000000
13.959143 4.068719 -1.708060 6.000000
16.653448 -2.281239 -1.799328 6.000000
16.651001 -10.287883 -1.561042 90.000000
27.289421 -39.469776 -1.692449 1.000000
12.039329 10.286194 -1.689492 5.000000
13.934464 4.119641 -1.701821 6.000000
16.523405 -2.201758 -1.787336 6.000000
16.639139 -10.200473 -1.570295 68.000000
12.126798 10.438058 -1.695827 6.000000
13.981113 4.189216 -1.709382 6.000000
16.508642 -10.029521 -1.567741 114.000000
12.202278 10.581132 -1.697542 6.000000
13.976023 4.243576 -1.702898 6.000000
16.429104 -9.898940 -1.570211 90.000000
12.149544 10.613668 -1.681374 4.000000
14.008413 4.309551 -1.703572 6.000000
14.217196 -1.728023 -1.545732 8.000000
16.421555 -9.812532 -1.579487 8.000000
18.352810 -25.748697 -1.258933 34.000000
12.219931 10.754380 -1.682200 6.000000
14.015470 4.370700 -1.706458 6.000000
14.474351 -1.710591 -1.575639 9.000000
16.387630 -9.710931 -1.589528 8.000000
18.427099 -25.662918 -1.296538 39.000000
12.322515 10.925066 -1.693108 6.000000
14.009396 4.425211 -1.702485 6.000000
16.367247 -9.625661 -1.597795 9.000000
18.490942 -25.553621 -1.327520 42.000000
12.346554 11.027466 -1.687355 4.000000
14.064893 4.499502 -1.703386 6.000000
15.375565 -1.700194 -1.677770 8.000000
16.409090 -9.561824 -1.611474 8.000000
18.614508 -25.536224 -1.363135 35.000000
14.048077 4.553656 -1.698231 6.000000
15.322091 -1.637459 -1.673990 8.000000
16.335453 -9.438882 -1.610784 8.000000
18.710081 -25.470690 -1.396447 7.000000
11.731432 10.629952 -1.582940 1.000000
14.116811 4.633182 -1.703327 6.000000
15.302961 -1.576009 -1.676660 8.000000
16.386799 -9.396206 -1.632693 10.000000
11.395744 10.402098 -1.529181 4.000000
14.139932 4.692768 -1.700082 6.000000
15.273720 -1.516443 -1.675547 8.000000
16.403061 -9.325810 -1.640850 9.000000
11.296252 10.387436 -1.507407 5.000000
14.088020 4.738406 -1.696114 6.000000
15.259093 -1.458533 -1.676052 8.000000
16.403032 -9.242634 -1.650530 9.000000
11.346491 10.510645 -1.508340 4.000000
14.174021 4.827991 -1.700746 6.000000
15.308589 -1.406662 -1.683626 6.000000
16.279257 -9.094440 -1.647829 9.000000
23.264608 -30.750168 -1.879115 7.000000
11.239716 10.488542 -1.485704 6.000000
14.106818 4.857368 -1.689331 6.000000
15.610349 -1.373965 -1.721756 6.000000
16.338552 -9.056607 -1.667212 10.000000
23.221340 -30.460306 -1.913500 9.000000
11.361703 10.680550 -1.493259 3.000000
14.146058 4.928947 -1.688238 6.000000
16.086077 -1.356440 -1.770816 9.000000
16.248411 -8.928946 -1.667711 8.000000
23.198769 -30.211380 -1.936263 6.000000
11.278299 10.676550 -1.473511 1.000000
14.159511 4.997465 -1.686916 6.000000
16.233986 -1.309007 -1.792312 6.000000
16.121271 -8.775007 -1.663952 9.000000
14.000742 -18.095253 -1.187037 1.000000
14.198970 5.067198 -1.685721 6.000000
16.283180 -1.250064 -1.800084 6.000000
15.956735 -8.616980 -1.653584 39.000000
14.010742 -17.978163 -1.210481 7.000000
14.161607 5.112457 -1.683499 6.000000
16.222801 -1.191328 -1.792963 6.000000
15.890872 -8.506332 -1.653033 35.000000
14.051044 -17.900650 -1.232456 6.000000
14.148268 5.166333 -1.676168 6.000000
16.207308 -1.124798 -1.793607 6.000000
15.850037 -8.409881 -1.664518 9.000000
14.075491 -17.797104 -1.252703 7.000000
12.935428 12.609939 -1.650381 3.000000
14.174849 5.240623 -1.673786 8.000000
16.221239 -1.066040 -1.794705 6.000000
15.904672 -8.357223 -1.679371 34.000000
14.108710 -17.711685 -1.273936 6.000000
12.957855 12.724761 -1.640007 1.000000
14.162596 5.289543 -1.669059 8.000000
16.189552 -1.001541 -1.799357 6.000000
15.869715 -8.271814 -1.682227 7.000000
14.210182 -17.705521 -1.301081 6.000000
13.116994 12.962235 -1.652315 3.000000
14.212734 5.370544 -1.669334 9.000000
16.203037 -0.942774 -1.800460 6.000000
15.947788 -8.238318 -1.696773 8.000000
14.249071 -17.627567 -1.322816 8.000000
13.141211 13.081713 -1.641823 1.000000
14.179838 5.417590 -1.659748 7.000000
16.180950 -0.887659 -1.800532 6.000000
15.927816 -8.154184 -1.707213 13.000000
14.278210 -17.544294 -1.343882 9.000000
13.202309 13.248473 -1.636349 2.000000
14.168058 5.478365 -1.652881 9.000000
16.169636 -0.819118 -1.798875 6.000000
15.848903 -8.033652 -1.701543 9.000000
14.338088 -17.480339 -1.370912 9.000000
13.235034 13.379031 -1.633234 1.000000
14.166671 5.537601 -1.652390 8.000000
16.167255 -0.759600 -1.801148 6.000000
15.823273 -7.947899 -1.714368 12.000000
14.448980 -17.484449 -1.395246 8.000000
13.332778 13.572271 -1.627715 1.000000
14.073375 5.560681 -1.633186 7.000000
16.160000 -0.699909 -1.800042 6.000000
15.820840 -7.874194 -1.714079 15.000000
14.499404 -17.421267 -1.418061 7.000000
13.398718 13.739768 -1.625034 6.000000
13.939242 5.564014 -1.611915 6.000000
16.117880 -0.636091 -1.795065 6.000000
15.823747 -7.810276 -1.720905 14.000000
14.549371 -17.351562 -1.440526 5.000000
13.480940 13.925834 -1.624151 5.000000
13.797715 5.571837 -1.590242 7.000000
16.110170 -0.576656 -1.793959 6.000000
15.873262 -7.762495 -1.738752 7.000000
14.682727 -17.380814 -1.471337 5.000000
13.667076 14.212119 -1.634919 5.000000
13.627746 5.555831 -1.567571 8.000000
16.086847 -0.522413 -1.794003 6.000000
15.833618 -7.671324 -1.740620 6.000000
14.804284 -17.413441 -1.498059 3.000000
13.744314 14.402720 -1.629773 6.000000
13.514156 5.572893 -1.549326 8.000000
16.044109 -0.456560 -1.789018 6.000000
15.712509 -7.541665 -1.736543 6.000000
14.821093 -17.292065 -1.516677 5.000000
13.754292 14.519353 -1.616173 4.000000
13.361033 5.567134 -1.528991 7.000000
16.020906 -0.394340 -1.786249 6.000000
15.598031 -7.409826 -1.729722 6.000000
15.010704 -17.390068 -1.554024 7.000000
13.802476 14.667335 -1.613389 6.000000
13.283402 5.586556 -1.517133 6.000000
16.105955 -0.342996 -1.801288 6.000000
15.644933 -7.365282 -1.747305 6.000000
15.164733 -17.438881 -1.591709 7.000000
13.959742 14.938595 -1.619902 6.000000
13.239701 5.628103 -1.506983 6.000000
16.087233 -0.283612 -1.799066 6.000000
15.522767 -7.238385 -1.733706 6.000000
15.293413 -17.463373 -1.623233 5.000000
14.109445 15.210166 -1.621871 6.000000
13.269972 5.698486 -1.505151 6.000000
16.048452 -0.221292 -1.794621 6.000000
15.548089 -7.180933 -1.745662 6.000000
18.616158 -21.101034 -1.997298 9.000000
14.044425 15.251814 -1.602610 6.000000
13.327282 5.781043 -1.506356 6.000000
16.009405 -0.162067 -1.790176 6.000000
15.414883 -7.050976 -1.739751 6.000000
18.616007 -20.945612 -2.013612 9.000000
14.059512 15.375560 -1.588499 7.000000
13.402391 5.872082 -1.509524 6.000000
15.994986 -0.103293 -1.788509 6.000000
15.367024 -6.961092 -1.743361 6.000000
18.541254 -20.715425 -2.026958 8.000000
14.185130 15.627567 -1.586925 14.000000
13.458823 5.955700 -1.510541 6.000000
16.069487 -0.042070 -1.799648 6.000000
15.318999 -6.871780 -1.743929 6.000000
18.041218 -20.022743 -1.988670 9.000000
14.080015 15.637440 -1.560017 20.000000
13.576526 6.073074 -1.515983 6.000000
15.900905 0.011101 -1.777953 6.000000
15.288710 -6.790992 -1.746490 6.000000
17.932110 -19.755566 -1.996743 8.000000
14.007078 15.644071 -1.542030 16.000000
13.545324 6.107412 -1.509276 6.000000
15.925602 0.069489 -1.780731 6.000000
15.219560 -6.699937 -1.741911 6.000000
10.377372 -11.352729 -1.164600 26.000000
13.937459 15.681592 -1.518596 23.000000
13.627697 6.204755 -1.513057 6.000000
16.009708 0.128537 -1.790176 6.000000
15.147449 -6.602023 -1.739624 6.000000
10.384311 -11.277042 -1.176880 47.000000
13.814943 15.658956 -1.489510 21.000000
13.649689 6.278155 -1.510217 6.000000
15.929599 0.189065 -1.781286 6.000000
15.135323 -6.527696 -1.744067 6.000000
10.424730 -11.237996 -1.192932 39.000000
13.728354 15.670732 -1.464136 19.000000
13.632051 6.330679 -1.500225 6.000000
15.928800 0.247449 -1.781286 6.000000
15.103433 -6.448392 -1.746353 6.000000
10.459125 -11.204270 -1.208984 21.000000
13.645474 15.691790 -1.443186 21.000000
13.668031 6.408392 -1.498777 6.000000
15.833392 0.304017 -1.770730 6.000000
15.039111 -6.355863 -1.744856 6.000000
10.527201 -11.186831 -1.225142 3.000000
13.526393 15.664948 -1.414589 22.000000
13.744102 6.505614 -1.501683 6.000000
15.837203 0.359396 -1.771285 6.000000
14.960562 -6.258139 -1.741658 6.000000
13.668798 -14.429105 -1.602635 7.000000
13.443715 15.685051 -1.393835 19.000000
13.792474 6.590496 -1.504209 6.000000
15.825078 0.422686 -1.775700 6.000000
14.954994 -6.191504 -1.746930 6.000000
13.691772 -14.342648 -1.623245 8.000000
13.358132 15.701303 -1.365621 24.000000
13.841118 6.676163 -1.498634 6.000000
15.894054 0.477278 -1.775177 6.000000
14.875546 -6.094841 -1.743544 6.000000
13.724658 -14.281972 -1.635442 8.000000
13.281318 15.721883 -1.348939 25.000000
13.888380 6.761817 -1.503703 6.000000
15.846695 0.539533 -1.775719 6.000000
14.914794 -6.047174 -1.759746 6.000000
13.461533 -13.896077 -1.621229 8.000000
13.240685 15.790824 -1.325399 9.000000
13.954010 6.857151 -1.499824 6.000000
15.914643 0.603034 -1.777951 6.000000
14.836126 -5.949051 -1.750579 6.000000
13.502006 -13.840851 -1.637268 8.000000
13.403476 16.098774 -1.325285 6.000000
13.983226 6.935251 -1.494689 6.000000
15.887502 0.660328 -1.775177 6.000000
14.723288 -5.841256 -1.740323 7.000000
13.917469 16.841276 -1.359232 6.000000
14.074137 7.044731 -1.498841 6.000000
15.874738 0.718091 -1.776841 6.000000
14.757627 -5.792367 -1.750262 7.000000
14.652206 -14.801285 -1.803816 8.000000
14.669915 17.878525 -1.414495 6.000000
14.173326 7.159462 -1.503799 6.000000
15.862555 0.778584 -1.770186 6.000000
14.750106 -5.727113 -1.755255 6.000000
14.701949 -14.743062 -1.817921 8.000000
14.879106 18.269613 -1.424602 7.000000
14.182936 7.229685 -1.502013 6.000000
15.854614 0.830905 -1.772404 6.000000
14.602855 -5.608435 -1.746331 6.000000
14.564693 -14.503813 -1.819984 34.000000
15.268412 18.881857 -1.434151 7.000000
14.215055 7.311820 -1.494170 6.000000
15.841845 0.894018 -1.765755 6.000000
14.610061 -5.546924 -1.747394 6.000000
13.263690 -13.111775 -1.667801 14.000000
15.628073 19.472176 -1.448392 7.000000
14.321649 7.433153 -1.496865 6.000000
15.883273 0.951986 -1.770733 6.000000
14.610828 -5.486029 -1.753343 6.000000
13.090042 -12.845598 -1.659396 19.000000
15.865660 19.910179 -1.454553 7.000000
14.383216 7.532154 -1.497602 6.000000
15.820120 1.011951 -1.761330 6.000000
14.569423 -5.409638 -1.754224 6.000000
13.007593 -12.671436 -1.659024 9.000000
16.057629 20.288765 -1.451130 7.000000
14.438108 7.622015 -1.497320 6.000000
15.830935 1.065366 -1.768525 6.000000
14.516757 -5.335374 -1.751211 6.000000
13.062809 -12.641070 -1.676707 5.000000
16.505276 21.012169 -1.470467 6.000000
14.491802 7.724905 -1.494531 6.000000
15.797908 1.124094 -1.756909 6.000000
14.509176 -5.266573 -1.755918 6.000000
14.521321 7.809121 -1.488912 6.000000
15.858105 1.186810 -1.764076 6.000000
14.472599 -5.190492 -1.754503 5.000000
12.888326 -12.286262 -1.676912 5.000000
14.593964 7.917281 -1.490562 6.000000
15.784595 1.239503 -1.753594 6.000000
14.439157 -5.118847 -1.756289 6.000000
12.841820 -12.152399 -1.680621 5.000000
14.661870 8.023814 -1.488729 6.000000
15.829781 1.301445 -1.756326 6.000000
14.457242 -5.065687 -1.761637 7.000000
22.157696 29.065081 -1.857827 9.000000
14.659431 8.092442 -1.479701 6.000000
15.790007 1.359233 -1.752480 6.000000
14.376274 -4.978231 -1.757607 7.000000
22.173887 29.287247 -1.828752 9.000000
14.773954 8.226455 -1.485372 5.000000
15.795124 1.418014 -1.750811 6.000000
14.380602 -4.917973 -1.761191 6.000000
23.838158 31.737907 -1.927434 7.000000
14.627343 8.215197 -1.461847 1.000000
15.854453 1.481938 -1.755165 6.000000
14.331784 -4.842679 -1.761054 6.000000
23.799471 31.906189 -1.898034 10.000000
16.274040 9.211159 -1.619595 5.000000
15.878324 1.545692 -1.758451 6.000000
14.323629 -4.787060 -1.763436 8.000000
6.793382 -6.203210 -0.916605 38.000000
24.141108 32.601032 -1.884673 8.000000
16.411421 9.376100 -1.617060 6.000000
15.823409 1.598913 -1.750198 6.000000
14.318563 -4.721554 -1.765799 6.000000
6.799317 -6.158760 -0.920532 37.000000
24.004866 32.666710 -1.840830 5.000000
16.373117 9.433983 -1.610038 4.000000
15.812802 1.656412 -1.746876 6.000000
14.279045 -4.647810 -1.766682 6.000000
6.817544 -6.129932 -0.928034 38.000000
24.260134 33.281147 -1.819774 1.000000
16.498785 9.587109 -1.612422 1.000000
15.821752 1.715998 -1.745736 6.000000
14.224484 -4.572460 -1.763135 7.000000
6.802007 -6.071023 -0.934138 41.000000
24.218088 33.443687 -1.781169 1.000000
16.503675 9.671037 -1.596181 4.000000
15.791255 1.774064 -1.734690 6.000000
14.207433 -4.509593 -1.764236 6.000000
6.820123 -6.042428 -0.938399 39.000000
24.830856 34.555794 -1.798338 4.000000
16.591890 9.796788 -1.604460 6.000000
15.863682 1.835491 -1.748946 6.000000
14.150660 -4.439973 -1.760598 9.000000
6.718884 -5.915161 -0.931383 53.000000
16.692587 9.942883 -1.597391 6.000000
15.871898 1.901038 -1.742210 6.000000
14.178326 -4.383502 -1.764367 7.000000
6.719609 -5.868088 -0.934506 39.000000
25.387619 35.869495 -1.757326 3.000000
16.716022 10.032091 -1.589107 6.000000
15.830934 1.952209 -1.735634 6.000000
14.168454 -4.329027 -1.766587 8.000000
6.764705 -5.868042 -0.945968 29.000000
25.455734 36.233288 -1.724342 3.000000
16.863432 10.204813 -1.592814 6.000000
15.818338 2.015152 -1.732310 6.000000
14.112335 -4.255391 -1.762852 8.000000
6.966387 -5.998387 -0.979202 4.000000
11.255219 6.872911 -1.056428 8.000000
15.825933 2.075094 -1.731144 6.000000
14.128852 -4.195888 -1.773142 7.000000
10.875896 -9.288892 -1.536098 6.000000
11.216009 6.900135 -1.045638 4.000000
15.834043 2.129591 -1.729973 6.000000
14.090291 -4.133640 -1.766573 5.000000
10.958681 -9.296926 -1.556114 2.000000
9.046555 13.172667 -0.566410 207.000000
11.032143 6.848218 -1.021930 6.000000
15.790815 2.191157 -1.723423 6.000000
14.062963 -4.064384 -1.768863 5.000000
6.917907 -5.821292 -0.986988 76.000000
8.958683 13.142790 -0.544321 142.000000
10.942501 6.842946 -1.004391 1.000000
15.789275 2.244335 -1.715610 6.000000
14.086314 -4.017909 -1.772619 7.000000
6.910080 -5.775675 -0.987906 34.000000
8.874372 13.122188 -0.525510 6.000000
14.557249 9.177837 -1.327174 1.000000
15.800323 2.305018 -1.720536 6.000000
14.052270 -3.952561 -1.774256 6.000000
7.009062 -5.810774 -1.006755 8.000000
8.851096 13.186729 -0.510205 4.000000
14.337761 9.116580 -1.295431 1.000000
15.806581 2.370771 -1.713774 6.000000
14.024973 -3.884198 -1.768826 7.000000
7.087189 -5.831847 -1.023008 5.000000
8.821928 13.242939 -0.494505 5.000000
14.342786 9.193771 -1.286958 1.000000
15.847092 2.439101 -1.713508 6.000000
14.066646 -3.840284 -1.782626 8.000000
8.735080 13.217306 -0.472975 5.000000
14.132854 9.125468 -1.259019 5.000000
15.829388 2.490139 -1.709649 6.000000
14.242602 -3.834950 -1.805830 9.000000
8.689200 13.248189 -0.453619 4.000000
14.034533 9.142017 -1.235882 1.000000
15.853918 2.559256 -1.710559 6.000000
14.459064 -3.831050 -1.833960 9.000000
7.110067 -5.720728 -1.041364 16.000000
8.572307 13.169982 -0.430700 5.000000
10.752487 7.055007 -0.944406 6.000000
15.904507 2.621567 -1.714101 6.000000
14.640095 -3.824375 -1.857898 9.000000
8.518798 13.193287 -0.413981 4.000000
10.692865 7.074769 -0.928051 8.000000
15.825632 2.676705 -1.698295 6.000000
14.692834 -3.775212 -1.870716 23.000000
7.115631 -5.639779 -1.048941 21.000000
8.459438 13.202257 -0.396902 1.000000
10.690634 7.124376 -0.920887 21.000000
15.909764 2.745234 -1.708291 6.000000
14.767489 -3.742235 -1.881330 9.000000
12.295661 -9.672257 -1.823913 10.000000
10.627719 7.138839 -0.908732 16.000000
15.964134 2.814908 -1.706643 6.000000
14.800371 -3.690147 -1.889106 9.000000
12.323001 -9.627784 -1.831522 7.000000
10.519661 7.122346 -0.888349 33.000000
15.949112 2.872572 -1.703291 6.000000
14.770425 -3.625231 -1.883575 7.000000
12.349090 -9.575483 -1.843996 7.000000
10.473394 7.147144 -0.877753 22.000000
15.963584 2.938507 -1.694573 6.000000
14.763680 -3.566256 -1.886419 7.000000
12.244965 -9.416281 -1.830990 7.000000
10.510667 7.226483 -0.871802 21.000000
15.972547 3.000724 -1.693813 6.000000
14.776943 -3.509465 -1.889070 7.000000
12.223809 -9.335670 -1.834077 7.000000
15.942194 3.055557 -1.688907 6.000000
14.798728 -3.457388 -1.895609 9.000000
12.144887 -9.198442 -1.832864 7.000000
12.929125 9.029551 -1.050211 1.000000
16.043728 3.136024 -1.695102 6.000000
14.796793 -3.399792 -1.893752 7.000000
12.178264 -9.160329 -1.844100 7.000000
8.058513 13.290475 -0.265872 1.000000
12.921020 9.094528 -1.041174 1.000000
16.047626 3.197895 -1.688081 6.000000
14.765537 -3.332974 -1.893466 9.000000
12.071512 -9.010944 -1.833593 7.000000
8.133356 13.520138 -0.250615 1.000000
12.771754 9.056299 -1.020710 1.000000
16.030931 3.258616 -1.681858 6.000000
14.748271 -3.272314 -1.892379 9.000000
12.051326 -8.927281 -1.838828 7.000000
7.942801 13.308325 -0.224529 1.000000
12.605227 9.007828 -0.996456 3.000000
16.136063 3.341618 -1.691255 6.000000
14.749825 -3.215982 -1.896406 7.000000
12.060744 -8.862739 -1.843014 6.000000
12.653671 9.112693 -0.991988 2.000000
16.095081 3.394699 -1.682450 6.000000
14.805399 -3.168597 -1.904658 8.000000
11.967815 -8.727081 -1.834412 6.000000
12.491781 9.065821 -0.965668 1.000000
16.087679 3.454774 -1.680087 6.000000
14.773220 -3.105128 -1.899041 6.000000
11.922048 -8.626953 -1.835578 6.000000
12.368075 9.042122 -0.945117 54.000000
16.182964 3.537334 -1.679696 6.000000
14.798959 -3.051251 -1.906188 9.000000
11.892356 -8.539232 -1.833961 7.000000
12.271351 9.040609 -0.924231 8.000000
16.276377 3.623291 -1.687883 6.000000
14.795783 -2.994104 -1.901676 9.000000
11.813444 -8.417119 -1.827309 6.000000
12.230634 9.079959 -0.912991 2.000000
16.336910 3.699663 -1.683742 6.000000
14.864393 -2.951318 -1.914465 7.000000
11.782155 -8.329887 -1.830527 6.000000
7.519568 13.220710 -0.114149 1.000000
12.131794 9.072439 -0.889398 1.000000
16.348625 3.765362 -1.674531 6.000000
14.807771 -2.881021 -1.903059 8.000000
