VERSION .7
FIELDS x y z intensity
SIZE 4 4 4 4
TYPE F F F F
COUNT 1 1 1 1
WIDTH 1213
HEIGHT 1
VIEWPOINT 0 0 0 1 0 0 0
POINTS 1213
DATA ascii
28.869169 16.573700 -1.051945 4.000000
36.341892 3.800449 -1.812679 6.000000
40.395302 23.378675 -1.442288 7.000000
36.547863 3.944554 -1.817164 6.000000
28.190315 -9.023790 -1.815560 7.000000
20.059193 -17.790611 -1.607008 8.000000
40.150284 23.433739 -1.412232 7.000000
35.908123 4.008705 -1.779753 1.000000
28.416069 -8.970458 -1.838207 7.000000
20.011284 -17.623707 -1.626258 6.000000
13.417757 18.624725 -0.124198 6.000000
39.991329 23.537893 -1.393453 8.000000
28.387260 -8.857955 -1.855273 7.000000
20.187382 -17.647839 -1.658789 8.000000
39.746796 23.590538 -1.347566 6.000000
37.389011 4.464988 -1.848208 2.000000
28.317656 -8.711648 -1.848424 7.000000
20.168131 -17.501013 -1.670639 9.000000
41.094135 57.910645 -0.223084 24.000000
39.497898 23.639006 -1.309894 6.000000
37.409012 4.593249 -1.843346 6.000000
28.199259 -8.567590 -1.849060 9.000000
20.223467 -17.419504 -1.693308 9.000000
42.358414 60.158268 -0.166936 24.000000
39.347439 23.735893 -1.275537 7.000000
37.382336 4.729116 -1.836281 4.000000
28.344570 -8.498386 -1.866904 7.000000
20.290066 -17.347734 -1.712262 28.000000
42.059452 60.178825 -0.089699 27.000000
39.085667 23.773802 -1.245896 5.000000
37.261070 4.852595 -1.824612 9.000000
28.245705 -8.356036 -1.868685 7.000000
20.330000 -17.253298 -1.724303 11.000000
41.747459 60.201145 -0.012786 27.000000
39.122566 23.993128 -1.217804 1.000000
37.084953 4.967954 -1.810322 9.000000
28.470015 -8.298252 -1.891700 8.000000
20.411020 -17.193764 -1.749207 9.000000
41.749672 60.655392 0.051407 10.000000
36.868015 5.083071 -1.794160 9.000000
28.415222 -8.180147 -1.896610 6.000000
20.518890 -17.156456 -1.771804 6.000000
35.441906 51.897499 0.120654 6.000000
36.538532 5.174181 -1.759670 8.000000
28.367579 -8.053960 -1.901783 7.000000
20.691763 -17.172533 -1.804854 4.000000
34.689896 51.217503 0.194339 160.000000
36.094578 5.246330 -1.732824 8.000000
28.480728 -7.962680 -1.917576 6.000000
20.654358 -17.020084 -1.815168 1.000000
34.768726 51.682850 0.250047 22.000000
44.377258 28.108372 -1.247116 1.000000
35.546253 5.299739 -1.713708 8.000000
28.434187 -7.848100 -1.923020 6.000000
20.908426 -17.101164 -1.855657 1.000000
34.728786 52.034264 0.316643 8.000000
44.232533 28.244392 -1.209291 8.000000
35.552162 5.433895 -1.696068 5.000000
28.405312 -7.728200 -1.913979 6.000000
21.187075 -17.199858 -1.889137 6.000000
44.289131 28.509588 -1.176896 8.000000
35.650723 5.582754 -1.695423 6.000000
28.564249 -7.653768 -1.933061 7.000000
27.028215 -21.777884 -2.427176 6.000000
43.951145 28.509499 -1.124813 3.000000
35.507023 5.693660 -1.683280 2.000000
28.576984 -7.545029 -1.942399 7.000000
27.036077 -21.621273 -2.451109 8.000000
36.679329 56.244522 0.550828 2.000000
43.800980 28.640728 -1.087097 1.000000
35.693207 5.857781 -1.686786 7.000000
28.584473 -7.435043 -1.951398 6.000000
27.008327 -21.437254 -2.465648 8.000000
36.396564 56.260521 0.619850 7.000000
39.781239 26.220934 -0.956433 10.000000
35.863888 6.020863 -1.689523 7.000000
26.905155 -21.195089 -2.473156 9.000000
36.267117 56.491837 0.691307 13.000000
39.519279 26.246603 -0.919199 33.000000
35.606159 6.111859 -1.659469 9.000000
26.847376 -20.990566 -2.490654 8.000000
36.020931 56.541534 0.760585 8.000000
39.460598 26.416569 -0.895207 10.000000
35.372261 6.205261 -1.643335 9.000000
26.710014 -20.725880 -2.494576 9.000000
35.898399 56.807602 0.844501 25.000000
42.522026 28.692270 -0.913302 24.000000
35.182674 6.305008 -1.623088 9.000000
21.947851 -5.366545 -1.512603 6.000000
26.638592 -20.514479 -2.498568 9.000000
42.330029 28.789061 -0.893563 26.000000
30.621672 5.592510 -1.408078 4.000000
21.642145 -5.207806 -1.494111 8.000000
26.632980 -20.355085 -2.514559 9.000000
42.048569 28.812820 -0.836345 31.000000
26.423964 -20.042347 -2.511158 9.000000
39.204700 63.527409 1.172708 28.000000
41.840427 28.896122 -0.789921 29.000000
27.739075 -6.455085 -1.921614 10.000000
26.277119 -19.779667 -2.507617 9.000000
38.909058 63.543591 1.235532 228.000000
41.816631 29.106632 -0.764797 23.000000
36.723408 7.125005 -1.659444 9.000000
27.689278 -6.336605 -1.921523 74.000000
26.276136 -19.628466 -2.523673 9.000000
38.649021 63.641514 1.338667 225.000000
41.727585 29.261406 -0.720547 10.000000
36.845181 7.288859 -1.639871 9.000000
27.722050 -6.237267 -1.922198 25.000000
26.193949 -19.417900 -2.537551 10.000000
38.485355 63.873497 1.405811 10.000000
41.404072 29.261505 -0.681406 5.000000
37.210236 7.502900 -1.650694 9.000000
27.671333 -6.119388 -1.922082 121.000000
19.730759 -14.514901 -1.923465 31.000000
35.996532 60.217350 1.396063 1.000000
41.056656 29.242203 -0.642252 4.000000
37.349419 7.673528 -1.644770 8.000000
27.653923 -6.009309 -1.929254 113.000000
19.831593 -14.477358 -1.936733 20.000000
35.764622 60.330391 1.469111 1.000000
40.678459 29.187397 -0.602967 11.000000
35.981606 7.530058 -1.579311 9.000000
27.621767 -5.896386 -1.930442 15.000000
19.866999 -14.391880 -1.956569 26.000000
35.560478 60.466202 1.555128 1.000000
40.502827 29.286850 -0.549603 37.000000
35.974110 7.666222 -1.560911 3.000000
27.497076 -5.759466 -1.930021 34.000000
40.278332 29.349934 -0.513215 36.000000
35.926773 7.793901 -1.547231 8.000000
27.611164 -5.677803 -1.931612 28.000000
40.083340 29.422606 -0.459962 37.000000
22.595110 -4.560078 -1.583563 13.000000
19.720213 -13.957523 -1.969323 8.000000
39.820953 29.433702 -0.423496 40.000000
20.918612 -4.141997 -1.464993 5.000000
19.793209 -13.895423 -1.984017 8.000000
39.635704 29.532784 -0.388218 33.000000
34.773872 7.945119 -1.463833 9.000000
20.747326 -4.029114 -1.455659 9.000000
39.503597 29.660139 -0.319009 25.000000
24.021132 -4.573586 -1.675591 9.000000
20.642647 -14.267011 -2.089490 26.000000
39.389275 29.779070 -0.275788 10.000000
23.978601 -4.474480 -1.675746 125.000000
19.790161 -13.570909 -2.006586 32.000000
20.683367 -14.072238 -2.105098 38.000000
39.201900 29.853035 -0.180602 29.000000
20.718136 -14.095894 -2.082212 36.000000
39.410751 29.784496 -0.189682 10.000000
23.996435 -4.477808 -1.629912 148.000000
20.675499 -14.188634 -2.057196 36.000000
39.543598 29.657810 -0.207051 23.000000
23.935270 -4.565897 -1.609903 10.000000
19.834047 -13.718388 -1.953040 29.000000
39.658787 29.528461 -0.241633 32.000000
34.784897 7.941251 -1.339501 9.000000
20.779926 -4.042973 -1.387527 9.000000
19.723694 -13.749207 -1.926005 8.000000
38.717171 67.412880 2.157897 1.000000
39.903366 29.483849 -0.268442 44.000000
22.571089 -4.477384 -1.504180 4.000000
19.821087 -13.925325 -1.923468 8.000000
40.089489 29.416351 -0.295072 29.000000
22.596016 -4.560260 -1.494720 10.000000
19.841270 -14.038007 -1.908591 8.000000
40.323284 29.350376 -0.322076 29.000000
36.173660 7.840851 -1.396044 5.000000
27.783335 -5.723316 -1.819478 39.000000
19.729296 -14.077967 -1.881961 8.000000
40.545815 29.307159 -0.358004 34.000000
27.621872 -5.790638 -1.805271 59.000000
19.922157 -14.315522 -1.891953 8.000000
40.793076 29.237291 -0.376668 11.000000
37.188248 7.775804 -1.446243 7.000000
27.842690 -5.953709 -1.816261 17.000000
19.898418 -14.419937 -1.869296 34.000000
41.253170 29.349625 -0.415316 11.000000
28.265621 -6.152567 -1.825032 17.000000
19.778553 -14.443931 -1.837203 28.000000
41.501114 29.319227 -0.452307 9.000000
29.039577 -6.421968 -1.871157 30.000000
19.766668 -14.546636 -1.823810 22.000000
38.665539 63.643677 1.572893 79.000000
41.761669 29.252699 -0.471663 11.000000
29.016794 -6.528575 -1.855585 37.000000
26.415154 -19.589027 -2.420769 9.000000
38.906570 63.539532 1.495612 158.000000
41.809883 29.069448 -0.506613 17.000000
26.361174 -19.699160 -2.387777 10.000000
39.271305 63.610489 1.422345 6.000000
41.856369 28.896345 -0.541524 31.000000
26.465418 -19.928642 -2.380570 9.000000
42.095482 28.812588 -0.578734 30.000000
21.637943 -5.130946 -1.367924 7.000000
26.528601 -20.129005 -2.369506 9.000000
35.569168 56.702110 1.156669 1.000000
42.331223 28.768269 -0.598529 29.000000
30.503160 5.565365 -1.201997 4.000000
21.684811 -5.218073 -1.356344 7.000000
26.732517 -20.423771 -2.370152 13.000000
35.807575 56.641983 1.087791 18.000000
42.592678 28.729124 -0.636676 34.000000
22.009977 -5.381736 -1.373938 6.000000
26.734924 -20.596098 -2.348081 14.000000
35.849869 56.273018 1.013214 18.000000
39.527008 26.451035 -0.622607 15.000000
27.011560 -20.967421 -2.349128 14.000000
36.283195 56.495193 0.972717 7.000000
39.570194 26.250574 -0.638201 31.000000
37.220413 6.368888 -1.470447 24.000000
27.065805 -21.168955 -2.330452 14.000000
36.391068 56.230507 0.900187 9.000000
39.748600 26.179520 -0.664600 6.000000
37.277748 6.238155 -1.478406 8.000000
29.160130 -7.470776 -1.788384 6.000000
27.117910 -21.355024 -2.322868 30.000000
43.798164 28.627975 -0.767170 3.000000
37.482277 6.131242 -1.498894 9.000000
30.021980 -7.808950 -1.832117 8.000000
27.178110 -21.579748 -2.305006 25.000000
34.459026 52.418972 0.711691 1.000000
43.977840 28.515913 -0.805082 1.000000
38.646645 6.190189 -1.551469 7.000000
29.839035 -7.878242 -1.817298 7.000000
27.131031 -21.689447 -2.282745 23.000000
34.767246 52.467865 0.659146 5.000000
44.333858 28.516497 -0.846490 13.000000
36.494015 5.695235 -1.470579 36.000000
30.002020 -8.044630 -1.818212 7.000000
27.115143 -21.847925 -2.257932 21.000000
34.739548 52.030716 0.589652 10.000000
44.319695 28.278276 -0.871769 28.000000
38.549271 5.871328 -1.559337 6.000000
29.944046 -8.146842 -1.805627 7.000000
21.391796 -17.366051 -1.767310 2.000000
34.603737 51.418209 0.519236 22.000000
44.434505 28.133766 -0.908818 28.000000
37.797390 5.628627 -1.534840 9.000000
29.842415 -8.236784 -1.790464 7.000000
20.997238 -17.173803 -1.711381 3.000000
34.685036 51.152626 0.463837 169.000000
44.723049 28.087358 -0.949488 25.000000
39.426331 5.709520 -1.607008 9.000000
30.014517 -8.402796 -1.791709 8.000000
20.896557 -17.219667 -1.689329 2.000000
34.976452 51.196751 0.400408 22.000000
38.244614 5.395352 -1.564777 10.000000
29.947533 -8.513829 -1.778833 7.000000
20.469656 -16.994236 -1.636536 3.000000
41.793678 60.696636 0.398726 25.000000
38.203548 5.253616 -1.569078 8.000000
29.938622 -8.618701 -1.774536 7.000000
20.494476 -17.129963 -1.624335 6.000000
41.757504 60.193192 0.345228 9.000000
38.496071 5.143311 -1.573480 10.000000
29.943296 -8.750360 -1.755032 8.000000
20.419203 -17.206749 -1.595766 10.000000
42.164272 60.306385 0.256860 27.000000
38.801182 5.039393 -1.605706 8.000000
29.885979 -8.841284 -1.742468 7.000000
20.337606 -17.265860 -1.580307 19.000000
39.747810 23.967953 -0.964151 1.000000
39.225521 4.955336 -1.608717 8.000000
29.997414 -8.993949 -1.739910 8.000000
20.258718 -17.314816 -1.550626 18.000000
41.104385 57.903671 0.123936 26.000000
39.603275 23.683300 -0.982705 1.000000
39.605122 4.855881 -1.630520 9.000000
29.960049 -9.102559 -1.728703 7.000000
20.211069 -17.402681 -1.533168 10.000000
29.890446 -9.212636 -1.715855 7.000000
20.171494 -17.503929 -1.511871 9.000000
13.435821 18.642937 -0.004011 7.000000
40.304909 23.712990 -1.053038 1.000000
35.733250 4.115519 -1.482413 108.000000
29.865070 -9.313371 -1.705209 7.000000
20.168325 -17.631180 -1.493016 7.000000
40.326466 23.527134 -1.067647 1.000000
35.753315 3.985104 -1.476340 33.000000
29.922318 -9.451697 -1.688473 8.000000
20.048145 -17.656170 -1.470192 5.000000
40.545734 23.456291 -1.112068 4.000000
35.787029 3.856120 -1.489724 1.000000
29.781191 -9.533034 -1.682563 7.000000
20.010393 -17.753571 -1.448771 6.000000
40.066879 54.365257 -0.200380 9.000000
28.746576 16.489981 -0.798359 7.000000
35.662052 3.710479 -1.477677 1.000000
20.112471 -17.963684 -1.436866 1.000000
35.779018 3.590142 -1.500829 1.000000
26.988569 -8.857734 -1.508527 6.000000
23.050053 -20.739796 -1.630443 7.000000
39.505096 52.807552 -0.333802 1.000000
41.230579 23.260689 -1.214823 7.000000
35.727299 3.452735 -1.498118 5.000000
23.171076 -21.017616 -1.617584 4.000000
39.632019 52.574371 -0.379209 1.000000
41.328453 23.116629 -1.223472 5.000000
35.998634 3.345829 -1.502650 2.000000
37.857708 -34.580956 -2.597442 4.000000
31.447378 17.424393 -0.966553 8.000000
35.681465 3.184486 -1.507704 1.000000
22.327568 -7.609622 -1.215591 10.000000
37.584717 -34.585144 -2.560580 27.000000
38.706871 50.626484 -0.500529 13.000000
31.377520 17.249939 -0.981405 9.000000
35.732716 3.057092 -1.509386 1.000000
21.943808 -7.560143 -1.187933 10.000000
37.427162 -34.670067 -2.521959 25.000000
38.637814 50.117916 -0.552259 13.000000
31.343832 17.082117 -0.984621 10.000000
35.903275 2.939169 -1.509827 6.000000
21.921055 -7.642300 -1.180085 7.000000
37.176754 -34.716438 -2.452164 29.000000
38.417759 49.510025 -0.601580 17.000000
31.379393 16.952621 -1.002469 8.000000
35.684441 2.789627 -1.506443 35.000000
22.124039 -7.804127 -1.184334 6.000000
36.993526 -34.775703 -2.412144 33.000000
38.273735 48.917713 -0.672136 21.000000
31.481808 16.866251 -1.028808 8.000000
35.649590 2.655478 -1.504550 79.000000
22.142704 -7.902085 -1.178648 40.000000
36.741280 -34.805286 -2.368982 34.000000
38.007542 48.229649 -0.718094 6.000000
31.644455 16.804407 -1.050880 8.000000
22.123564 -7.986789 -1.166833 29.000000
36.553520 -34.882515 -2.320916 13.000000
37.919392 47.756695 -0.766340 1.000000
50.284523 26.467175 -1.696444 9.000000
36.634792 2.458970 -1.551747 7.000000
22.066378 -8.057684 -1.157147 29.000000
36.394749 -34.986763 -2.265985 32.000000
50.562065 26.377052 -1.732422 14.000000
21.971489 -8.114425 -1.145527 64.000000
36.188732 -35.044834 -2.217092 34.000000
47.931828 24.781853 -1.667457 1.000000
21.970230 -8.205592 -1.134713 52.000000
35.978897 -35.098080 -2.176946 32.000000
37.430435 46.107445 -0.912206 14.000000
48.119392 24.655739 -1.699165 1.000000
26.294973 1.474721 -1.117632 6.000000
22.033821 -8.321492 -1.131324 21.000000
35.846817 -35.214272 -2.132447 28.000000
37.312042 45.667660 -0.957295 21.000000
26.070530 1.366299 -1.112437 12.000000
22.185871 -8.471961 -1.124101 7.000000
35.642353 -35.246429 -2.083404 24.000000
37.224449 45.221153 -1.001917 21.000000
47.025013 23.671690 -1.718883 3.000000
25.945192 1.273471 -1.106902 32.000000
22.234062 -8.583869 -1.123960 8.000000
35.457321 -35.321434 -2.045142 26.000000
37.065155 44.676922 -1.053814 20.000000
47.343182 23.614758 -1.755069 8.000000
25.930136 1.168411 -1.106051 36.000000
22.277620 -8.694641 -1.111033 7.000000
35.228607 -35.376484 -1.987758 31.000000
36.815247 44.077419 -1.082654 14.000000
47.728741 23.589014 -1.794053 5.000000
25.858807 1.079284 -1.107375 95.000000
22.269014 -8.785470 -1.108016 6.000000
35.101524 -35.483429 -1.952317 23.000000
36.772179 43.668365 -1.136030 20.000000
48.186520 23.595905 -1.836123 4.000000
25.847954 0.974907 -1.106734 54.000000
22.255579 -8.874574 -1.100577 7.000000
34.878929 -35.530251 -1.895293 14.000000
15.784700 18.625854 -0.507153 9.000000
48.056011 23.314020 -1.855881 6.000000
25.851046 0.889187 -1.106734 33.000000
22.288294 -8.982438 -1.091207 8.000000
34.709503 -35.592999 -1.857733 19.000000
15.849319 18.563730 -0.528350 5.000000
47.937584 23.039896 -1.875917 1.000000
25.834242 0.784794 -1.110390 34.000000
22.366598 -9.109429 -1.088220 6.000000
24.586321 -25.415457 -1.290466 25.000000
25.831562 0.689958 -1.119195 31.000000
22.389011 -9.214374 -1.078244 6.000000
24.446148 -25.447718 -1.263096 39.000000
41.301849 19.479218 -1.658494 1.000000
25.844191 0.600026 -1.110604 35.000000
22.452467 -9.336865 -1.070184 6.000000
24.363960 -25.548939 -1.226663 39.000000
41.248005 19.286873 -1.669671 1.000000
25.851210 0.505396 -1.110819 36.000000
22.610567 -9.490680 -1.070638 6.000000
24.293575 -25.644869 -1.196531 23.000000
35.965714 40.924507 -1.379099 8.000000
41.207329 19.075382 -1.696792 1.000000
25.857885 0.410722 -1.111034 38.000000
22.568203 -9.579634 -1.057583 6.000000
33.762310 -35.915501 -1.626610 26.000000
35.832699 40.473022 -1.434388 18.000000
37.347721 17.122780 -1.549632 9.000000
25.899176 0.316434 -1.112750 47.000000
33.568935 -35.947929 -1.580061 26.000000
35.810287 40.150238 -1.474573 18.000000
37.217907 16.898458 -1.577387 9.000000
25.914755 0.221631 -1.122441 27.000000
42.648792 -18.473457 -1.980503 6.000000
33.421707 -36.079529 -1.545566 30.000000
35.729095 39.778805 -1.502861 29.000000
37.142639 16.700356 -1.578711 9.000000
25.980726 0.126967 -1.116184 19.000000
42.567924 -18.615166 -1.922892 6.000000
32.498917 -35.342308 -1.450158 25.000000
35.829929 39.625954 -1.538893 18.000000
36.991699 16.485239 -1.591200 14.000000
26.085917 0.031870 -1.120691 9.000000
42.767754 -18.880661 -1.934884 6.000000
32.782848 -35.876640 -1.433891 32.000000
35.873039 39.382511 -1.581062 18.000000
37.087929 16.365458 -1.606921 9.000000
26.200577 -0.054874 -1.130200 5.000000
32.792988 -36.152950 -1.397490 37.000000
35.292725 38.461308 -1.613095 17.000000
37.219608 16.260847 -1.645535 8.000000
32.644188 -36.255043 -1.362716 23.000000
35.144478 38.032398 -1.636429 17.000000
25.402702 10.987468 -1.126143 1.000000
32.498058 -36.334335 -1.310551 43.000000
35.081562 37.686249 -1.681030 17.000000
35.020176 37.344910 -1.716245 34.000000
38.598392 -0.646783 -1.671978 5.000000
35.152710 37.224972 -1.761093 16.000000
17.274454 7.247325 -0.794977 6.000000
38.266136 -0.781517 -1.657699 1.000000
35.032978 36.826843 -1.792731 16.000000
17.272833 7.172307 -0.803498 1.000000
38.852291 -0.935960 -1.683228 4.000000
19.182816 -9.059484 -0.811271 19.000000
34.997219 36.520271 -1.828237 16.000000
24.862324 10.217065 -1.164197 1.000000
19.172415 -9.140665 -0.801105 23.000000
34.904549 36.169979 -1.869498 16.000000
24.644161 10.021991 -1.175514 1.000000
38.938660 -1.223697 -1.700938 4.000000
22.880547 -11.011663 -0.944412 19.000000
33.473095 -39.108952 -1.123248 3.000000
34.844185 35.843578 -1.902901 16.000000
24.819365 9.987386 -1.191474 1.000000
38.015354 -1.334169 -1.660808 1.000000
22.907278 -11.118237 -0.933682 30.000000
34.656281 35.389828 -1.920174 15.000000
24.586449 9.789108 -1.183191 9.000000
38.535194 -1.493844 -1.663516 7.000000
33.315865 -39.507847 -1.019375 7.000000
34.530006 35.027760 -1.958318 24.000000
24.645882 9.718210 -1.203026 5.000000
38.525036 -1.621413 -1.663301 7.000000
33.471474 -39.946354 -0.982475 11.000000
34.413048 34.642044 -1.986808 15.000000
24.712421 9.630002 -1.209016 4.000000
38.687881 -1.783872 -1.670627 7.000000
33.771511 -40.634670 -0.949938 3.000000
34.344193 34.320225 -2.017999 17.000000
24.728315 9.531947 -1.221982 5.000000
38.426922 -1.913006 -1.652923 6.000000
33.954639 -41.146358 -0.903241 5.000000
34.284073 34.009918 -2.049345 15.000000
24.874289 9.483646 -1.246094 5.000000
39.082500 -2.089269 -1.695128 3.000000
18.378981 -9.344364 -0.701984 10.000000
33.995773 -41.475613 -0.879901 7.000000
34.200768 33.679478 -2.078938 15.000000
24.908472 9.392261 -1.255387 4.000000
36.740582 -2.099148 -1.593874 8.000000
18.233778 -9.354803 -0.687001 29.000000
34.182781 -42.046906 -0.832343 13.000000
34.052540 33.300171 -2.104493 14.000000
25.213524 9.401879 -1.283138 2.000000
36.773586 -2.223401 -1.589175 9.000000
18.234045 -9.431453 -0.677424 8.000000
33.899639 32.931442 -2.137874 14.000000
36.790112 -2.359767 -1.590253 9.000000
33.897137 32.665554 -2.170596 17.000000
25.951883 9.461105 -1.336477 1.000000
36.979694 -2.521023 -1.598872 9.000000
24.381985 -12.849724 -0.885393 6.000000
33.838406 32.370598 -2.200177 17.000000
25.832130 9.320516 -1.343124 1.000000
37.020771 -2.653682 -1.594549 9.000000
17.009066 -9.036266 -0.608647 10.000000
33.718334 32.031075 -2.217628 22.000000
26.015743 9.279141 -1.370224 23.000000
37.453568 -2.822722 -1.626760 9.000000
35.316998 -45.041435 -0.629374 8.000000
33.608814 31.693502 -2.243177 14.000000
26.551617 9.350300 -1.406310 1.000000
37.785816 -3.000353 -1.635073 9.000000
33.551960 31.408356 -2.271886 31.000000
26.618023 9.264168 -1.422814 1.000000
38.119167 -3.154061 -1.649941 9.000000
33.745567 31.358316 -2.325559 31.000000
26.902609 9.263312 -1.456291 1.000000
38.276272 -3.308354 -1.663973 10.000000
23.866558 -13.126176 -0.808405 7.000000
33.851429 31.226263 -2.365246 32.000000
27.591532 9.376805 -1.501733 1.000000
38.443283 -3.464790 -1.665025 9.000000
23.582453 -13.093497 -0.786420 8.000000
34.043373 31.184076 -2.411433 25.000000
27.385326 9.205540 -1.498952 1.000000
38.325882 -3.595869 -1.660500 8.000000
23.526175 -13.164505 -0.771868 29.000000
36.630260 -48.469044 -0.381732 9.000000
34.222679 31.118412 -2.448421 30.000000
27.729612 9.197545 -1.525989 4.000000
38.491722 -3.753799 -1.661507 9.000000
18.651134 -10.526536 -0.598221 6.000000
34.442390 31.088345 -2.496576 22.000000
18.631922 -10.601617 -0.587555 8.000000
31.403715 -42.177387 -0.238622 8.000000
34.654530 31.050087 -2.552557 13.000000
29.903315 -17.160461 -0.932930 23.000000
31.180708 -42.199890 -0.183154 23.000000
35.123135 11.236246 -1.984258 3.000000
29.827658 -17.262680 -0.914480 21.000000
12.125029 10.712237 -0.913059 1.000000
34.592113 10.926768 -1.964683 1.000000
29.794949 -17.389841 -0.891324 28.000000
38.952145 -53.514759 -0.127076 1.000000
11.889752 10.427032 -0.903534 1.000000
34.512123 10.762546 -1.970543 1.000000
31.758059 -3.685767 -1.356761 43.000000
27.771429 -16.345568 -0.815693 32.000000
38.940250 -53.912613 -0.046429 1.000000
11.771139 10.250543 -0.905462 3.000000
33.691803 10.371388 -1.933864 1.000000
31.615139 -3.786667 -1.356807 34.000000
20.157221 -11.958967 -0.580994 23.000000
11.755040 10.161008 -0.917680 5.000000
33.852478 10.285170 -1.965685 1.000000
31.586409 -3.900709 -1.350613 39.000000
20.126295 -12.040569 -0.573179 33.000000
11.704471 10.042581 -0.924359 4.000000
33.693233 10.102046 -1.966592 1.000000
31.467602 -4.003184 -1.351698 36.000000
29.537174 -17.817963 -0.818950 33.000000
11.796765 -16.704407 0.039261 14.000000
11.619120 9.895641 -0.925441 5.000000
33.777241 9.992452 -1.981678 1.000000
31.464060 -4.108807 -1.352124 37.000000
29.288391 -17.814623 -0.795898 8.000000
11.709615 -16.710646 0.056981 33.000000
11.574530 9.784698 -0.934958 6.000000
32.609837 9.517253 -1.928972 1.000000
31.503483 -4.231447 -1.348917 48.000000
25.835501 -15.844422 -0.693056 10.000000
11.616912 -16.702103 0.078119 34.000000
11.525585 9.671115 -0.941315 5.000000
33.665623 9.691628 -2.001579 3.000000
31.550804 -4.366811 -1.346114 37.000000
25.474293 -15.745531 -0.663919 9.000000
11.549895 -16.736277 0.095826 33.000000
11.479925 9.561319 -0.945189 6.000000
33.317734 9.453096 -1.990851 2.000000
31.580898 -4.477758 -1.342447 37.000000
25.005180 -15.582526 -0.637742 9.000000
11.480039 -16.759899 0.117005 35.000000
11.479510 9.489930 -0.957946 7.000000
33.605579 9.401816 -2.030422 1.000000
31.102716 -4.537396 -1.328380 18.000000
24.783009 -15.570474 -0.623306 29.000000
11.407349 -16.779104 0.134567 31.000000
11.539044 9.471535 -0.970614 7.000000
33.942276 9.362008 -2.061010 2.000000
24.705021 -15.648057 -0.602358 23.000000
11.340113 -16.812408 0.152198 35.000000
11.499528 9.368765 -0.977395 7.000000
29.722683 8.081045 -1.813771 5.000000
28.266981 -18.049694 -0.673246 31.000000
11.286842 -16.860083 0.169979 36.000000
11.471188 9.275931 -0.982434 9.000000
30.180574 8.086861 -1.850836 4.000000
30.692602 -4.811821 -1.307546 9.000000
19.153122 -12.324429 -0.441293 20.000000
11.211016 -16.880327 0.194527 35.000000
11.554876 9.273768 -1.002270 16.000000
30.233828 7.982477 -1.857772 8.000000
22.916220 -3.678789 -0.972771 7.000000
19.212801 -12.462641 -0.435720 10.000000
11.138191 -16.898371 0.208417 37.000000
11.599944 9.240241 -1.013636 16.000000
27.513197 7.156396 -1.708893 7.000000
22.739740 -3.736002 -0.969884 28.000000
28.150450 -18.407108 -0.616451 33.000000
11.081528 -16.947256 0.229724 31.000000
11.664196 9.221748 -1.031935 19.000000
27.548330 7.057836 -1.719420 9.000000
22.681723 -3.811899 -0.963977 28.000000
28.120541 -18.535040 -0.605519 33.000000
11.022190 -16.985661 0.247394 36.000000
11.767836 9.233797 -1.051220 9.000000
27.490873 6.935843 -1.729135 8.000000
22.701218 -3.904862 -0.969464 9.000000
28.055929 -18.633257 -0.587884 38.000000
10.938088 -16.992125 0.264541 35.000000
11.812822 9.199344 -1.062724 10.000000
27.665668 6.872188 -1.748522 7.000000
22.642803 -3.980314 -0.959546 10.000000
28.045944 -18.775124 -0.565544 35.000000
10.902776 -17.067879 0.286339 40.000000
11.888979 9.188848 -1.082354 10.000000
27.680965 6.763249 -1.767803 6.000000
22.549225 -4.049120 -0.960209 9.000000
20.820168 -14.048669 -0.412103 21.000000
10.826935 -17.080280 0.303562 32.000000
11.977219 9.187122 -1.100557 16.000000
28.729052 6.907842 -1.838285 7.000000
22.509827 -4.127265 -0.955168 9.000000
20.752235 -14.113796 -0.394254 20.000000
10.756161 -17.106966 0.317445 37.000000
12.069556 9.187881 -1.119248 20.000000
28.583582 6.762141 -1.837672 7.000000
28.618029 -5.355718 -1.210094 9.000000
20.764927 -14.228691 -0.377858 13.000000
10.720015 -17.182289 0.339360 67.000000
12.158224 9.185189 -1.135037 9.000000
29.384869 6.838074 -1.903423 7.000000
24.348713 -4.649170 -1.030282 9.000000
27.887129 -19.259600 -0.496909 32.000000
10.646252 -17.204149 0.360212 35.000000
12.270795 9.199784 -1.155850 13.000000
17.972902 4.113043 -1.176145 1.000000
20.756655 -4.042205 -0.882607 9.000000
27.845215 -19.381771 -0.485579 33.000000
10.588580 -17.245195 0.377961 36.000000
12.351450 9.189732 -1.176481 16.000000
17.744251 3.992332 -1.163404 1.000000
22.633266 -4.493824 -0.959064 9.000000
27.815187 -19.512600 -0.462575 38.000000
10.522561 -17.279387 0.391991 35.000000
12.437158 9.189583 -1.195310 26.000000
17.894377 3.957259 -1.185136 1.000000
28.565609 -5.780593 -1.216426 13.000000
27.771536 -19.626982 -0.451112 36.000000
10.467171 -17.324270 0.409849 30.000000
12.545478 9.191993 -1.215819 28.000000
17.616283 3.824870 -1.175215 1.000000
28.602940 -5.897358 -1.218928 19.000000
27.752541 -19.766478 -0.434135 34.000000
10.401268 -17.351749 0.430832 26.000000
12.626426 9.180370 -1.236844 19.000000
18.019733 3.843363 -1.214100 1.000000
30.644073 -6.435379 -1.312383 24.000000
27.732830 -19.906050 -0.423046 36.000000
10.342513 -17.398020 0.448707 23.000000
12.727819 9.182970 -1.257254 20.000000
17.774271 3.722953 -1.206185 1.000000
30.717983 -6.568544 -1.316571 39.000000
19.857697 -14.364013 -0.295161 31.000000
10.294214 -17.455202 0.466946 29.000000
12.837122 9.190477 -1.284129 29.000000
17.654827 3.630438 -1.212968 1.000000
30.820389 -6.708663 -1.327520 27.000000
19.839844 -14.456857 -0.287074 25.000000
10.219950 -17.475340 0.477085 13.000000
12.934617 9.188756 -1.307230 12.000000
17.667389 3.565580 -1.222405 1.000000
30.741489 -6.809595 -1.336198 26.000000
10.183757 -17.553776 0.495973 20.000000
12.931323 9.189813 -1.332151 12.000000
17.303455 3.492132 -1.228179 1.000000
30.855019 -6.840393 -1.396447 37.000000
10.179036 -17.545639 0.470947 33.000000
12.825202 9.185329 -1.316361 26.000000
17.070269 3.510233 -1.218645 2.000000
30.722261 -6.692920 -1.422312 36.000000
19.861897 -14.467619 -0.351698 30.000000
10.217791 -17.471649 0.445175 31.000000
12.727361 9.186018 -1.301490 18.000000
17.115662 3.585002 -1.225883 4.000000
30.687244 -6.567572 -1.436033 38.000000
19.918531 -14.397431 -0.377507 22.000000
10.261214 -17.406189 0.419720 29.000000
12.633344 9.188772 -1.292566 17.000000
17.087353 3.644499 -1.230933 2.000000
28.862295 -6.066458 -1.375376 9.000000
27.742661 -19.905769 -0.572162 32.000000
10.332895 -17.381840 0.391798 28.000000
12.531978 9.185463 -1.274709 30.000000
17.142326 3.721964 -1.232791 1.000000
28.541464 -5.889875 -1.369244 15.000000
27.747202 -19.769976 -0.588744 36.000000
10.373220 -17.311811 0.362844 36.000000
12.430616 9.181396 -1.259668 26.000000
22.526653 -4.562631 -1.091942 18.000000
27.769316 -19.625412 -0.623231 34.000000
10.423409 -17.258644 0.344890 33.000000
12.353433 9.194556 -1.247137 21.000000
22.591455 -4.489621 -1.110396 8.000000
27.813234 -19.518473 -0.658356 38.000000
10.507637 -17.254879 0.317366 33.000000
12.272152 9.204148 -1.236939 9.000000
20.793865 -4.053218 -1.025011 9.000000
27.867693 -19.404640 -0.687602 38.000000
10.562769 -17.209890 0.292539 38.000000
12.123878 9.162566 -1.212024 22.000000
24.364355 -4.656564 -1.213184 8.000000
27.888018 -19.260214 -0.715863 36.000000
10.615068 -17.160452 0.267670 36.000000
12.021706 9.158086 -1.197353 20.000000
28.244154 6.681841 -2.034630 6.000000
28.528334 -5.344086 -1.434772 9.000000
20.728418 -14.214310 -0.552813 20.000000
10.691263 -17.142868 0.246845 34.000000
11.941270 9.166170 -1.182105 10.000000
27.909447 6.710770 -2.007242 7.000000
22.500839 -4.129677 -1.138868 9.000000
20.756050 -14.111094 -0.569565 32.000000
10.749153 -17.089203 0.225520 33.000000
11.829382 9.149383 -1.163836 25.000000
27.555855 6.732680 -1.973624 7.000000
22.510714 -4.046261 -1.142611 10.000000
20.814825 -14.050350 -0.587438 16.000000
10.808278 -17.064018 0.200954 34.000000
11.749063 9.156280 -1.151382 23.000000
27.468058 6.818011 -1.969112 7.000000
22.519878 -3.962758 -1.154334 10.000000
28.020741 -18.758251 -0.824097 36.000000
10.868164 -17.020243 0.179757 29.000000
11.680763 9.172065 -1.137546 14.000000
27.524561 6.944343 -1.965103 9.000000
22.627558 -3.896258 -1.163132 15.000000
28.065775 -18.653917 -0.841254 34.000000
10.933002 -16.990736 0.162214 37.000000
11.581066 9.162596 -1.123322 11.000000
27.474432 7.038903 -1.968327 7.000000
22.720274 -3.826533 -1.171200 27.000000
28.087303 -18.520164 -0.875113 32.000000
10.984419 -16.933928 0.137394 32.000000
11.528673 9.190048 -1.108560 9.000000
27.511868 7.156050 -1.962904 7.000000
22.817705 -3.756991 -1.179552 9.000000
28.143032 -18.416283 -0.892464 34.000000
11.070890 -16.937443 0.116545 53.000000
11.458243 9.199502 -1.094553 9.000000
27.886423 7.362704 -1.981424 7.000000
19.183844 -12.453374 -0.622880 31.000000
11.113515 -16.873749 0.091687 36.000000
11.382248 9.207299 -1.082802 21.000000
27.825523 7.455827 -1.979025 7.000000
19.136353 -12.323085 -0.643721 18.000000
11.169803 -16.824642 0.070494 36.000000
11.341423 9.243248 -1.069297 19.000000
27.774603 7.551398 -1.967265 7.000000
30.614485 -4.695611 -1.623200 23.000000
28.265022 -18.048445 -0.971890 35.000000
11.261858 -16.835472 0.049492 36.000000
11.273355 9.256743 -1.055834 22.000000
27.747402 7.653329 -1.957217 7.000000
30.636147 -4.584069 -1.628868 10.000000
24.716143 -15.655103 -0.873437 22.000000
11.315126 -16.781683 0.024728 34.000000
11.201349 9.266562 -1.044613 16.000000
27.800835 7.777825 -1.962984 7.000000
31.505314 -4.607360 -1.685404 9.000000
24.818169 -15.604650 -0.895695 14.000000
11.376454 -16.746231 0.003533 38.000000
11.164175 9.304942 -1.031572 10.000000
27.757025 7.880615 -1.951895 7.000000
31.008877 -4.407695 -1.668850 9.000000
25.052895 -15.624403 -0.917567 9.000000
11.454702 -16.729170 -0.014155 33.000000
11.149506 9.362180 -1.025719 7.000000
27.857389 8.019558 -1.961006 7.000000
25.488913 -15.773018 -0.962935 9.000000
11.501653 -16.672596 -0.038887 34.000000
11.150068 9.432550 -1.016137 8.000000
27.589018 8.051915 -1.934101 7.000000
27.368498 -3.685775 -1.476271 9.000000
25.929440 -15.914492 -0.993314 7.000000
11.588288 -16.673361 -0.060246 29.000000
11.161517 9.512640 -1.010063 8.000000
27.483423 8.130527 -1.918725 5.000000
27.514713 -3.602841 -1.498007 11.000000
29.335512 -17.843285 -1.145039 14.000000
11.706640 -16.712606 -0.085472 27.000000
11.131025 9.557305 -0.997604 8.000000
27.305939 8.186980 -1.898421 4.000000
31.410442 -3.995913 -1.714839 29.000000
20.076441 -12.120443 -0.798452 9.000000
11.802337 -16.724680 -0.103608 8.000000
11.081353 9.585436 -0.986019 6.000000
30.317167 9.211060 -2.098997 1.000000
31.435169 -3.876462 -1.720908 36.000000
20.068678 -12.015614 -0.816823 21.000000
11.072990 9.649380 -0.978115 5.000000
30.669434 9.441010 -2.125768 2.000000
31.496521 -3.778036 -1.740231 33.000000
19.203648 -11.406824 -0.791699 8.000000
39.189148 -54.698471 -0.481513 6.000000
11.127704 9.762171 -0.975423 5.000000
30.111404 9.390189 -2.078403 1.000000
31.847380 -3.701767 -1.758855 40.000000
19.094158 -11.247318 -0.800971 6.000000
39.043682 -54.075699 -0.547137 5.000000
11.159778 9.862925 -0.968343 5.000000
30.934834 9.765589 -2.137579 2.000000
18.949121 -11.068537 -0.812356 7.000000
11.152260 9.932810 -0.957906 5.000000
30.820066 9.865581 -2.121023 3.000000
18.932859 -10.966167 -0.825227 7.000000
31.093777 -42.422089 -0.550816 6.000000
11.261000 10.103917 -0.962467 5.000000
28.378357 9.198789 -1.939607 1.000000
18.842569 -10.821834 -0.830950 7.000000
31.158220 -42.200268 -0.595127 24.000000
11.320764 10.232684 -0.957404 5.000000
28.307167 9.290502 -1.926612 1.000000
18.784218 -10.701297 -0.841840 7.000000
36.949821 -49.662373 -0.767097 9.000000
11.313097 10.294126 -0.948917 4.000000
27.732233 9.203789 -1.879306 5.000000
34.635746 -3.383858 -1.945659 8.000000
18.874866 -10.661496 -0.863092 7.000000
36.768555 -49.060223 -0.834690 6.000000
11.338488 10.400737 -0.941063 6.000000
27.828112 9.359788 -1.878044 3.000000
34.225109 -3.217146 -1.927934 9.000000
18.734701 -10.491937 -0.866180 6.000000
11.359539 10.496973 -0.932450 6.000000
27.355236 9.312482 -1.833230 1.000000
33.928410 -3.063846 -1.910576 9.000000
18.602156 -10.328327 -0.873175 8.000000
27.363987 9.427519 -1.825976 1.000000
34.083309 -2.951935 -1.924666 9.000000
18.621977 -10.250220 -0.883485 7.000000
33.517242 31.419788 -2.689189 24.000000
26.651312 9.291402 -1.770790 1.000000
34.223251 -2.837718 -1.931968 9.000000
18.632702 -10.167317 -0.893353 6.000000
33.620815 31.726999 -2.681639 13.000000
26.403854 9.303445 -1.756388 1.000000
34.277195 -2.715733 -1.952500 9.000000
18.603382 -10.063007 -0.904965 6.000000
33.686890 32.023582 -2.655557 21.000000
26.328135 9.385384 -1.738935 2.000000
33.744003 -2.549070 -1.927508 9.000000
17.018047 -9.128821 -0.836422 4.000000
35.256580 -44.996727 -1.117568 12.000000
33.822838 32.412281 -2.635497 14.000000
25.722849 9.286160 -1.691823 2.000000
33.569317 -2.406279 -1.916988 9.000000
16.971352 -9.023829 -0.849301 9.000000
35.284229 -44.693615 -1.172899 1.000000
33.932392 32.733814 -2.611205 14.000000
25.572271 9.337884 -1.669850 3.000000
33.797050 -2.298126 -1.929499 9.000000
18.373775 -9.683294 -0.928597 6.000000
34.674023 -43.606842 -1.196187 7.000000
34.004642 33.056522 -2.593305 27.000000
25.238256 9.320894 -1.650259 1.000000
33.445568 -2.151104 -1.926575 9.000000
18.311310 -9.564785 -0.934501 6.000000
34.692173 -43.302914 -1.249463 1.000000
34.085567 33.355755 -2.566157 14.000000
24.972857 9.322068 -1.616344 7.000000
32.826077 -1.990477 -1.878940 9.000000
18.221460 -9.433007 -0.942499 43.000000
34.421799 -42.659397 -1.282215 3.000000
34.248810 33.762123 -2.554075 15.000000
25.008823 9.440072 -1.616218 3.000000
31.790581 -1.810767 -1.836005 9.000000
18.268803 -9.372772 -0.953939 29.000000
34.094482 -41.938293 -1.330359 10.000000
34.285843 34.047310 -2.523842 14.000000
24.737032 9.441208 -1.586965 1.000000
31.662422 -1.687065 -1.828233 9.000000
18.440599 -9.375693 -0.971964 10.000000
34.119587 -41.671150 -1.372684 1.000000
34.384773 34.396778 -2.497831 15.000000
24.569084 9.490274 -1.569396 6.000000
31.638479 -1.569521 -1.826507 9.000000
23.166185 -11.671649 -1.241465 6.000000
34.561535 34.815819 -2.476563 15.000000
24.665081 9.631394 -1.563859 7.000000
31.728466 -1.457429 -1.836943 9.000000
23.079033 -11.521873 -1.239035 6.000000
34.645512 35.157200 -2.448616 15.000000
24.597622 9.709104 -1.552565 10.000000
31.648813 -1.337545 -1.832035 9.000000
23.100231 -11.431899 -1.260568 6.000000
33.340305 -39.832157 -1.478146 16.000000
34.696011 35.467529 -2.417953 17.000000
24.561403 9.789069 -1.538427 7.000000
33.438736 -1.302121 -1.935387 9.000000
22.970993 -11.263317 -1.264683 9.000000
33.230698 -39.406849 -1.511895 5.000000
34.772522 35.807350 -2.388756 16.000000
24.693449 9.956753 -1.544527 7.000000
33.338596 -1.164209 -1.935147 9.000000
22.885752 -11.117661 -1.271093 26.000000
33.205425 -39.099129 -1.549331 1.000000
34.936508 36.228397 -2.364674 16.000000
24.720894 10.063253 -1.538974 4.000000
33.407314 -1.049867 -1.938911 9.000000
22.903244 -11.022587 -1.283154 9.000000
33.461147 -39.108814 -1.608514 1.000000
34.966957 36.526958 -2.340402 18.000000
17.240265 7.098885 -1.065246 6.000000
33.450500 -0.916829 -1.952908 7.000000
19.210718 -9.158927 -1.085564 30.000000
35.057888 36.891689 -2.311017 16.000000
17.078850 7.098750 -1.047006 2.000000
33.453358 -0.805898 -1.952908 8.000000
19.148823 -9.043430 -1.091304 8.000000
35.166813 37.265957 -2.281954 32.000000
24.736200 10.398141 -1.504886 6.000000
33.481274 -0.672102 -1.954365 7.000000
22.966928 -10.743834 -1.319959 6.000000
34.983795 37.345284 -2.225254 16.000000
24.748951 10.510406 -1.498580 5.000000
33.792946 -0.554460 -1.972426 6.000000
22.882778 -10.602421 -1.334950 6.000000
35.103127 37.749031 -2.196562 17.000000
24.779799 10.630876 -1.488636 4.000000
22.893621 -10.505693 -1.346553 7.000000
32.402203 -36.521149 -1.764665 1.000000
35.226738 38.161484 -2.167632 17.000000
24.731375 10.707347 -1.473698 1.000000
26.314054 -0.248011 -1.535760 8.000000
22.885872 -10.400763 -1.357047 6.000000
32.528141 -36.393528 -1.806901 36.000000
35.297127 38.506557 -2.134558 17.000000
25.186468 11.014169 -1.493587 2.000000
26.110138 -0.150385 -1.523816 20.000000
22.677340 -10.205875 -1.355513 6.000000
32.667282 -36.293430 -1.850253 31.000000
35.886627 39.438892 -2.132327 17.000000
25.105536 11.088567 -1.476776 3.000000
25.995445 -0.054445 -1.521653 36.000000
32.786362 -36.183693 -1.892865 37.000000
35.830387 39.668194 -2.081545 30.000000
34.239185 15.272918 -2.010759 8.000000
25.910891 0.031656 -1.512164 40.000000
12.910180 -5.702145 -0.781647 31.000000
32.691738 -35.814571 -1.930669 26.000000
35.723240 39.800224 -2.045182 18.000000
34.089764 15.342008 -1.972246 8.000000
25.895628 0.126551 -1.511290 38.000000
12.971783 -5.672626 -0.791549 31.000000
32.500610 -35.344151 -1.945294 32.000000
35.814522 40.197338 -2.002369 18.000000
33.820591 15.370178 -1.940414 8.000000
25.865044 0.221206 -1.509542 33.000000
12.987650 -5.622950 -0.796210 8.000000
33.379311 -36.046371 -2.041877 26.000000
35.929607 40.625320 -1.969723 18.000000
33.877514 15.560430 -1.927675 8.000000
25.833998 0.324657 -1.507794 32.000000
13.072025 -5.602677 -0.807589 1.000000
33.588348 -36.006493 -2.089624 23.000000
33.631512 15.582700 -1.903634 8.000000
25.842690 0.414992 -1.508377 31.000000
22.417267 -9.520184 -1.395773 6.000000
33.811192 -35.980083 -2.138436 31.000000
33.703190 15.773384 -1.898082 8.000000
25.805357 0.518016 -1.515347 35.000000
22.527809 -9.460567 -1.421673 6.000000
33.950710 -35.851700 -2.198978 23.000000
33.669952 15.894152 -1.873108 8.000000
25.779074 0.603016 -1.504881 34.000000
22.499144 -9.360883 -1.417898 6.000000
24.397747 -25.593311 -1.593280 31.000000
33.873825 16.142475 -1.868032 8.000000
25.826586 0.698847 -1.507794 35.000000
22.355824 -9.196152 -1.419228 6.000000
24.466194 -25.477484 -1.622531 39.000000
15.818998 18.534765 -0.778553 8.000000
34.355045 16.526583 -1.884557 7.000000
25.813608 0.793187 -1.511719 33.000000
22.402323 -9.119421 -1.436993 6.000000
24.508448 -25.343809 -1.662622 36.000000
15.790303 18.645660 -0.750778 7.000000
34.744961 16.871246 -1.875538 9.000000
25.821032 0.888154 -1.503285 34.000000
22.365917 -9.009184 -1.436754 6.000000
24.673332 -25.327885 -1.698426 18.000000
36.760342 43.731709 -1.705545 20.000000
35.069439 17.187933 -1.875945 9.000000
25.857508 0.984306 -1.505609 24.000000
22.490814 -8.963826 -1.455379 6.000000
34.985741 -35.651501 -2.442977 3.000000
37.013981 44.362545 -1.664290 20.000000
35.495037 17.558159 -1.881358 9.000000
25.848738 1.078864 -1.505318 29.000000
22.374468 -8.822560 -1.454174 6.000000
29.149876 -29.487608 -2.064183 8.000000
37.121273 44.808186 -1.625319 21.000000
35.265984 17.606031 -1.851941 5.000000
25.874266 1.174943 -1.511581 28.000000
22.159519 -8.644092 -1.450635 6.000000
29.205549 -29.338381 -2.097077 8.000000
37.211555 45.221573 -1.584683 20.000000
35.897324 18.085886 -1.881533 9.000000
25.939360 1.277723 -1.515660 34.000000
22.059734 -8.512143 -1.458621 8.000000
29.237324 -29.155790 -2.127798 15.000000
37.424328 45.837738 -1.539216 21.000000
36.562424 18.589314 -1.884081 7.000000
25.954967 1.373870 -1.507752 23.000000
22.095211 -8.432922 -1.463056 7.000000
37.430153 46.189411 -1.484110 11.000000
36.285763 18.616337 -1.859062 4.000000
26.074083 1.476028 -1.519549 25.000000
21.956936 -8.288076 -1.468327 36.000000
37.207905 19.262035 -1.873274 3.000000
26.288263 1.584834 -1.523136 8.000000
21.940176 -8.190004 -1.469292 38.000000
37.843548 47.354916 -1.407386 1.000000
31.849957 16.629526 -1.587584 8.000000
22.055664 -8.149886 -1.483449 96.000000
28.192198 -27.310598 -2.146390 11.000000
37.890877 47.772125 -1.373058 1.000000
31.581324 16.636856 -1.570981 9.000000
33.815735 2.287538 -1.966130 7.000000
22.049723 -8.047240 -1.497317 61.000000
28.225700 -27.143229 -2.182485 18.000000
38.256851 48.580879 -1.316874 17.000000
31.468399 16.725000 -1.537244 10.000000
33.993217 2.412812 -1.959000 3.000000
22.108894 -7.985855 -1.503648 40.000000
28.323606 -27.038269 -2.216657 22.000000
38.368729 49.092072 -1.261633 13.000000
31.293358 16.779352 -1.506853 16.000000
34.118553 2.547422 -1.966748 6.000000
22.081129 -7.884456 -1.508002 11.000000
28.406612 -26.919203 -2.249680 1.000000
38.899597 50.130989 -1.229440 23.000000
31.104914 16.825380 -1.482189 23.000000
34.521431 2.716896 -1.984521 1.000000
38.752960 50.321747 -1.164091 23.000000
31.105110 16.973145 -1.466567 14.000000
34.168949 2.803195 -1.964782 1.000000
38.787186 50.731533 -1.114685 20.000000
31.096098 17.116434 -1.444268 18.000000
34.069267 2.920766 -1.953664 9.000000
21.956682 -7.568866 -1.530365 9.000000
39.021996 51.465515 -1.048432 8.000000
31.112434 17.274309 -1.429294 15.000000
34.241226 3.074020 -1.964217 6.000000
22.293646 -7.585034 -1.555844 26.000000
39.513260 52.473965 -1.008963 19.000000
31.192312 17.461382 -1.410759 15.000000
34.822094 3.248739 -1.992052 3.000000
23.081112 -21.090733 -1.923259 3.000000
39.659634 53.052727 -0.959607 10.000000
33.950726 3.293007 -1.936909 1.000000
22.979588 -20.843925 -1.935599 6.000000
39.844326 53.689579 -0.886905 21.000000
28.729301 16.360332 -1.258520 7.000000
33.809292 3.404417 -1.929539 1.000000
23.073444 -20.782715 -1.959147 1.000000
28.617533 16.435879 -1.244718 3.000000
34.808514 3.646238 -1.981257 2.000000
27.071793 -8.764827 -1.919931 9.000000
34.598049 3.740222 -1.963880 2.000000
27.133329 -8.685447 -1.932232 7.000000
20.020519 -17.768803 -1.740423 7.000000
40.017414 23.374922 -1.691263 1.000000
34.639023 3.873146 -1.960896 2.000000
27.121527 -8.572206 -1.939116 7.000000
20.092083 -17.701092 -1.759767 6.000000
13.425794 18.642742 -0.216531 6.000000
39.996861 23.550552 -1.661413 5.000000
34.455978 3.980599 -1.951347 4.000000
27.118782 -8.462139 -1.946652 7.000000
20.122095 -17.596960 -1.775478 8.000000
39.764935 23.610693 -1.631117 6.000000
34.897545 4.161281 -1.971051 3.000000
27.196636 -8.377171 -1.960004 9.000000
20.155142 -17.495909 -1.796118 10.000000
41.054142 57.875687 -0.532544 24.000000
39.490459 23.643915 -1.591230 6.000000
34.699070 4.266658 -1.954590 6.000000
27.016518 -8.213396 -1.954744 8.000000
20.240610 -17.440424 -1.821449 10.000000
42.329926 60.140095 -0.462094 16.000000
39.331982 23.745296 -1.548200 3.000000
34.614872 4.385151 -1.932414 7.000000
27.099752 -8.125160 -1.968418 7.000000
20.288261 -17.352324 -1.838727 14.000000
42.011173 60.132095 -0.384084 19.000000
39.211452 23.869066 -1.514805 1.000000
34.851372 4.544960 -1.940381 7.000000
27.143042 -8.029831 -1.979340 7.000000
20.324669 -17.260981 -1.859937 11.000000
41.739429 60.212006 -0.306891 27.000000
21.902794 13.437830 -0.834480 1.000000
34.740803 4.660100 -1.929026 8.000000
27.095348 -7.907836 -1.978686 7.000000
20.436623 -17.227531 -1.878455 7.000000
41.736027 60.658234 -0.244166 27.000000
21.849636 13.515693 -0.816382 1.000000
35.167412 4.854860 -1.959950 4.000000
27.166288 -7.820604 -1.996635 7.000000
20.467508 -17.125635 -1.903599 6.000000
35.291870 51.697170 -0.142023 19.000000
21.707138 13.537799 -0.795028 4.000000
34.927952 4.952327 -1.929076 9.000000
27.185173 -7.718258 -1.995930 8.000000
20.529369 -17.049864 -1.917572 1.000000
34.942982 51.571781 -0.076108 9.000000
21.678877 13.630791 -0.782397 1.000000
35.107521 5.109118 -1.933804 8.000000
27.231817 -7.623757 -2.007210 8.000000
20.609400 -16.989079 -1.947334 3.000000
34.879963 51.867744 0.000000 18.000000
21.593851 13.682735 -0.754252 1.000000
27.148327 -7.493191 -2.008899 7.000000
20.821253 -17.035931 -1.975600 1.000000
34.541176 51.733608 0.054284 1.000000
21.578178 13.773303 -0.741881 2.000000
27.251925 -7.414399 -2.024450 8.000000
21.126333 -17.156664 -2.017671 4.000000
18.511955 2.902205 -1.004978 1.000000
27.333183 -7.323905 -2.028383 6.000000
27.072735 -21.821548 -2.608439 6.000000
21.078346 13.683208 -0.701950 1.000000
18.436934 2.959719 -1.004756 1.000000
27.266857 -7.199123 -2.041279 7.000000
26.921408 -21.537273 -2.610441 7.000000
20.922995 13.675983 -0.667643 2.000000
18.299429 2.999926 -0.988061 1.000000
27.288574 -7.097970 -2.035997 9.000000
26.850719 -21.319796 -2.614048 8.000000
36.563251 56.518181 0.364207 4.000000
20.826490 13.732539 -0.653246 2.000000
26.245581 -20.682920 -2.577070 13.000000
36.343021 56.588345 0.422573 4.000000
20.418875 13.561131 -0.629024 3.000000
18.306812 3.139107 -0.983174 1.000000
26.041004 -20.367428 -2.572854 2.000000
36.007042 56.541512 0.491388 11.000000
20.468536 13.712841 -0.610731 1.000000
18.413557 3.226928 -0.982992 1.000000
25.511604 -19.803097 -2.536046 5.000000
35.841991 56.740269 0.562255 1.000000
20.590845 13.899160 -0.594132 1.000000
18.289062 3.274247 -0.967225 1.000000
21.903997 -5.355823 -1.655915 6.000000
25.633581 -19.747643 -2.569373 11.000000
42.299381 28.779018 -1.187812 5.000000
18.453932 3.373615 -0.973309 1.000000
21.589863 -5.191239 -1.630648 24.000000
25.197908 -19.265255 -2.535322 4.000000
44.735794 71.899033 0.886803 23.000000
42.051815 28.815044 -1.147930 8.000000
18.466150 3.445840 -0.971325 1.000000
25.227228 -19.141567 -2.553447 9.000000
39.246834 63.570850 0.873675 28.000000
41.811920 28.865658 -1.099765 11.000000
26.852221 -6.248707 -2.039106 9.000000
25.048960 -18.862040 -2.550423 10.000000
38.911892 63.523327 0.949172 236.000000
41.881088 29.162352 -1.060099 11.000000
26.713846 -6.113380 -2.036501 38.000000
24.940495 -18.637516 -2.559759 10.000000
38.647121 63.613358 1.026354 247.000000
41.784599 29.301388 -1.033377 9.000000
26.658587 -5.997994 -2.025804 35.000000
24.979900 -18.524668 -2.567747 8.000000
38.439644 63.772446 1.117740 145.000000
41.352207 29.214027 -0.972158 7.000000
26.606670 -5.883943 -2.029770 27.000000
19.748510 -14.533274 -2.046055 31.000000
41.131371 29.284599 -0.934221 4.000000
26.487413 -5.750982 -2.023730 64.000000
19.788416 -14.451133 -2.061915 17.000000
40.253170 67.874992 1.349885 1.000000
40.666840 29.179060 -0.891139 11.000000
26.474178 -5.646581 -2.021124 9.000000
19.856215 -14.389352 -2.080712 32.000000
40.083580 68.129959 1.448769 10.000000
40.500645 29.274511 -0.837384 28.000000
24.200680 -5.069011 -1.850467 8.000000
19.742100 -14.196590 -2.076112 8.000000
39.746449 68.099731 1.527768 1.000000
40.264229 29.328897 -0.799927 28.000000
23.988926 -4.932946 -1.841477 8.000000
19.764429 -14.103037 -2.090086 8.000000
40.084358 29.423353 -0.763768 34.000000
34.145462 7.544861 -1.691921 9.000000
22.588207 -4.566891 -1.728736 101.000000
19.672003 -13.938866 -2.088130 8.000000
38.713737 67.434151 1.683082 1.000000
39.793095 29.423849 -0.708333 33.000000
34.172039 7.682202 -1.676240 9.000000
20.752111 -4.109029 -1.594366 5.000000
19.665764 -13.816203 -2.094243 8.000000
38.729370 68.010094 1.789738 2.000000
39.613392 29.516159 -0.655313 37.000000
34.733906 7.942367 -1.680287 9.000000
20.841427 -4.043613 -1.596297 7.000000
19.456226 -13.557712 -2.078882 6.000000
38.287045 67.810127 1.875962 1.000000
39.453327 29.622396 -0.620008 12.000000
23.956604 -4.556968 -1.833605 28.000000
19.725813 -13.638436 -2.119203 32.000000
39.429932 29.820623 -0.569495 19.000000
23.927788 -4.469320 -1.825982 101.000000
20.607941 -14.147564 -2.217714 28.000000
39.185619 29.862251 -0.515945 23.000000
24.027699 -4.396904 -1.828077 104.000000
20.712847 -14.108167 -2.227833 46.000000
39.227158 29.883087 -0.447563 32.000000
20.706530 -14.103864 -2.200712 36.000000
