VERSION .7
FIELDS x y z intensity
SIZE 4 4 4 4
TYPE F F F F
COUNT 1 1 1 1
WIDTH 1209
HEIGHT 1
VIEWPOINT 0 0 0 1 0 0 0
POINTS 1209
DATA ascii
12.933035 -13.266864 -0.802454 7.000000
38.548141 45.842308 -1.526577 9.000000
30.470043 14.927119 -1.428019 4.000000
19.784399 0.753124 -1.020283 2.000000
60.047878 -23.944527 -3.489779 15.000000
12.996267 -13.238956 -0.819726 20.000000
38.373039 45.958797 -1.452793 12.000000
30.595364 15.127815 -1.406645 6.000000
19.901600 0.830645 -1.019506 3.000000
60.112015 -23.715117 -3.488432 15.000000
13.026837 -13.173168 -0.828323 8.000000
38.291245 46.204010 -1.403701 12.000000
69.275932 34.600113 -3.150760 19.000000
19.803820 0.899286 -1.011190 1.000000
18.423540 -7.186743 -1.077934 8.000000
12.947615 -12.997426 -0.836293 9.000000
69.404404 34.982700 -3.121651 27.000000
19.845278 0.974068 -1.013482 2.000000
18.397993 -7.099194 -1.085266 10.000000
13.075802 -13.030239 -0.864084 10.000000
69.503250 35.322048 -3.090462 28.000000
19.627151 1.035486 -1.002530 1.000000
18.479504 -7.052940 -1.095468 7.000000
13.000075 -12.864647 -0.868903 37.000000
69.684639 35.751564 -3.049845 27.000000
18.450041 -6.960652 -1.099033 8.000000
13.043031 -12.812876 -0.884622 23.000000
69.704681 36.054337 -3.014786 28.000000
18.432791 -6.877074 -1.106830 8.000000
13.003538 -12.680762 -0.894673 23.000000
13.438968 7.013781 -0.574406 7.000000
18.455132 -6.815777 -1.113698 8.000000
13.027835 -12.611629 -0.909021 41.000000
13.375607 7.049174 -0.564975 7.000000
18.500551 -6.748281 -1.125139 9.000000
13.049603 -12.544760 -0.923316 20.000000
13.316943 7.074782 -0.560849 8.000000
65.125427 -23.510817 -4.004437 38.000000
13.170766 -12.568677 -0.944552 9.000000
37.703693 48.241169 -0.972524 1.000000
13.231704 7.097751 -0.542710 7.000000
65.158165 -23.227409 -4.000685 32.000000
13.172884 -12.478770 -0.950944 10.000000
37.441437 48.269207 -0.906329 10.000000
13.168784 7.120335 -0.533246 8.000000
62.383224 -21.980843 -3.860082 17.000000
13.156089 -12.371685 -0.962256 20.000000
37.446392 48.607578 -0.856789 8.000000
13.020010 7.101688 -0.520497 39.000000
62.364944 -21.742184 -3.877601 39.000000
13.310214 -12.425012 -0.986127 8.000000
13.019227 7.166261 -0.511174 6.000000
62.407967 -21.476604 -3.898003 37.000000
13.283303 -12.313398 -0.996796 25.000000
37.323261 49.207233 -0.733025 1.000000
13.209743 7.328309 -0.511687 6.000000
73.536530 6.601773 -3.701425 4.000000
62.447163 -21.234428 -3.918668 37.000000
13.154913 -12.105041 -1.002604 10.000000
37.340366 49.552338 -0.682262 1.000000
10.780166 6.032241 -0.411954 1.000000
62.478088 -21.014061 -3.939306 39.000000
13.265147 -12.116990 -1.017051 20.000000
37.126591 49.682350 -0.617038 11.000000
10.725653 6.058402 -0.402188 25.000000
52.333057 -17.368322 -3.324204 74.000000
13.253339 -12.017393 -1.028425 38.000000
37.003418 49.843315 -0.563412 15.000000
10.696999 6.089094 -0.395417 24.000000
58.629688 -19.242449 -3.741712 2.000000
13.166773 -11.851254 -1.033841 10.000000
10.666119 6.123386 -0.388656 22.000000
62.691257 -20.321247 -4.019228 16.000000
13.343575 -11.922153 -1.056821 20.000000
10.631936 6.153205 -0.379606 25.000000
62.792496 -20.100035 -4.044068 17.000000
13.367818 -11.855993 -1.070940 23.000000
10.635380 6.207346 -0.374085 1.000000
12.467239 -3.940477 -0.806582 1.000000
13.404811 -11.805463 -1.083111 27.000000
37.465191 52.004143 -0.313226 1.000000
10.578432 6.226200 -0.360017 4.000000
12.362499 -3.857592 -0.798886 2.000000
13.484846 -11.788472 -1.101768 14.000000
37.289013 52.161640 -0.257393 1.000000
10.551403 6.262474 -0.353446 6.000000
12.290833 -3.783502 -0.802322 1.000000
13.711916 -11.898594 -1.132654 9.000000
10.545744 6.311498 -0.345442 1.000000
12.519211 -3.803627 -0.820900 1.000000
13.807765 -11.893332 -1.149736 26.000000
10.600835 6.394832 -0.341488 1.000000
12.513674 -3.751902 -0.824208 1.000000
13.770850 -11.773893 -1.158935 13.000000
66.458641 40.423374 -2.091265 119.000000
12.407714 -3.670622 -0.816337 1.000000
14.041706 -11.916662 -1.187729 1.000000
13.511223 19.483606 0.000000 4.000000
11.274150 6.914223 -0.346321 5.000000
12.444759 -3.632030 -0.822437 1.000000
20.506416 -17.274124 -1.757382 15.000000
13.241843 19.238216 0.024457 6.000000
11.414686 7.058113 -0.344399 28.000000
63.146233 8.694874 -3.050599 4.000000
12.424147 -3.576651 -0.824734 2.000000
20.591610 -17.217258 -1.778083 10.000000
13.106371 19.191628 0.044618 10.000000
11.363491 7.084162 -0.334280 20.000000
12.442925 -3.528031 -0.829567 1.000000
20.722475 -17.198021 -1.807533 12.000000
13.103789 19.332405 0.069296 7.000000
11.465815 7.203652 -0.330934 1.000000
73.049141 10.617657 -3.506934 1.000000
12.420643 -3.477255 -0.831829 2.000000
20.847095 -17.178909 -1.827370 12.000000
13.022226 19.357216 0.093652 6.000000
11.760459 7.449026 -0.330499 1.000000
73.005394 10.884678 -3.493814 4.000000
12.519598 -3.455525 -0.842155 2.000000
20.943678 -17.129995 -1.849297 25.000000
12.779037 19.146877 0.116514 5.000000
73.753189 47.094616 -2.016368 24.000000
73.148293 11.180196 -3.489646 9.000000
12.292341 -3.339755 -0.830425 1.000000
21.005062 -17.052097 -1.872908 15.000000
12.714800 19.195404 0.144669 3.000000
73.072746 47.020000 -1.926372 19.000000
73.044464 11.438457 -3.447872 161.000000
12.352695 -3.307584 -0.833677 1.000000
21.147957 -17.039888 -1.899120 12.000000
12.394420 18.861526 0.161506 1.000000
72.536163 47.051552 -1.856371 8.000000
73.091408 11.720430 -3.439145 113.000000
12.291665 -3.245303 -0.831017 1.000000
21.279081 -17.017292 -1.929176 19.000000
72.715736 47.547607 -1.804733 23.000000
22.637609 3.715165 -1.061781 4.000000
12.327054 -3.206362 -0.841540 1.000000
21.289467 -16.898037 -1.943561 10.000000
72.863647 48.026482 -1.736573 6.000000
22.550497 3.785798 -1.046341 2.000000
12.474336 -3.195904 -0.846275 1.000000
16.606346 -13.081990 -1.522768 13.000000
36.412907 56.718925 0.705851 1.000000
74.832863 49.700005 -1.724890 24.000000
22.600649 3.879441 -1.045310 2.000000
12.354921 -3.117100 -0.844094 1.000000
16.629768 -13.001950 -1.535350 10.000000
36.270695 56.933578 0.777642 1.000000
74.231606 49.693729 -1.652832 24.000000
12.365976 -3.071724 -0.848542 1.000000
16.885044 -13.102105 -1.573225 9.000000
73.647942 49.694866 -1.581834 27.000000
12.255997 -2.996756 -0.840236 1.000000
16.778440 -12.921138 -1.566302 10.000000
34.921181 55.690723 0.894928 1.000000
73.342606 49.862301 -1.517071 25.000000
12.402569 -2.984462 -0.851765 1.000000
16.662170 -12.734584 -1.569482 42.000000
35.082531 56.384377 0.985250 3.000000
73.477982 50.349106 -1.445925 22.000000
12.462193 -2.948235 -0.859566 1.000000
16.600603 -12.591413 -1.573954 52.000000
34.704411 56.235126 1.049630 13.000000
73.659882 50.871490 -1.390652 29.000000
12.268552 -2.854982 -0.849899 1.000000
16.474482 -12.400894 -1.572154 19.000000
34.486423 56.320847 1.118153 8.000000
73.998940 51.507252 -1.337650 4.000000
12.313120 -2.817819 -0.850051 1.000000
16.587059 -12.390655 -1.589457 10.000000
74.122704 51.978436 -1.248335 25.000000
12.464214 -2.804361 -0.864246 5.000000
16.803667 -12.456768 -1.620518 21.000000
16.364616 27.160078 0.608847 8.000000
74.026299 52.316616 -1.186637 20.000000
12.386587 -2.739237 -0.860386 1.000000
16.932617 -12.456452 -1.643304 13.000000
74.066826 52.753376 -1.126885 17.000000
12.464496 -2.708585 -0.869576 1.000000
74.293137 53.306427 -1.069307 25.000000
12.635479 -2.697281 -0.878543 4.000000
52.430634 37.911629 -0.688869 107.000000
12.743090 -2.669134 -0.889872 1.000000
38.529671 28.065430 -0.474231 10.000000
13.016794 -2.676700 -0.905964 1.000000
52.638351 38.638435 -0.604032 41.000000
12.967683 -2.617099 -0.904192 1.000000
75.131615 55.574177 -0.766607 11.000000
13.241114 -2.621811 -0.927315 4.000000
21.681578 -15.221114 -2.173302 6.000000
75.270439 56.084423 -0.688097 25.000000
21.519575 -14.989939 -2.165366 8.000000
75.520638 56.702503 -0.609863 17.000000
19.158802 -13.241463 -1.939292 9.000000
75.737389 57.279739 -0.530354 11.000000
19.239521 -13.193313 -1.950755 223.000000
75.614395 57.145237 -0.363928 16.000000
19.266958 -13.212127 -1.912484 221.000000
75.591232 56.693638 -0.395798 21.000000
13.977873 -2.661366 -0.940099 1.000000
19.260496 -13.311748 -1.900219 5.000000
75.319283 56.079941 -0.442515 26.000000
13.660257 -2.652811 -0.907189 1.000000
21.690340 -15.120138 -2.118047 5.000000
75.190277 55.556686 -0.505827 16.000000
13.337354 -2.640867 -0.883999 4.000000
21.782804 -15.303533 -2.113836 6.000000
52.598103 38.594761 -0.375753 134.000000
13.151662 -2.654229 -0.869979 1.000000
38.490360 28.036795 -0.307514 9.000000
13.034445 -2.682700 -0.853571 1.000000
21.937067 -15.653336 -2.087826 8.000000
52.391434 37.841526 -0.439919 197.000000
12.979768 -2.725803 -0.848375 3.000000
17.120878 -12.311664 -1.618927 7.000000
52.566093 37.675270 -0.485376 77.000000
12.696860 -2.715018 -0.823703 5.000000
16.983700 -12.307706 -1.595482 42.000000
74.183296 52.777805 -0.730948 22.000000
82.123070 16.857447 -3.162018 1.000000
12.545979 -2.730879 -0.805559 5.000000
16.915655 -12.353207 -1.571272 83.000000
16.404480 27.215492 0.704479 8.000000
74.010475 52.286060 -0.774983 27.000000
82.188667 16.557215 -3.176839 30.000000
12.522373 -2.769265 -0.802381 1.000000
16.871462 -12.406926 -1.556278 49.000000
74.264351 52.019775 -0.838754 10.000000
82.061447 16.218838 -3.198844 25.000000
12.551224 -2.823937 -0.802634 1.000000
16.686207 -12.374207 -1.529177 60.000000
12.447639 -2.853177 -0.792261 1.000000
16.602066 -12.406381 -1.503804 79.000000
34.944672 56.558159 1.276534 6.000000
73.539093 50.731216 -0.935602 17.000000
12.529980 -2.920429 -0.789161 1.000000
16.445974 -12.383933 -1.475707 96.000000
34.821678 55.965137 1.208071 1.000000
73.525009 50.362473 -0.979961 23.000000
78.933495 14.700719 -3.084460 19.000000
16.449175 -12.481077 -1.461979 95.000000
35.098953 55.952518 1.141378 6.000000
73.411652 49.853054 -1.037734 27.000000
78.705627 14.360004 -3.101447 132.000000
12.464443 -3.003955 -0.779693 1.000000
16.578468 -12.675197 -1.462948 70.000000
34.949955 55.285358 1.073157 10.000000
73.733780 49.715340 -1.070998 25.000000
78.645134 14.051321 -3.083049 163.000000
12.425719 -3.038256 -0.771174 1.000000
16.730820 -12.879814 -1.465340 36.000000
35.052368 54.978836 1.001514 1.000000
74.443001 49.778820 -1.141044 18.000000
78.779243 13.777517 -3.100285 31.000000
12.413684 -3.088176 -0.766709 1.000000
16.959557 -13.164665 -1.474931 9.000000
35.300144 54.922344 0.934451 1.000000
74.936729 49.712475 -1.208603 31.000000
78.882843 13.497862 -3.116383 32.000000
12.523387 -3.164253 -0.771933 1.000000
16.613564 -12.993952 -1.430481 22.000000
72.791710 47.942623 -1.217083 24.000000
73.742432 12.340250 -2.924566 2.000000
12.484075 -3.198399 -0.765645 2.000000
72.761566 47.559444 -1.244145 31.000000
73.564270 12.033428 -2.941792 30.000000
12.419390 -3.230380 -0.757904 1.000000
12.548283 19.088411 0.259163 1.000000
72.753754 47.138596 -1.316434 25.000000
73.459366 11.739985 -2.948861 12.000000
12.478962 -3.299414 -0.757820 1.000000
21.247955 -16.992399 -1.778468 10.000000
12.604472 19.021633 0.238966 1.000000
73.228645 47.102249 -1.367793 28.000000
73.290070 11.463814 -2.953490 18.000000
12.539812 -3.362379 -0.759950 3.000000
21.166157 -17.048460 -1.757537 13.000000
12.809740 19.185625 0.217426 3.000000
73.880424 47.139565 -1.437930 31.000000
73.334991 11.169440 -2.966437 16.000000
12.431331 -3.382178 -0.749609 4.000000
21.074606 -17.108553 -1.731591 10.000000
13.036399 19.370981 0.199689 6.000000
11.763387 7.448004 -0.235735 1.000000
73.369102 10.912726 -2.953291 3.000000
12.457848 -3.438482 -0.742911 4.000000
20.957098 -17.128767 -1.702879 18.000000
13.115252 19.342045 0.179467 9.000000
11.464479 7.200023 -0.238668 21.000000
73.373482 10.638649 -2.964839 18.000000
12.478934 -3.493574 -0.742658 5.000000
13.103816 19.180698 0.154066 9.000000
11.384568 7.091784 -0.245829 12.000000
12.432679 -3.529815 -0.736144 7.000000
20.717781 -17.188021 -1.651177 12.000000
13.281864 19.289150 0.130801 6.000000
11.414627 7.052570 -0.252946 5.000000
12.381528 -3.564382 -0.729372 13.000000
20.615259 -17.243147 -1.624969 10.000000
13.588561 19.587830 0.116504 1.000000
11.333762 6.945338 -0.255230 5.000000
12.349696 -3.604286 -0.719260 29.000000
14.033909 -11.826023 -1.096754 20.000000
13.605889 19.460125 0.091174 4.000000
12.355792 -3.655262 -0.715879 29.000000
13.979776 -11.868302 -1.079856 33.000000
13.668016 19.404394 0.070423 2.000000
10.526717 6.347616 -0.251051 34.000000
12.361678 -3.706330 -0.712483 32.000000
13.812040 -11.804938 -1.054008 29.000000
13.689879 19.284906 0.045405 1.000000
10.493984 6.275546 -0.258260 40.000000
12.376910 -3.760393 -0.709622 5.000000
13.735327 -11.826763 -1.035584 35.000000
37.190792 52.005058 0.055794 6.000000
10.508198 6.231872 -0.264446 32.000000
12.410997 -3.820493 -0.707828 3.000000
13.532133 -11.742587 -1.007971 24.000000
37.471790 51.994160 0.000000 1.000000
10.538342 6.200129 -0.273198 50.000000
73.095390 8.418642 -3.006674 9.000000
12.683123 -3.955210 -0.719519 1.000000
13.391809 -11.707138 -0.988251 20.000000
10.595411 6.181540 -0.280515 20.000000
73.110336 8.148959 -3.018900 5.000000
62.805920 -19.838791 -3.544047 34.000000
13.368185 -11.773206 -0.974093 29.000000
10.708687 6.195130 -0.291552 1.000000
62.792274 -20.099966 -3.524526 34.000000
13.351989 -11.837792 -0.963274 14.000000
13.094217 7.511273 -0.363657 6.000000
62.714592 -20.328812 -3.501246 30.000000
13.331353 -11.907051 -0.952413 22.000000
13.104113 7.453250 -0.371068 6.000000
13.128215 -11.820699 -0.925823 38.000000
13.147234 7.417158 -0.382099 6.000000
62.551979 -20.784027 -3.454435 31.000000
13.067339 -11.844584 -0.908862 36.000000
13.174272 7.368888 -0.384734 6.000000
62.482399 -21.015511 -3.408675 34.000000
13.078012 -11.937681 -0.900103 37.000000
37.232349 49.016270 -0.418988 1.000000
13.170295 7.303419 -0.396984 10.000000
62.419128 -21.249205 -3.409450 35.000000
13.004838 -11.966943 -0.882904 15.000000
37.390827 48.869812 -0.472550 13.000000
12.995253 7.144201 -0.401276 44.000000
62.394444 -21.496313 -3.377736 37.000000
13.063998 -12.110106 -0.874345 44.000000
37.450321 48.577595 -0.535286 12.000000
13.056273 7.115555 -0.410144 9.000000
62.283329 -21.713730 -3.352923 39.000000
13.034678 -12.172058 -0.859762 25.000000
37.631622 48.461975 -0.589005 5.000000
13.187612 7.124567 -0.421301 8.000000
62.279778 -21.968832 -3.333932 31.000000
13.026896 -12.254481 -0.846562 17.000000
37.814754 48.331089 -0.653364 1.000000
13.269409 7.109032 -0.433637 7.000000
65.159386 -23.253483 -3.444200 71.000000
13.129504 -12.437676 -0.843393 21.000000
13.335036 7.081410 -0.437568 7.000000
65.088936 -23.497644 -3.420790 37.000000
13.055554 -12.458733 -0.822632 16.000000
13.378386 7.041691 -0.446063 6.000000
18.506241 -6.757676 -0.963562 9.000000
12.981506 -12.479298 -0.805097 16.000000
13.443776 7.013305 -0.455330 1.000000
18.420761 -6.803083 -0.953532 9.000000
12.940553 -12.522761 -0.789382 22.000000
69.684715 36.028595 -2.424199 24.000000
18.438274 -6.886453 -0.945409 9.000000
12.987017 -12.669075 -0.785795 10.000000
69.686546 35.706463 -2.447052 28.000000
18.487972 -6.982336 -0.942349 9.000000
12.975465 -12.746502 -0.765521 9.000000
69.486061 35.282795 -2.476300 7.000000
18.453232 -7.046604 -0.934978 10.000000
13.231790 -13.084807 -0.773438 26.000000
38.196682 46.402245 -1.028085 1.000000
69.371056 34.920353 -2.508549 7.000000
18.395121 -7.101775 -0.922998 9.000000
13.179629 -13.138289 -0.757199 7.000000
38.182350 46.056248 -1.075589 7.000000
69.224609 34.529205 -2.539208 7.000000
18.434406 -7.194688 -0.919364 9.000000
13.163576 -13.218832 -0.742749 7.000000
38.366180 45.901718 -1.138238 18.000000
69.219574 34.210445 -2.574879 1.000000
18.524513 -7.308206 -0.914738 8.000000
12.899992 -13.044898 -0.714406 7.000000
38.684978 45.939892 -1.184637 5.000000
69.015671 33.795490 -2.602951 1.000000
18.586048 -7.411322 -0.912113 9.000000
12.835112 -13.074791 -0.694247 7.000000
38.550194 45.456829 -1.227677 1.000000
69.034424 33.491543 -2.639234 27.000000
18.628693 -7.507577 -0.905012 9.000000
17.812561 -18.278721 -0.944789 29.000000
38.891514 45.552212 -1.286022 4.000000
68.975304 33.151104 -2.672429 27.000000
18.610596 -7.579691 -0.898448 6.000000
17.652210 -18.247503 -0.917640 23.000000
38.747799 45.048473 -1.327680 15.000000
69.117630 32.908207 -2.713384 12.000000
76.845345 -31.626303 -3.671772 8.000000
17.447023 -18.161837 -0.888258 10.000000
38.876831 44.848995 -1.398743 8.000000
69.429939 32.745285 -2.787991 9.000000
76.236572 -31.703003 -3.619334 8.000000
12.783751 -13.405508 -0.643629 7.000000
38.952385 44.636230 -1.437511 18.000000
70.074196 32.735710 -2.822541 17.000000
17.115211 -18.079855 -0.834586 26.000000
70.393654 32.601009 -2.885270 19.000000
16.904827 -17.976645 -0.814294 17.000000
16.736811 -17.922930 -0.783503 10.000000
71.993805 32.688145 -3.023636 14.000000
16.515093 -17.815958 -0.759199 9.000000
40.090862 44.634956 -1.686328 17.000000
72.344078 32.527893 -3.074912 5.000000
16.358755 -17.777554 -0.733899 8.000000
40.234505 44.497177 -1.728069 7.000000
72.646301 32.374603 -3.124885 6.000000
16.236341 -17.768602 -0.710162 7.000000
72.811653 32.159317 -3.155222 28.000000
48.223995 -21.490877 -2.157423 9.000000
16.000265 -17.639648 -0.681859 7.000000
40.310623 43.929710 -1.832028 9.000000
73.037376 31.939613 -3.201714 28.000000
48.581795 -21.843716 -2.148723 9.000000
15.865125 -17.607643 -0.657885 8.000000
40.411743 43.732491 -1.881688 10.000000
73.498177 31.790274 -3.258292 28.000000
48.421963 -22.005949 -2.117649 6.000000
15.681249 -17.538523 -0.628393 9.000000
74.048904 31.706812 -3.319780 28.000000
48.519405 -22.265156 -2.088138 29.000000
15.471233 -17.431795 -0.602180 14.000000
39.648746 42.280739 -1.932951 7.000000
17.308201 7.336203 -0.781328 3.000000
48.393131 -22.422293 -2.058258 25.000000
15.304535 -17.359587 -0.581762 13.000000
55.720787 59.005539 -2.791520 1.000000
17.431334 7.313142 -0.795587 6.000000
23.614664 -11.046843 -1.001538 1.000000
15.142170 -17.296761 -0.553794 10.000000
55.859207 58.719482 -2.858465 1.000000
17.540678 7.283526 -0.809316 6.000000
23.673880 -11.180484 -0.992052 12.000000
15.023246 -17.288361 -0.531759 8.000000
17.689207 7.276522 -0.821740 1.000000
10.405449 -12.063338 -0.355962 28.000000
75.781029 30.817717 -3.557495 12.000000
10.379733 -12.118802 -0.342596 26.000000
76.924538 30.954662 -3.663826 1.000000
67.669861 -2.374909 -2.932668 27.000000
10.259986 -12.076780 -0.326406 10.000000
40.141018 40.990658 -2.224063 11.000000
77.133141 30.710600 -3.711931 27.000000
58.391800 -2.263600 -2.520701 24.000000
10.222280 -12.122161 -0.312774 6.000000
40.163300 40.713825 -2.266999 13.000000
51.116043 20.135143 -2.485149 8.000000
49.384056 -24.428576 -1.943241 10.000000
14.226579 -16.978636 -0.417587 9.000000
40.434036 40.703098 -2.324395 1.000000
77.832489 30.329971 -3.807832 23.000000
58.139103 -2.680755 -2.510574 1.000000
16.041250 -8.008362 -0.622968 5.000000
14.053090 -16.909006 -0.395291 19.000000
78.337410 30.196478 -3.871145 22.000000
15.967258 -8.044666 -0.618111 6.000000
13.917589 -16.859390 -0.373966 38.000000
79.308441 30.269091 -3.943844 1.000000
15.994242 -8.124875 -0.610791 5.000000
13.760612 -16.788256 -0.352372 25.000000
41.230587 40.602146 -2.496137 1.000000
79.576431 30.037687 -3.981424 1.000000
64.192284 -3.645102 -2.762239 16.000000
15.866806 -8.133437 -0.597712 1.000000
13.623491 -16.745779 -0.327818 25.000000
41.517239 40.599941 -2.545512 7.000000
74.677444 27.876196 -3.773007 23.000000
64.114151 -3.876464 -2.748239 13.000000
50.068165 -25.897465 -1.860114 9.000000
13.470882 -16.676773 -0.306832 21.000000
42.061722 40.860409 -2.632103 3.000000
64.128464 -4.113285 -2.771953 8.000000
50.275028 -26.238474 -1.841634 5.000000
13.356668 -16.659925 -0.286982 22.000000
41.874535 40.353111 -2.671256 7.000000
73.557701 26.816441 -3.788095 28.000000
66.458794 -4.530706 -2.873444 4.000000
13.193155 -16.586069 -0.266337 18.000000
41.898529 40.109116 -2.704866 7.000000
73.512825 26.524231 -3.822250 166.000000
68.346436 -4.899134 -2.943799 11.000000
13.054537 -16.523983 -0.246264 26.000000
42.245792 40.117794 -2.767820 11.000000
73.706818 26.260315 -3.854204 1.000000
68.466591 -5.172064 -2.949808 14.000000
12.941798 -16.511219 -0.223360 22.000000
42.572739 40.146587 -2.831225 17.000000
73.500221 25.912355 -3.866157 17.000000
68.573128 -5.420907 -2.943168 8.000000
12.804162 -16.447672 -0.203733 22.000000
42.765167 40.032940 -2.885487 30.000000
73.785667 25.680449 -3.916726 1.000000
68.761894 -5.689505 -2.952145 14.000000
12.664420 -16.391758 -0.184385 29.000000
43.012852 39.997993 -2.944617 21.000000
64.341499 -5.561264 -2.751929 12.000000
12.543332 -16.352697 -0.161869 13.000000
43.270264 39.914669 -3.002750 21.000000
12.401976 -16.303518 -0.146586 20.000000
43.414318 39.754021 -3.054121 8.000000
47.244728 -26.436659 -1.531134 3.000000
12.278418 -16.246763 -0.127956 16.000000
43.758991 39.817616 -3.110970 21.000000
47.140018 -26.594564 -1.492924 10.000000
12.161862 -16.215755 -0.106133 26.000000
43.997162 39.712658 -3.189159 21.000000
46.894127 -26.704565 -1.479094 10.000000
12.021969 -16.158115 -0.084362 32.000000
44.167831 39.601707 -3.233530 1.000000
46.884228 -26.905210 -1.443822 10.000000
11.908927 -16.117510 -0.069953 25.000000
44.493286 39.600300 -3.298845 12.000000
57.952003 -6.295602 -2.463583 9.000000
70.146477 -40.597092 -2.122296 1.000000
11.793485 -16.078400 -0.048723 20.000000
44.598984 39.402374 -3.337628 6.000000
57.684864 -6.480589 -2.463370 23.000000
69.954994 -40.829273 -2.078577 1.000000
11.657992 -16.016439 -0.031117 20.000000
44.999409 39.463421 -3.419625 9.000000
57.516819 -6.675270 -2.457222 29.000000
11.517251 -15.945585 -0.013732 18.000000
45.228729 39.386078 -3.479094 22.000000
70.604004 -41.888268 -2.035027 1.000000
11.423647 -15.932869 0.003422 24.000000
45.438435 39.276794 -3.536721 21.000000
70.549873 -42.206505 -1.980483 1.000000
11.295599 -15.876840 0.023805 18.000000
45.715614 39.224560 -3.610383 21.000000
66.954063 -40.389271 -1.856374 1.000000
11.191061 -15.846719 0.040631 26.000000
46.040012 39.210842 -3.656407 11.000000
66.896080 -40.689449 -1.817869 23.000000
11.081232 -15.813889 0.057294 14.000000
46.375835 39.204494 -3.714193 6.000000
10.954550 -15.749798 0.077013 13.000000
46.577370 39.083057 -3.782751 5.000000
54.644848 -7.563159 -2.331421 10.000000
10.868206 -15.742602 0.096825 31.000000
46.725426 38.916340 -3.836440 7.000000
71.660278 -44.656673 -1.798166 1.000000
7.524328 -10.984891 0.076688 8.000000
47.007961 38.860737 -3.890669 1.000000
53.810440 -7.830912 -2.279082 16.000000
71.653778 -45.018074 -1.743028 1.000000
7.494322 -11.023420 0.090734 6.000000
47.173904 38.707733 -3.956801 1.000000
55.124836 15.204613 -3.327209 9.000000
25.934031 -16.426506 -0.626963 29.000000
10.526509 -15.606192 0.141279 8.000000
43.473316 35.418087 -3.675329 1.000000
55.275398 15.028353 -3.353013 1.000000
25.801046 -16.468750 -0.603757 32.000000
10.421817 -15.567924 0.160222 7.000000
43.603699 35.259205 -3.734380 1.000000
11.498510 3.081017 -0.705151 1.000000
25.765909 -16.579548 -0.593653 35.000000
7.238892 -10.899536 0.125605 6.000000
43.807892 35.159550 -3.790046 1.000000
11.668859 3.080867 -0.717014 1.000000
58.525314 -9.416148 -2.484483 10.000000
25.822746 -16.750271 -0.574877 6.000000
10.197148 -15.470661 0.194042 10.000000
41.242138 32.852512 -3.594608 1.000000
11.902025 3.095809 -0.734947 1.000000
58.476044 -9.628225 -2.473511 5.000000
19.882784 -13.001020 -0.431254 55.000000
10.096501 -15.440831 0.209304 9.000000
41.124519 32.513165 -3.629104 1.000000
11.559856 2.961616 -0.721505 1.000000
20.056349 -13.219705 -0.427679 9.000000
10.004315 -15.417073 0.227756 9.000000
11.759115 2.966780 -0.737506 1.000000
67.930992 -45.116154 -1.394953 160.000000
9.901649 -15.382034 0.239474 13.000000
40.518536 31.554178 -3.645194 4.000000
11.987488 2.977707 -0.757631 1.000000
20.239939 -13.549459 -0.408137 9.000000
9.810077 -15.357300 0.257641 7.000000
40.541130 31.333746 -3.672824 7.000000
12.270060 2.997925 -0.779183 1.000000
9.686693 -15.281466 0.271593 7.000000
19.330275 -13.146707 -0.359077 10.000000
9.609175 -15.282761 0.289897 7.000000
37.677662 28.681910 -3.477350 8.000000
55.635254 -10.411855 -2.352498 29.000000
19.610174 -13.437424 -0.356845 5.000000
7.073463 -11.337512 0.223922 6.000000
37.612514 28.415176 -3.511336 9.000000
19.388115 -13.389953 -0.345469 10.000000
4.087837 -6.647283 0.145750 6.000000
37.658096 28.233408 -3.547211 4.000000
55.115276 12.612959 -3.606739 3.000000
59.029591 -11.495575 -2.489007 20.000000
19.224113 -13.381020 -0.335240 6.000000
4.068322 -6.664981 0.151295 8.000000
31.343023 23.319849 -2.978579 1.000000
55.438004 12.473161 -3.634800 1.000000
54.763592 -10.873284 -2.301033 27.000000
4.034851 -6.667583 0.159166 9.000000
31.582588 23.318745 -3.027664 4.000000
64.608955 -13.074397 -2.728232 27.000000
19.961046 -14.107073 -0.324241 3.000000
4.018018 -6.666005 0.161678 10.000000
31.617447 23.165905 -3.057256 6.000000
65.945267 -13.596602 -2.786745 19.000000
19.937891 -14.200569 -0.307617 6.000000
4.014967 -6.708521 0.167863 8.000000
31.704006 23.051220 -3.091853 9.000000
65.830956 -13.824765 -2.795798 29.000000
4.020719 -6.768971 0.174540 5.000000
29.530247 21.305721 -2.910601 9.000000
65.755417 -14.060732 -2.794760 30.000000
18.020920 -13.030597 -0.260062 7.000000
6.952530 -11.788934 0.315367 9.000000
30.367891 21.741276 -3.018091 8.000000
21.066566 4.332009 -1.432288 3.000000
17.956947 -13.084832 -0.252072 9.000000
6.848599 -11.710588 0.322074 20.000000
30.261532 21.497803 -3.045321 9.000000
21.095491 4.257429 -1.455822 5.000000
18.045919 -13.251198 -0.250093 6.000000
6.842682 -11.794754 0.333255 9.000000
30.554934 21.730316 -3.135291 1.000000
21.200279 4.278577 -1.504771 6.000000
17.963177 -13.185615 -0.291702 6.000000
6.835328 -11.782079 0.318624 8.000000
29.223738 20.929857 -2.993166 7.000000
21.203997 4.360270 -1.506159 8.000000
17.990429 -13.114038 -0.310868 10.000000
6.856417 -11.723955 0.301096 19.000000
29.115351 21.014107 -2.977313 17.000000
21.182735 4.436881 -1.509589 37.000000
13.265618 -2.839059 -0.616029 4.000000
18.091274 -13.076661 -0.335082 6.000000
3.980244 -6.740962 0.161247 6.000000
29.103455 21.168188 -2.971362 10.000000
21.268251 4.536228 -1.524487 15.000000
13.412372 -2.819096 -0.631949 4.000000
19.870960 -14.257709 -0.392738 6.000000
3.985743 -6.691456 0.149548 9.000000
29.034962 21.281523 -2.953336 9.000000
21.251221 4.614093 -1.528282 10.000000
19.970655 -14.229159 -0.423741 8.000000
4.000037 -6.659812 0.139673 9.000000
29.026564 21.439352 -2.935094 11.000000
21.317486 4.710361 -1.526620 33.000000
13.735514 -2.782042 -0.660904 1.000000
20.947487 -14.804220 -0.465649 4.000000
4.023345 -6.645950 0.130182 10.000000
29.020981 21.600073 -2.923448 9.000000
13.950899 -2.772475 -0.680726 1.000000
21.169079 -14.844785 -0.491933 6.000000
4.069795 -6.641301 0.118282 9.000000
28.974735 21.731133 -2.907706 9.000000
59.087521 -11.517561 -2.912656 8.000000
21.562361 -15.014154 -0.527438 6.000000
4.115506 -6.666174 0.109394 9.000000
29.079420 21.976639 -2.900666 9.000000
19.301493 -13.335106 -0.483225 10.000000
28.999882 22.083992 -2.881581 9.000000
11.960010 2.829431 -0.857255 1.000000
55.614517 -10.418020 -2.777215 27.000000
19.508823 -13.367975 -0.511903 10.000000
6.971397 -11.178263 0.163258 9.000000
30.209545 23.180601 -2.983454 9.000000
11.915756 2.865119 -0.852680 1.000000
19.399830 -13.198964 -0.524281 9.000000
7.007788 -11.149745 0.151704 10.000000
30.038744 23.233332 -2.955369 6.000000
11.701669 2.859051 -0.838105 1.000000
19.986210 -13.491022 -0.564053 8.000000
7.043348 -11.115687 0.135512 9.000000
29.857105 23.268240 -2.912638 3.000000
11.333148 2.813069 -0.808348 1.000000
20.178280 -13.518384 -0.580863 4.000000
7.095632 -11.112215 0.121963 6.000000
11.414157 2.879748 -0.814908 1.000000
19.602751 -13.028968 -0.587580 9.000000
9.899494 -15.384585 0.146880 19.000000
11.331181 2.903029 -0.807687 1.000000
19.804420 -13.058609 -0.608758 10.000000
9.977660 -15.381876 0.128001 16.000000
11.113151 2.890617 -0.788868 1.000000
58.436188 -9.621663 -3.020834 9.000000
49.255756 -32.232063 -1.551703 11.000000
11.049693 2.917392 -0.781110 1.000000
58.539562 -9.418441 -3.034749 9.000000
25.884645 -16.790422 -0.845647 7.000000
37.446854 30.291416 -3.545445 10.000000
11.202751 3.001768 -0.792702 1.000000
58.398937 -9.176359 -3.067075 1.000000
25.798527 -16.600536 -0.856915 36.000000
7.245571 -10.913724 0.048014 8.000000
37.360683 30.448919 -3.514001 8.000000
11.138989 3.028484 -0.784922 1.000000
54.379581 -8.340672 -2.863984 1.000000
25.881081 -16.526194 -0.879191 37.000000
10.405613 -15.555462 0.045729 10.000000
38.579926 31.678633 -3.613298 8.000000
11.132624 3.070617 -0.785261 1.000000
58.236412 -8.713881 -3.075712 1.000000
26.044832 -16.509430 -0.909822 16.000000
10.512892 -15.591873 0.026257 9.000000
38.262310 31.653336 -3.550833 5.000000
11.174403 3.126257 -0.784942 1.000000
53.725800 -7.837747 -2.864459 15.000000
71.806755 -45.149151 -2.561890 1.000000
7.451311 -10.968389 0.002314 19.000000
11.119389 3.156953 -0.777870 1.000000
71.677628 -44.702225 -2.610450 1.000000
7.415190 -10.829612 -0.009163 33.000000
19.442165 16.325481 -1.784164 22.000000
10.930364 3.146622 -0.765449 1.000000
47.345863 -6.552938 -2.546772 15.000000
7.452938 -10.803649 -0.022907 6.000000
19.307219 16.333200 -1.755085 212.000000
11.014793 3.214692 -0.768158 1.000000
47.245419 -6.362643 -2.548442 30.000000
66.370033 -40.735371 -2.528920 1.000000
10.954804 -15.761898 -0.053602 9.000000
19.312923 16.459850 -1.738827 10.000000
11.027114 3.262193 -0.765814 1.000000
47.258080 -6.188083 -2.556226 16.000000
66.747482 -40.630989 -2.605876 23.000000
11.072695 -15.807575 -0.077475 17.000000
11.191898 3.355602 -0.778107 1.000000
57.720631 -7.342991 -3.130862 1.000000
11.185173 -15.838382 -0.098141 24.000000
41.691849 36.063694 -3.709740 1.000000
11.031801 3.351717 -0.763783 1.000000
57.744278 -7.141262 -3.161328 5.000000
11.298409 -15.886659 -0.122490 21.000000
42.092152 36.680527 -3.708356 1.000000
11.143675 3.430371 -0.768306 1.000000
57.667820 -6.896888 -3.165767 2.000000
70.443878 -41.843143 -2.889836 19.000000
11.420703 -15.940510 -0.140325 21.000000
44.745663 39.282360 -3.902604 1.000000
11.107468 3.463845 -0.762600 1.000000
57.472179 -6.680255 -3.153794 37.000000
11.525789 -15.963276 -0.161516 22.000000
44.692608 39.526775 -3.879213 1.000000
10.999545 3.474476 -0.756060 1.000000
57.529346 -6.473286 -3.186012 23.000000
70.080719 -40.935463 -2.976019 19.000000
11.651917 -16.019842 -0.183245 25.000000
44.479126 39.615532 -3.810028 1.000000
11.152943 3.570085 -0.759330 1.000000
57.674545 -6.255276 -3.182480 6.000000
69.982025 -40.534534 -3.022037 20.000000
11.772525 -16.061577 -0.201594 10.000000
44.447021 39.880028 -3.777916 5.000000
11.073334 3.589399 -0.754801 1.000000
57.906799 -6.086250 -3.224745 22.000000
46.810265 -26.884491 -2.045445 10.000000
11.908568 -16.128803 -0.223956 10.000000
43.913784 39.693073 -3.703443 8.000000
11.060478 3.630084 -0.748706 1.000000
46.972355 -26.749113 -2.086023 10.000000
12.015182 -16.148996 -0.249441 25.000000
43.655991 39.751762 -3.642241 13.000000
11.274637 3.746202 -0.759963 1.000000
47.020340 -26.559509 -2.131222 10.000000
12.155298 -16.218796 -0.268864 24.000000
43.518436 39.891277 -3.600412 10.000000
11.180430 3.760458 -0.754537 1.000000
69.242645 -38.777744 -3.173616 6.000000
12.265704 -16.241726 -0.291305 26.000000
43.214073 39.932693 -3.526623 22.000000
11.251972 3.830484 -0.754059 1.000000
64.676056 -5.840458 -3.619297 7.000000
69.076614 -38.352859 -3.214791 24.000000
12.394777 -16.294056 -0.314461 29.000000
42.965813 39.968243 -3.486325 21.000000
11.238106 3.871784 -0.749910 1.000000
69.035797 -37.999836 -3.247719 24.000000
12.521151 -16.335585 -0.334112 18.000000
42.730480 40.056477 -3.428395 21.000000
11.233510 3.916319 -0.746387 1.000000
64.260010 -5.305718 -3.616207 1.000000
68.992798 -37.616093 -3.293520 16.000000
12.653861 -16.378090 -0.357653 18.000000
42.573727 40.175602 -3.385484 21.000000
61.593674 -4.879979 -3.486866 10.000000
44.113831 -23.862209 -2.145926 29.000000
12.775356 -16.422491 -0.384973 27.000000
42.254654 40.168308 -3.320751 8.000000
44.173843 -23.695736 -2.171105 200.000000
12.927972 -16.499512 -0.406133 24.000000
41.982994 40.232124 -3.271342 7.000000
44.457859 -23.638664 -2.207205 220.000000
13.059284 -16.541857 -0.434109 25.000000
41.787121 40.311089 -3.205487 8.000000
44.640392 -23.526253 -2.238444 163.000000
13.188313 -16.585922 -0.451271 28.000000
41.594242 40.434509 -3.161958 1.000000
63.370506 -4.075774 -3.628111 23.000000
50.122128 -26.158676 -2.547583 10.000000
13.366996 -16.672808 -0.481212 22.000000
41.447224 40.559788 -3.120384 1.000000
63.215603 -3.833210 -3.618414 25.000000
13.469263 -16.692640 -0.501731 23.000000
41.275318 40.688782 -3.067926 7.000000
63.257236 -3.625236 -3.631184 26.000000
13.608843 -16.739708 -0.527246 18.000000
40.872696 40.588341 -2.998631 1.000000
15.965234 -8.117151 -0.841493 6.000000
13.761660 -16.801493 -0.549742 21.000000
40.926716 40.941010 -2.962931 3.000000
58.182861 -2.886335 -3.338526 24.000000
16.016781 -8.069617 -0.852057 1.000000
13.927992 -16.883993 -0.576964 20.000000
40.430035 40.727497 -2.887038 5.000000
59.768204 -2.745418 -3.439370 12.000000
49.495926 -24.710125 -2.657269 10.000000
14.027789 -16.878563 -0.597698 8.000000
40.155708 40.748779 -2.838055 8.000000
59.133308 -2.499098 -3.423013 1.000000
49.307587 -24.401461 -2.671442 20.000000
40.056694 40.947414 -2.791537 15.000000
60.319229 -2.327774 -3.491145 25.000000
49.175716 -24.112225 -2.688236 10.000000
40.085476 41.278416 -2.753738 13.000000
60.476028 -2.122437 -3.510367 25.000000
49.024422 -23.815554 -2.703783 23.000000
10.290964 -12.117529 -0.480166 17.000000
39.949726 41.426994 -2.703994 14.000000
17.832506 7.259164 -1.103402 1.000000
48.879749 -23.524235 -2.738488 26.000000
10.364217 -12.113517 -0.498219 8.000000
39.964581 41.776730 -2.655655 10.000000
17.697586 7.287192 -1.086801 15.000000
48.802078 -23.266941 -2.757721 8.000000
10.425469 -12.086548 -0.515559 7.000000
39.934074 42.022938 -2.612179 6.000000
17.519180 7.288944 -1.067511 6.000000
23.654959 -11.171547 -1.348112 9.000000
14.974032 -17.249962 -0.753775 9.000000
17.446669 7.333904 -1.058097 1.000000
15.151763 -17.326015 -0.783650 8.000000
39.666134 42.343693 -2.512943 9.000000
17.248119 7.317840 -1.037680 1.000000
48.389519 -22.420620 -2.804310 27.000000
15.336927 -17.408577 -0.810192 8.000000
40.566711 43.624432 -2.528028 13.000000
48.293045 -22.161280 -2.821892 27.000000
15.449990 -17.413984 -0.841426 9.000000
40.402111 43.752701 -2.475210 12.000000
48.149872 -21.882296 -2.836592 16.000000
15.716433 -17.584049 -0.868908 8.000000
40.354328 44.023594 -2.429947 12.000000
48.069035 -21.633341 -2.854820 26.000000
15.857157 -17.611156 -0.893823 8.000000
40.200554 44.179832 -2.388653 1.000000
19.341850 -0.040510 -1.132182 7.000000
47.947182 -21.387583 -2.880117 32.000000
15.978864 -17.634598 -0.922512 9.000000
40.140480 44.439941 -2.331937 11.000000
19.262211 0.023533 -1.124146 7.000000
47.763557 -21.096119 -2.891846 29.000000
16.217989 -17.767191 -0.953577 8.000000
40.005085 44.570747 -2.290320 7.000000
30.142147 13.565393 -1.743858 17.000000
19.356833 0.094596 -1.129681 1.000000
47.688225 -20.854300 -2.909975 33.000000
16.363588 -17.795271 -0.979428 9.000000
30.143055 13.698878 -1.729420 15.000000
19.226582 0.164432 -1.122107 1.000000
47.543507 -20.583765 -2.914663 88.000000
16.543701 -17.865572 -1.012010 9.000000
40.650299 45.962967 -2.217796 1.000000
30.134581 13.828511 -1.708620 8.000000
19.146339 0.237270 -1.110762 1.000000
47.553928 -20.381639 -2.919760 116.000000
16.721159 -17.924974 -1.031698 11.000000
40.405392 46.008682 -2.148979 7.000000
21.720646 10.063963 -1.221069 4.000000
19.215214 0.308566 -1.114816 1.000000
47.842880 -20.298244 -2.960214 26.000000
16.912693 -17.997595 -1.061030 15.000000
38.904320 44.628292 -2.036447 13.000000
21.523932 10.073385 -1.203859 1.000000
19.333336 0.381346 -1.128515 1.000000
47.886940 -20.110149 -3.003833 3.000000
17.070642 -18.039082 -1.097382 12.000000
38.868706 44.887089 -1.980112 17.000000
21.473099 10.136536 -1.186270 1.000000
18.927992 0.442758 -1.098311 1.000000
48.322060 -20.104637 -3.026929 1.000000
12.772713 -13.398615 -0.834114 7.000000
38.788586 45.143681 -1.922451 13.000000
48.580936 -19.983952 -3.065693 1.000000
17.460531 -18.182247 -1.157934 10.000000
38.678463 45.318684 -1.882794 11.000000
18.572540 -7.567972 -1.180964 9.000000
17.686089 -18.282524 -1.190687 10.000000
38.660450 45.651409 -1.827730 21.000000
18.583481 -7.485586 -1.193776 9.000000
12.856137 -13.197194 -0.878525 7.000000
38.541924 45.851154 -1.788204 21.000000
18.549938 -7.393170 -1.200365 9.000000
17.877941 -18.218149 -1.239446 19.000000
38.304157 45.876301 -1.732021 10.000000
20.252180 10.018049 -1.073435 3.000000
19.200781 0.801394 -1.118170 1.000000
18.513611 -7.307640 -1.203413 9.000000
12.796958 -12.945225 -0.899818 7.000000
38.259758 46.149620 -1.674461 7.000000
20.130924 10.050073 -1.057146 6.000000
19.123110 0.868375 -1.110472 1.000000
18.386271 -7.179600 -1.203790 9.000000
12.876740 -12.935306 -0.918215 9.000000
19.884802 10.018414 -1.034458 6.000000
19.204720 0.939267 -1.115395 1.000000
18.393444 -7.104817 -1.209455 9.000000
12.997743 -12.961496 -0.939510 22.000000
19.910761 10.123163 -1.026012 6.000000
19.375256 1.025587 -1.125530 1.000000
18.502680 -7.069187 -1.225336 9.000000
12.934568 -12.804292 -0.947470 33.000000
19.971771 10.246477 -1.019306 5.000000
18.525837 -6.992941 -1.231940 9.000000
13.062725 -12.836704 -0.969431 17.000000
19.841709 10.271789 -0.995046 4.000000
18.504391 -6.907467 -1.232283 9.000000
13.162684 -12.840442 -0.989443 19.000000
19.952467 10.417599 -0.986673 5.000000
18.482365 -6.822169 -1.236046 10.000000
13.027507 -12.620124 -0.991839 16.000000
13.285244 6.998589 -0.650358 6.000000
18.447828 -6.739995 -1.246001 10.000000
13.044258 -12.544003 -1.005448 19.000000
13.312735 7.075526 -0.645060 8.000000
65.083023 -23.508347 -4.426361 34.000000
13.085895 -12.492051 -1.020958 15.000000
37.731640 48.276928 -1.229986 10.000000
13.225273 7.091330 -0.636830 6.000000
65.176697 -23.272486 -4.451158 18.000000
13.254134 -12.560129 -1.046472 22.000000
37.497746 48.359230 -1.164299 11.000000
13.168729 7.123275 -0.627507 10.000000
62.458107 -22.019480 -4.294245 17.000000
13.276140 -12.484579 -1.060374 12.000000
37.287437 48.453701 -1.099228 10.000000
12.998102 7.092682 -0.612844 42.000000
62.367355 -21.730818 -4.305652 25.000000
13.353262 -12.473922 -1.079225 24.000000
37.499973 49.047928 -1.056134 1.000000
13.011964 7.162263 -0.599151 9.000000
62.371098 -21.476093 -4.300447 23.000000
13.226464 -12.265003 -1.074814 9.000000
37.347687 49.221600 -1.002985 1.000000
10.801927 5.997468 -0.491917 17.000000
62.448986 -21.259369 -4.323801 34.000000
13.079552 -12.039909 -1.077966 33.000000
10.698318 5.988893 -0.481718 30.000000
62.479649 -20.990313 -4.354715 19.000000
13.207627 -12.068678 -1.100540 10.000000
10.650481 6.013489 -0.472001 35.000000
68.523880 6.646385 -3.885220 1.000000
52.330414 -17.387728 -3.662627 35.000000
13.236270 -12.006126 -1.114908 35.000000
36.957233 49.799263 -0.822640 8.000000
10.619899 6.047661 -0.465217 28.000000
68.243340 6.895807 -3.870852 1.000000
13.207071 -11.895875 -1.121401 13.000000
37.705891 51.199127 -0.776879 5.000000
10.589275 6.081728 -0.456311 26.000000
12.409958 -4.022663 -0.875639 1.000000
13.328111 -11.916706 -1.140495 10.000000
37.651257 51.500473 -0.723772 15.000000
10.588738 6.133140 -0.450838 24.000000
12.249756 -3.916464 -0.869983 1.000000
13.367370 -11.863935 -1.152654 19.000000
37.547813 51.756077 -0.658458 7.000000
10.590121 6.180931 -0.445338 24.000000
12.400473 -3.919374 -0.882040 1.000000
13.526059 -11.916435 -1.178361 36.000000
37.621559 52.240410 -0.584286 5.000000
10.618376 6.252206 -0.434612 1.000000
12.657170 -3.949541 -0.906237 1.000000
13.531308 -11.833256 -1.190787 15.000000
37.276051 52.162750 -0.525932 1.000000
10.582630 6.283506 -0.429787 12.000000
12.242209 -3.770874 -0.880024 5.000000
13.830140 -12.005416 -1.226047 13.000000
10.615582 6.355812 -0.421259 38.000000
12.227017 -3.717183 -0.882428 5.000000
13.816545 -11.905097 -1.236953 24.000000
10.626691 6.415490 -0.413954 9.000000
12.231349 -3.667254 -0.886197 1.000000
13.836518 -11.834220 -1.250812 7.000000
12.244411 -3.622311 -0.890654 1.000000
14.054046 -11.931354 -1.279447 1.000000
11.275126 6.917529 -0.429574 5.000000
12.305185 -3.591295 -0.898608 1.000000
20.520519 -17.298254 -1.886167 15.000000
13.224264 19.219858 -0.069221 6.000000
11.398702 7.050980 -0.425897 29.000000
63.300125 8.727322 -3.505384 2.000000
12.370839 -3.561305 -0.904701 1.000000
20.590418 -17.228477 -1.905611 10.000000
13.111474 19.206297 -0.048705 21.000000
11.360371 7.084970 -0.413737 31.000000
12.138808 -3.446381 -0.891229 1.000000
20.721197 -17.209179 -1.935490 10.000000
13.020228 19.201908 -0.020246 1.000000
11.362447 7.138709 -0.405295 2.000000
12.309855 -3.446239 -0.902854 4.000000
20.837221 -17.176880 -1.954646 15.000000
35.856522 53.319923 0.000000 4.000000
11.770021 7.457961 -0.411115 1.000000
12.139406 -3.350589 -0.893864 1.000000
20.918005 -17.115093 -1.980038 11.000000
12.773080 19.145185 0.024101 3.000000
12.074305 -3.285042 -0.892568 1.000000
21.037579 -17.084587 -2.004438 12.000000
12.714428 19.202122 0.052253 6.000000
72.541527 46.713989 -2.410056 31.000000
21.945436 3.440488 -1.183599 6.000000
12.096162 -3.241157 -0.897650 1.000000
21.145544 -17.044031 -2.027825 17.000000
12.573748 19.127150 0.071911 5.000000
72.681145 47.145599 -2.359348 26.000000
21.889738 3.506168 -1.177335 1.000000
12.146232 -3.206905 -0.904895 1.000000
21.260988 -17.008907 -2.056798 27.000000
72.701233 47.520008 -2.319861 24.000000
21.995195 3.605793 -1.179809 3.000000
12.124119 -3.153578 -0.902381 1.000000
21.300816 -16.925232 -2.069537 18.000000
72.603355 47.873093 -2.246907 5.000000
12.154766 -3.114031 -0.906008 1.000000
16.598242 -13.080301 -1.622371 25.000000
21.780266 3.742534 -1.162052 3.000000
12.209310 -3.080363 -0.913644 1.000000
16.585827 -12.972258 -1.638682 9.000000
74.039696 49.565258 -2.161967 1.000000
21.591074 3.783780 -1.144948 6.000000
12.104055 -3.006663 -0.909314 1.000000
16.723145 -12.981153 -1.658689 24.000000
73.676834 49.695652 -2.094345 16.000000
21.646072 3.875245 -1.144762 3.000000
12.100307 -2.958688 -0.910397 1.000000
16.682823 -12.852141 -1.664800 9.000000
73.316757 49.882156 -2.027843 19.000000
21.696163 3.966336 -1.136593 7.000000
12.106730 -2.911039 -0.910032 1.000000
16.689058 -12.759749 -1.679193 42.000000
73.486099 50.354671 -1.974911 23.000000
21.686586 4.046782 -1.133000 7.000000
12.607123 -2.982521 -0.951364 1.000000
73.614670 50.859245 -1.889858 29.000000
21.583696 4.109503 -1.120714 7.000000
12.219556 -2.843580 -0.923526 1.000000
34.655014 56.574005 0.856915 1.000000
73.752922 51.355129 -1.835458 21.000000
21.853382 4.243909 -1.123831 3.000000
12.220175 -2.796549 -0.922792 1.000000
34.506649 56.798119 0.927996 11.000000
73.880318 51.846939 -1.780308 23.000000
21.950541 4.346324 -1.125724 4.000000
12.229869 -2.751635 -0.929356 1.000000
16.380810 27.176222 0.481857 8.000000
73.946960 52.241196 -1.706820 23.000000
22.071909 4.454486 -1.124898 3.000000
12.264215 -2.712175 -0.931204 1.000000
17.931093 -13.195805 -1.849935 6.000000
74.183540 52.816990 -1.653141 24.000000
21.913773 4.506224 -1.113759 3.000000
12.342438 -2.679806 -0.940788 1.000000
17.917933 -13.085153 -1.859215 9.000000
74.319397 53.325268 -1.596633 33.000000
21.995436 4.607107 -1.106964 1.000000
12.425162 -2.650117 -0.948577 1.000000
17.976820 -13.027398 -1.875967 6.000000
12.600720 -2.639314 -0.961235 5.000000
21.684195 -15.593155 -2.270955 9.000000
38.518742 28.057467 -0.748611 10.000000
12.766428 -2.625216 -0.975422 2.000000
21.662855 -15.457670 -2.281486 16.000000
12.922421 -2.607964 -0.988918 1.000000
10.383364 -7.351831 -1.099656 1.000000
75.389771 55.744781 -1.309234 1.000000
13.273807 -2.630692 -1.015100 1.000000
10.515739 -7.387844 -1.117580 6.000000
75.321976 56.122818 -1.246031 27.000000
13.538608 -2.626734 -1.036956 1.000000
10.539299 -7.344116 -1.126115 6.000000
75.364655 56.585384 -1.151452 25.000000
67.435730 15.680379 -3.228697 1.000000
75.542435 57.132298 -1.058011 24.000000
67.360542 15.923357 -3.179444 1.000000
13.831262 -2.583454 -1.055494 1.000000
19.249660 -13.205207 -2.066941 26.000000
67.398567 16.156084 -3.050288 1.000000
75.532074 57.124458 -0.859503 29.000000
13.931621 -2.602199 -1.030821 1.000000
75.396675 56.588852 -0.904961 25.000000
10.721028 -7.418056 -1.117680 4.000000
75.214111 56.022041 -0.965780 26.000000
13.653465 -2.656438 -0.994604 1.000000
75.281952 55.644741 -0.996707 1.000000
13.272015 -2.632745 -0.965140 5.000000
52.635902 38.622498 -0.740676 4.000000
13.161037 -2.656121 -0.950639 1.000000
21.822819 -15.457136 -2.226825 9.000000
38.432720 27.984541 -0.564262 10.000000
12.920994 -2.661701 -0.929437 3.000000
21.601303 -15.419439 -2.186655 17.000000
34.479389 58.581142 1.435739 1.000000
52.422424 37.877834 -0.812771 10.000000
12.643143 -2.652807 -0.903346 4.000000
34.597694 58.315517 1.361143 1.000000
74.252220 53.257442 -1.212141 28.000000
12.618856 -2.696035 -0.900048 5.000000
74.234772 52.833942 -1.240498 26.000000
12.447879 -2.709525 -0.884120 1.000000
16.369253 27.146332 0.575459 8.000000
73.977974 52.243748 -1.296238 21.000000
12.365264 -2.739049 -0.872296 1.000000
16.991564 -12.508962 -1.664269 8.000000
34.647297 57.007202 1.141138 7.000000
74.073158 51.924404 -1.357888 14.000000
12.297042 -2.771258 -0.863773 1.000000
16.802408 -12.464925 -1.635510 9.000000
34.636986 56.522427 1.087675 17.000000
73.585373 51.181271 -1.376794 1.000000
12.535223 -2.873252 -0.874472 1.000000
16.597811 -12.407715 -1.605456 13.000000
34.721695 56.219219 1.014953 18.000000
73.644112 50.822636 -1.436882 18.000000
22.537786 4.287084 -1.029749 1.000000
12.447170 -2.901128 -0.864584 1.000000
16.445599 -12.388149 -1.580654 15.000000
34.875999 56.030632 0.944611 6.000000
73.449539 50.291950 -1.491642 25.000000
22.209448 4.140339 -1.017998 1.000000
12.354077 -2.927211 -0.856631 1.000000
16.583855 -12.587831 -1.580091 61.000000
73.380035 49.869022 -1.533154 27.000000
22.676706 4.141502 -1.034681 2.000000
12.241703 -2.948013 -0.845167 1.000000
16.665428 -12.746292 -1.573891 36.000000
73.756470 49.730637 -1.583792 29.000000
22.578287 4.038070 -1.037531 1.000000
16.765596 -12.920574 -1.572953 9.000000
74.203239 49.637238 -1.651814 21.000000
22.789558 3.989712 -1.050607 2.000000
12.400157 -3.080215 -0.846407 1.000000
16.904535 -13.126684 -1.567956 40.000000
74.891853 49.701523 -1.725850 26.000000
22.680771 3.885044 -1.048953 2.000000
12.450862 -3.145928 -0.846221 1.000000
16.582445 -12.974280 -1.524010 26.000000
72.793251 47.943634 -1.704059 16.000000
22.626070 3.790365 -1.041761 1.000000
12.425176 -3.187932 -0.838518 1.000000
16.551279 -13.047976 -1.510741 24.000000
72.779144 47.552803 -1.760355 24.000000
22.541048 3.691238 -1.041211 2.000000
12.312296 -3.207113 -0.827228 1.000000
21.288265 -16.909201 -1.929683 14.000000
72.712791 47.130070 -1.815079 21.000000
73.043594 11.686613 -3.384951 129.000000
12.316343 -3.251819 -0.823755 1.000000
21.246925 -17.003738 -1.907706 13.000000
73.182770 47.054688 -1.868070 26.000000
73.016266 11.407930 -3.394649 169.000000
12.328580 -3.303433 -0.823141 1.000000
21.149639 -17.047331 -1.885246 10.000000
13.048239 19.550222 0.131276 2.000000
73.796364 47.085930 -1.940668 22.000000
73.189728 11.160386 -3.426687 9.000000
12.417190 -3.378330 -0.825406 1.000000
21.061430 -17.103956 -1.854411 19.000000
13.047304 19.394493 0.110152 6.000000
11.708387 7.410319 -0.316865 1.000000
73.076408 10.869191 -3.432416 14.000000
12.400191 -3.422568 -0.820596 1.000000
20.922379 -17.118671 -1.828720 13.000000
13.121734 19.344336 0.085674 8.000000
11.375525 7.141387 -0.311837 35.000000
73.301079 10.615088 -3.428075 9.000000
12.328971 -3.456232 -0.812307 2.000000
20.845320 -17.183556 -1.803796 12.000000
13.122036 19.192980 0.064926 10.000000
11.371733 7.081034 -0.320377 8.000000
12.302363 -3.497457 -0.802428 1.000000
20.694885 -17.187326 -1.777354 17.000000
