VERSION .7
FIELDS x y z intensity
SIZE 4 4 4 4
TYPE F F F F
COUNT 1 1 1 1
WIDTH 1247
HEIGHT 1
VIEWPOINT 0 0 0 1 0 0 0
POINTS 1247
DATA ascii
10.818587 -6.508175 -1.949987 9.000000
12.717528 -17.948322 -1.967070 8.000000
8.830704 7.903884 -1.883419 1.000000
9.516083 3.020507 -1.909959 1.000000
10.134953 -1.188790 -1.928148 3.000000
10.765111 -6.422389 -1.942813 3.000000
12.492481 -17.500887 -1.945499 8.000000
8.806317 7.940383 -1.875926 1.000000
9.514082 3.060134 -1.910094 2.000000
10.113831 -1.148749 -1.928836 3.000000
10.756472 -6.363894 -1.954905 1.000000
12.351320 -17.176025 -1.943952 8.000000
8.826136 8.017097 -1.873598 1.000000
9.522431 3.101377 -1.908605 2.000000
10.142919 -1.112622 -1.931710 1.000000
10.710967 -6.284087 -1.946877 1.000000
12.339705 -17.034111 -1.958671 8.000000
8.891848 8.130763 -1.882487 1.000000
9.497091 3.133509 -1.902306 1.000000
10.141224 -1.073044 -1.936119 7.000000
10.685789 -6.216781 -1.946990 1.000000
12.259751 -16.793837 -1.961823 8.000000
8.907041 8.204801 -1.879069 1.000000
9.513888 3.179610 -1.902660 5.000000
10.130092 -1.034336 -1.935099 1.000000
10.638289 -6.137069 -1.947406 1.000000
12.039687 -16.372074 -1.942504 8.000000
8.910948 8.268977 -1.873239 1.000000
9.535689 3.225798 -1.903911 4.000000
10.119323 -0.993991 -1.932298 3.000000
10.603809 -6.065488 -1.945756 8.000000
12.018523 -16.224327 -1.951279 8.000000
8.976083 8.396731 -1.885219 1.000000
9.542138 3.268865 -1.905868 1.000000
10.112277 -0.954111 -1.935750 1.000000
10.576954 -5.998783 -1.949839 1.000000
11.900644 -15.942698 -1.950682 8.000000
8.954929 8.429851 -1.870953 1.000000
9.558576 3.313691 -1.907907 1.000000
10.062233 -0.912194 -1.923690 1.000000
10.559548 -5.937865 -1.946943 1.000000
11.844144 -15.752003 -1.956709 8.000000
8.997745 8.538540 -1.873756 1.000000
9.518902 3.340935 -1.897065 1.000000
10.109365 -0.877344 -1.933878 3.000000
10.516404 -5.860570 -1.943448 1.000000
11.729397 -15.486558 -1.952781 8.000000
9.057158 8.658233 -1.879306 1.000000
9.590888 3.405733 -1.908369 1.000000
10.073503 -0.835273 -1.926390 1.000000
10.492827 -5.797132 -1.948034 7.000000
11.685242 -15.311335 -1.956450 8.000000
9.004396 8.665124 -1.865391 1.000000
9.578678 3.442872 -1.903040 1.000000
10.040940 -0.799056 -1.925112 1.000000
10.478186 -5.739016 -1.949959 4.000000
11.537086 -15.008287 -1.946230 5.000000
9.140882 8.861225 -1.886755 5.000000
9.585408 3.485015 -1.901375 1.000000
10.053392 -0.761212 -1.928748 1.000000
10.454589 -5.676378 -1.950210 3.000000
11.542273 -14.907051 -1.961595 6.000000
9.092056 8.878764 -1.869783 5.000000
9.609486 3.535602 -1.905132 1.000000
10.071189 -0.720145 -1.931567 2.000000
10.395926 -5.595289 -1.943893 4.000000
11.421215 -14.639543 -1.951546 5.000000
9.125896 8.974257 -1.869481 5.000000
9.611217 3.576290 -1.902506 1.000000
10.039127 -0.680879 -1.926747 3.000000
10.349877 -5.521678 -1.939898 1.000000
11.307739 -14.390234 -1.949402 5.000000
9.140029 9.054289 -1.865404 5.000000
9.616752 3.620447 -1.900774 1.000000
10.036767 -0.642013 -1.925806 1.000000
10.352360 -5.472043 -1.944811 8.000000
11.313059 -14.288890 -1.957363 7.000000
9.206246 9.186985 -1.871874 5.000000
9.617513 3.661036 -1.901707 1.000000
10.038610 -0.606954 -1.927562 5.000000
10.305011 -5.398786 -1.944706 3.000000
11.209296 -14.056732 -1.956306 7.000000
9.215781 9.264161 -1.866739 4.000000
9.628550 3.703769 -1.900848 1.000000
10.016255 -0.568764 -1.922856 1.000000
10.295699 -5.350469 -1.945835 1.000000
11.175874 -13.914898 -1.964050 7.000000
9.243899 9.357531 -1.864986 5.000000
9.664940 3.762374 -1.905385 1.000000
10.012639 -0.526493 -1.927165 1.000000
10.258890 -5.279145 -1.943140 4.000000
11.156727 -13.787248 -1.970591 5.000000
9.248581 9.431160 -1.863486 5.000000
9.628776 3.790934 -1.893643 1.000000
9.984990 -0.490094 -1.921502 3.000000
10.219864 -5.211775 -1.940354 6.000000
10.992725 -13.488023 -1.957895 6.000000
9.312021 9.565735 -1.869064 5.000000
9.661439 3.844754 -1.897199 1.000000
10.006340 -0.454385 -1.925277 2.000000
10.190190 -5.147436 -1.939153 1.000000
10.943871 -13.332773 -1.959187 6.000000
9.316110 9.640376 -1.862652 4.000000
9.611016 3.867501 -1.884595 1.000000
10.037109 -0.417170 -1.932693 1.000000
10.190145 -5.100620 -1.943760 1.000000
10.899328 -13.179707 -1.963719 7.000000
9.369485 9.763583 -1.865684 3.000000
9.615918 3.910486 -1.882740 1.000000
9.994478 -0.376962 -1.924191 1.000000
10.141026 -5.029637 -1.941028 8.000000
10.835874 -13.010236 -1.962059 6.000000
9.430652 9.899700 -1.870488 5.000000
9.634979 3.957488 -1.883532 1.000000
9.956535 -0.338991 -1.916634 5.000000
10.132247 -4.979095 -1.939899 4.000000
10.677641 -12.725117 -1.945520 7.000000
9.446710 9.989614 -1.866258 5.000000
9.642645 4.005949 -1.882514 1.000000
9.996690 -0.301934 -1.925937 4.000000
10.114627 -4.922311 -1.940978 1.000000
10.662983 -12.617937 -1.952351 7.000000
9.535453 10.154225 -1.873451 5.000000
9.682952 4.064373 -1.889494 1.000000
10.011827 -0.263918 -1.932270 4.000000
10.091132 -4.865213 -1.943104 8.000000
10.585084 -12.433035 -1.952853 7.000000
9.513022 10.205038 -1.861509 5.000000
9.686307 4.109598 -1.887527 1.000000
9.963645 -0.226107 -1.922798 1.000000
10.049886 -4.800011 -1.939771 7.000000
10.520455 -12.270091 -1.950186 7.000000
9.480242 10.244901 -1.847554 5.000000
9.708277 4.160973 -1.889059 2.000000
9.974928 -0.188045 -1.921210 1.000000
10.049513 -4.752529 -1.942160 6.000000
10.418238 -12.061130 -1.937142 6.000000
9.573190 10.418061 -1.857670 4.000000
9.744293 4.216733 -1.893183 1.000000
9.999450 -0.150101 -1.929428 1.000000
10.003198 -4.685840 -1.937825 6.000000
10.390090 -11.944009 -1.946579 6.000000
9.606416 10.531436 -1.856413 5.000000
9.782618 4.280022 -1.896261 1.000000
9.965569 -0.113061 -1.922798 5.000000
9.983647 -4.632137 -1.936677 5.000000
10.282011 -11.732646 -1.934847 5.000000
9.595894 10.597654 -1.844113 1.000000
9.799296 4.330179 -1.896772 1.000000
9.985567 -0.074942 -1.926586 3.000000
9.981123 -4.586583 -1.942797 5.000000
10.258958 -11.624228 -1.942097 7.000000
9.702718 10.791101 -1.856423 4.000000
9.765818 4.360282 -1.885819 1.000000
9.932111 -0.036403 -1.914434 4.000000
9.966673 -4.533674 -1.940524 8.000000
10.190884 -11.470201 -1.935600 6.000000
9.759960 10.935111 -1.862032 2.000000
9.810575 4.419342 -1.891473 1.000000
9.936753 0.000000 -1.917114 1.000000
9.935229 -4.479667 -1.941310 4.000000
10.092340 -11.275782 -1.927806 6.000000
9.842271 11.097314 -1.865965 4.000000
9.827372 4.468238 -1.891880 6.000000
9.951432 0.031263 -1.919956 4.000000
9.904936 -4.424469 -1.938222 5.000000
10.077156 -11.180038 -1.933459 7.000000
9.852405 11.183228 -1.861697 5.000000
9.865542 4.529301 -1.896553 1.000000
9.956147 0.069508 -1.920903 1.000000
9.893150 -4.375781 -1.938609 4.000000
10.046699 -11.064432 -1.935733 7.000000
9.930438 11.355439 -1.865579 5.000000
9.841136 4.561842 -1.887260 1.000000
9.960699 0.109528 -1.921850 3.000000
9.895735 -4.331570 -1.939734 7.000000
9.929984 -10.859486 -1.921600 6.000000
10.099676 11.638845 -1.886643 6.000000
9.867742 4.624488 -1.888223 1.000000
9.945477 0.147555 -1.919009 1.000000
9.870845 -4.273541 -1.941168 5.000000
9.978427 -10.832470 -1.938966 6.000000
10.142457 11.775057 -1.886167 7.000000
9.844336 4.653396 -1.880815 4.000000
9.964473 0.186108 -1.922798 1.000000
9.808320 -4.203851 -1.933523 7.000000
9.911931 -10.681453 -1.936539 6.000000
10.079985 11.785475 -1.865711 6.000000
9.868421 4.709110 -1.880841 1.000000
9.953906 0.222409 -1.920903 1.000000
9.850631 -4.177287 -1.944474 4.000000
9.876710 -10.569263 -1.937856 5.000000
10.083174 11.877058 -1.855039 6.000000
9.903890 4.774939 -1.883337 1.000000
9.933349 0.260114 -1.917114 1.000000
9.796901 -4.112203 -1.936628 6.000000
9.842662 -10.455743 -1.938954 6.000000
10.170707 12.065275 -1.864915 6.000000
9.921819 4.830623 -1.884313 6.000000
9.942426 0.298558 -1.917273 1.000000
9.788259 -4.066443 -1.937695 6.000000
9.809295 -10.347686 -1.942993 6.000000
10.383033 12.409163 -1.889271 3.000000
9.962735 4.895796 -1.887504 1.000000
9.985426 0.336485 -1.925790 3.000000
9.743413 -4.004014 -1.933360 9.000000
9.767295 -10.228035 -1.939808 6.000000
10.481586 12.607212 -1.899899 5.000000
9.960582 4.935812 -1.884198 1.000000
9.949846 0.370061 -1.919165 3.000000
9.746902 -3.967718 -1.935228 6.000000
9.734393 -10.119065 -1.943375 6.000000
10.541113 12.773760 -1.898660 5.000000
10.000050 5.003286 -1.887254 1.000000
9.968309 0.409082 -1.921210 1.000000
9.728881 -3.916904 -1.936221 5.000000
9.680350 -9.996326 -1.940811 6.000000
10.588816 12.923194 -1.900596 1.000000
10.026834 5.062722 -1.887734 3.000000
10.001077 0.447150 -1.927828 2.000000
9.725310 -3.870171 -1.938070 8.000000
9.644618 -9.883207 -1.940769 6.000000
10.781093 13.256674 -1.922673 1.000000
10.018171 5.104513 -1.881543 4.000000
9.974767 0.484357 -1.923101 6.000000
9.718536 -3.830193 -1.941722 5.000000
9.644641 -9.811032 -1.948218 6.000000
10.839031 13.423368 -1.923056 2.000000
10.052902 5.168708 -1.885527 1.000000
9.977401 0.522893 -1.925790 1.000000
9.696588 -3.774694 -1.941677 6.000000
9.578090 -9.672165 -1.942144 6.000000
10.929123 13.641776 -1.920526 1.000000
10.058883 5.225171 -1.880572 10.000000
9.971088 0.560962 -1.921358 1.000000
9.673998 -3.723189 -1.936149 9.000000
9.543953 -9.570642 -1.942880 6.000000
11.085824 13.931799 -1.943591 1.000000
10.077332 5.277263 -1.881163 7.000000
10.013412 0.600168 -1.928108 3.000000
9.620733 -3.666107 -1.930484 3.000000
9.461791 -9.418951 -1.933385 6.000000
11.088104 14.034939 -1.927300 3.000000
10.093978 5.333213 -1.879719 1.000000
9.996333 0.637674 -1.925277 1.000000
9.592720 -3.613312 -1.925769 5.000000
9.452573 -9.341048 -1.938704 6.000000
11.194493 14.276867 -1.932455 1.000000
10.110351 5.389358 -1.878220 1.000000
9.954953 0.673424 -1.915986 7.000000
9.609557 -3.579491 -1.932062 8.000000
9.361693 -9.183666 -1.927176 6.000000
11.356586 14.588178 -1.949638 3.000000
10.140067 5.453017 -1.875062 1.000000
10.020988 0.714797 -1.929186 5.000000
9.590323 -3.530452 -1.929149 9.000000
9.370985 -9.128809 -1.936515 6.000000
11.465635 14.840152 -1.954519 1.000000
10.158669 5.513411 -1.878261 1.000000
9.994021 0.751454 -1.922723 1.000000
9.574549 -3.484851 -1.928920 7.000000
9.342483 -9.034544 -1.937679 6.000000
11.566564 15.079288 -1.957218 1.000000
10.182834 5.574939 -1.878177 1.000000
9.986503 0.789462 -1.920032 1.000000
9.600776 -3.452707 -1.937052 8.000000
9.227818 -8.858438 -1.920845 6.000000
11.665773 15.319063 -1.962666 6.000000
10.172120 5.617629 -1.871662 1.000000
9.998224 0.827274 -1.922856 1.000000
9.551608 -3.395540 -1.933775 7.000000
9.301709 -8.864092 -1.943212 6.000000
11.772957 15.577939 -1.966191 6.000000
10.234547 5.701156 -1.878590 1.000000
9.985522 0.864840 -1.919224 1.000000
9.549451 -3.355401 -1.934498 3.000000
9.239536 -8.740450 -1.934872 6.000000
11.839379 15.780042 -1.962128 6.000000
10.266378 5.768293 -1.879869 1.000000
9.987352 0.903648 -1.918414 1.000000
9.529469 -3.307327 -1.929688 7.000000
9.214474 -8.655994 -1.936833 1.000000
12.079711 16.217987 -1.989944 6.000000
10.271067 5.822928 -1.876356 5.000000
9.974527 0.939358 -1.914787 1.000000
9.535856 -3.268573 -1.937546 5.000000
9.165141 -8.546633 -1.933299 1.000000
12.166570 16.460192 -1.988931 6.000000
10.306064 5.895175 -1.874126 5.000000
10.000173 0.980525 -1.920418 4.000000
9.506721 -3.215998 -1.930804 8.000000
9.089767 -8.414271 -1.924163 1.000000
12.275355 16.729223 -1.990662 6.000000
10.320786 5.951505 -1.872046 1.000000
10.006439 1.019946 -1.920540 1.000000
9.507937 -3.179466 -1.932414 6.000000
9.148406 -8.406500 -1.941146 3.000000
12.400218 17.023661 -1.990861 6.000000
10.372625 6.032166 -1.876863 1.000000
10.018287 1.058268 -1.918079 1.000000
9.509242 -3.141199 -1.935766 7.000000
9.086420 -8.288321 -1.934731 1.000000
12.610508 17.439951 -2.007859 6.000000
10.356118 6.073469 -1.867160 1.000000
9.999169 1.095087 -1.917029 1.000000
9.459599 -3.084566 -1.928640 8.000000
9.034695 -8.180675 -1.930401 7.000000
12.718971 17.726421 -2.012416 6.000000
10.402957 6.152291 -1.871017 1.000000
10.025369 1.135157 -1.917363 3.000000
9.465528 -3.048163 -1.931159 4.000000
9.059940 -8.143302 -1.938124 1.000000
12.857756 18.052553 -2.017028 6.000000
10.458415 6.236941 -1.872035 1.000000
10.031437 1.171324 -1.917467 1.000000
9.476198 -3.011489 -1.936366 8.000000
9.025580 -8.052810 -1.937436 1.000000
13.169809 18.627951 -2.048069 6.000000
10.491105 6.308677 -1.877638 1.000000
10.007266 1.211012 -1.911977 2.000000
9.458949 -2.966068 -1.934092 7.000000
8.985353 -7.960759 -1.937870 1.000000
13.260188 18.902382 -2.044451 6.000000
10.494669 6.363310 -1.871477 1.000000
10.027466 1.250764 -1.914872 5.000000
9.459414 -2.928178 -1.937362 7.000000
8.959234 -7.876423 -1.934246 5.000000
13.520025 19.416588 -2.065820 6.000000
10.552523 6.451403 -1.877163 1.000000
10.047734 1.288927 -1.917759 1.000000
9.441782 -2.883039 -1.935048 7.000000
8.903104 -7.772148 -1.931080 1.000000
13.558386 19.617352 -2.052778 7.000000
10.576771 6.519603 -1.872406 1.000000
10.043042 1.327542 -1.915991 2.000000
9.399966 -2.832647 -1.927896 7.000000
8.889493 -7.703036 -1.930424 1.000000
13.973372 20.369438 -2.091619 7.000000
10.579110 6.574674 -1.868181 1.000000
10.058099 1.370635 -1.914393 4.000000
9.415154 -2.797835 -1.930574 7.000000
8.867765 -7.627481 -1.930105 2.000000
13.886787 20.395479 -2.058944 8.000000
10.631752 6.661530 -1.870583 5.000000
10.028593 1.402288 -1.911527 1.000000
9.401640 -2.754576 -1.929172 7.000000
8.807841 -7.519948 -1.923511 5.000000
14.097658 20.869196 -2.074982 20.000000
10.625093 6.711715 -1.864759 9.000000
10.096416 1.451318 -1.923659 1.000000
9.424189 -2.723716 -1.940631 9.000000
8.717426 -7.387686 -1.908088 5.000000
14.148239 21.102501 -2.062008 7.000000
10.651856 6.783368 -1.862546 1.000000
10.092355 1.488509 -1.916537 2.000000
9.406273 -2.679447 -1.934809 7.000000
8.674991 -7.297260 -1.905137 5.000000
14.200124 21.340565 -2.048894 7.000000
10.678517 6.855486 -1.858013 6.000000
10.096612 1.528772 -1.916602 1.000000
9.387508 -2.635174 -1.932391 7.000000
8.701923 -7.263043 -1.913050 4.000000
14.981174 22.685665 -2.139580 8.000000
10.712829 6.933092 -1.857019 5.000000
10.096128 1.566572 -1.915741 1.000000
9.401180 -2.601878 -1.936768 2.000000
8.645971 -7.165287 -1.907336 6.000000
14.919914 22.765316 -2.103931 7.000000
10.750596 7.013574 -1.858859 5.000000
10.100076 1.606924 -1.915799 4.000000
9.395927 -2.561624 -1.938946 4.000000
8.615284 -7.084232 -1.902564 5.000000
15.015718 23.086874 -2.094947 7.000000
10.817139 7.113642 -1.863327 5.000000
10.109043 1.648173 -1.914985 5.000000
9.381362 -2.518994 -1.937456 7.000000
8.601465 -7.020185 -1.905784 6.000000
10.833329 7.181306 -1.861376 5.000000
10.113618 1.686996 -1.911455 3.000000
9.328258 -2.468116 -1.928110 8.000000
8.568414 -6.941041 -1.902720 5.000000
10.896985 7.275632 -1.867115 5.000000
10.111582 1.726588 -1.914161 1.000000
9.365480 -2.439525 -1.937367 8.000000
8.567058 -6.893016 -1.907215 5.000000
16.994110 26.726852 -2.292513 4.000000
10.943490 7.370367 -1.863693 5.000000
10.106501 1.763867 -1.907000 37.000000
9.332036 -2.392588 -1.928534 7.000000
8.579412 -6.851306 -1.914233 6.000000
16.989019 26.946806 -2.255473 8.000000
10.983292 7.455833 -1.863299 5.000000
10.051586 1.794080 -1.896080 84.000000
9.335337 -2.357003 -1.930913 6.000000
8.601409 -6.812506 -1.924866 7.000000
17.085510 27.289509 -2.245771 7.000000
10.989923 7.519325 -1.857239 5.000000
10.031732 1.828501 -1.886223 47.000000
9.338905 -2.319796 -1.933289 4.000000
8.482024 -6.667507 -1.900433 7.000000
11.053052 7.622143 -1.863061 5.000000
10.058797 1.873369 -1.890804 35.000000
9.308995 -2.274453 -1.928756 9.000000
8.493448 -6.626265 -1.907232 6.000000
19.331890 31.362183 -2.479315 5.000000
11.117736 7.724150 -1.861642 5.000000
10.090819 1.919452 -1.894487 40.000000
9.350630 -2.248340 -1.935662 7.000000
8.489113 -6.572973 -1.910500 7.000000
19.284184 31.530655 -2.428983 6.000000
11.139372 7.799872 -1.857949 5.000000
10.079215 1.955550 -1.891788 9.000000
9.310837 -2.200989 -1.929136 6.000000
8.457184 -6.498811 -1.907545 5.000000
20.777802 34.240757 -2.583014 6.000000
11.240024 7.926027 -1.869331 5.000000
10.216995 2.023020 -1.915334 1.000000
9.309015 -2.162851 -1.930495 6.000000
8.458927 -6.453313 -1.912429 7.000000
20.739550 34.448277 -2.543866 8.000000
11.333391 8.054222 -1.877399 5.000000
10.210820 2.060717 -1.908062 3.000000
9.321000 -2.129658 -1.934823 9.000000
8.418689 -6.373937 -1.905648 4.000000
21.302910 35.679306 -2.578020 6.000000
11.415612 8.181819 -1.878976 5.000000
10.174254 2.094027 -1.900843 3.000000
9.319545 -2.091706 -1.932839 6.000000
8.379927 -6.291827 -1.900586 6.000000
21.275341 35.903091 -2.530588 9.000000
11.445742 8.261005 -1.878404 5.000000
10.240118 2.143003 -1.910692 1.000000
9.316560 -2.056903 -1.934186 6.000000
8.395470 -6.260070 -1.908833 7.000000
21.403309 36.422775 -2.502472 2.000000
11.514000 8.380772 -1.882466 5.000000
10.265376 2.193211 -1.913316 1.000000
9.300488 -2.012536 -1.932541 7.000000
8.359871 -6.181464 -1.904458 6.000000
22.750700 39.026924 -2.620541 1.000000
11.661423 8.544251 -1.892980 6.000000
10.259025 2.227453 -1.907820 1.000000
9.307472 -1.978364 -1.934202 7.000000
8.328521 -6.113432 -1.901763 7.000000
22.807951 39.425037 -2.578376 1.000000
11.720074 8.659742 -1.895195 6.000000
10.327106 2.287573 -1.918432 3.000000
9.295153 -1.938473 -1.933532 5.000000
8.359870 -6.084954 -1.910793 7.000000
11.792990 8.780622 -1.899131 6.000000
10.305311 2.320512 -1.912068 1.000000
9.292928 -1.900804 -1.931537 7.000000
8.283296 -5.987298 -1.896122 6.000000
23.464329 41.220890 -2.552187 8.000000
11.864594 8.895244 -1.899616 6.000000
10.331611 2.366255 -1.910902 4.000000
9.304640 -1.869385 -1.930878 7.000000
8.281179 -5.937490 -1.897764 8.000000
23.351273 41.357399 -2.497387 9.000000
11.995491 9.062249 -1.912545 5.000000
10.351853 2.412761 -1.912515 3.000000
9.315574 -1.836087 -1.935190 6.000000
8.281510 -5.891892 -1.902057 9.000000
23.413399 41.807632 -2.452539 4.000000
12.101123 9.215248 -1.910740 6.000000
10.373296 2.457879 -1.908525 2.000000
9.313561 -1.795195 -1.933192 7.000000
8.266102 -5.835416 -1.899077 7.000000
23.259462 41.874958 -2.376277 3.000000
12.182060 9.340869 -1.914794 5.000000
10.369650 2.497191 -1.905684 1.000000
9.324254 -1.763522 -1.935847 4.000000
8.251407 -5.777698 -1.896051 8.000000
12.465143 9.627209 -1.947812 6.000000
10.413869 2.550184 -1.907872 1.000000
9.330956 -1.727706 -1.935847 6.000000
8.287578 -5.757871 -1.906796 7.000000
12.576459 9.713181 -1.951128 6.000000
10.468857 2.561713 -1.906223 1.000000
9.401065 -1.740687 -1.936492 6.000000
8.310125 -5.771387 -1.902609 8.000000
23.377125 42.069492 -2.337026 5.000000
12.460295 9.547307 -1.924624 6.000000
10.512978 2.531707 -1.904770 1.000000
9.420049 -1.781640 -1.933089 7.000000
8.371346 -5.859503 -1.908607 8.000000
24.003475 42.843746 -2.436229 7.000000
12.432962 9.457669 -1.929130 6.000000
10.502809 2.486630 -1.905068 3.000000
9.428888 -1.819131 -1.931026 7.000000
8.347696 -5.888652 -1.895210 8.000000
23.346067 41.331337 -2.404682 9.000000
12.422903 9.378338 -1.933256 5.000000
10.550645 2.455212 -1.912021 4.000000
9.442394 -1.859371 -1.928251 7.000000
8.439882 -6.000129 -1.909904 7.000000
23.409660 41.108158 -2.454385 8.000000
12.301520 9.216115 -1.917270 6.000000
10.535574 2.411033 -1.907675 1.000000
9.483912 -1.905403 -1.934697 7.000000
8.451437 -6.055099 -1.906273 8.000000
23.497026 40.928677 -2.498108 8.000000
12.242302 9.101886 -1.916349 6.000000
10.554036 2.372649 -1.911301 1.000000
9.501875 -1.945271 -1.934522 8.000000
8.470413 -6.115799 -1.906174 7.000000
23.493155 40.593105 -2.540082 6.000000
12.138514 8.955826 -1.908325 6.000000
10.538623 2.328639 -1.906952 1.000000
9.523799 -1.987891 -1.936994 6.000000
8.493579 -6.180011 -1.903214 8.000000
23.632645 40.491081 -2.596551 6.000000
12.182455 8.919475 -1.918113 6.000000
10.546835 2.288015 -1.910719 1.000000
9.564391 -2.034719 -1.945050 13.000000
8.558413 -6.277585 -1.913564 6.000000
12.061235 8.763000 -1.907179 6.000000
10.506347 2.238943 -1.905752 4.000000
9.539021 -2.065895 -1.934335 7.000000
8.568348 -6.333304 -1.911364 8.000000
11.991353 8.645255 -1.904219 6.000000
10.529650 2.201677 -1.906495 3.000000
9.560415 -2.108992 -1.936750 8.000000
8.594050 -6.401142 -1.910737 7.000000
21.341007 35.700634 -2.449222 1.000000
11.880993 8.499684 -1.889511 6.000000
10.551841 2.164062 -1.912872 4.000000
9.567595 -2.149133 -1.934527 9.000000
8.634860 -6.480880 -1.915359 8.000000
21.479389 35.648979 -2.501836 4.000000
11.875699 8.436501 -1.894550 6.000000
10.525266 2.118443 -1.910500 1.000000
9.498137 -2.170130 -1.918545 9.000000
8.659505 -6.549132 -1.916366 7.000000
21.672035 35.686314 -2.560947 4.000000
11.855151 8.350500 -1.901353 6.000000
10.538480 2.079031 -1.909502 3.000000
9.600296 -2.232292 -1.937324 7.000000
8.719559 -6.644929 -1.921225 6.000000
20.898647 34.143608 -2.504554 9.000000
11.848019 8.280673 -1.905595 6.000000
10.550206 2.041199 -1.914128 1.000000
9.644832 -2.281719 -1.944472 8.000000
8.735538 -6.707861 -1.920245 7.000000
21.045843 34.102745 -2.549331 8.000000
11.787858 8.174481 -1.898729 6.000000
10.441241 1.978556 -1.896793 31.000000
9.618637 -2.312782 -1.933715 7.000000
8.778721 -6.792311 -1.923222 5.000000
11.677546 8.034760 -1.888792 5.000000
10.424212 1.937660 -1.890550 70.000000
9.638943 -2.356851 -1.936007 9.000000
8.786175 -6.849707 -1.920330 6.000000
11.658023 7.964496 -1.891385 6.000000
10.435436 1.900203 -1.895131 68.000000
9.674001 -2.404827 -1.937665 10.000000
8.874977 -6.971386 -1.933143 6.000000
11.619057 7.869651 -1.889897 5.000000
10.428441 1.853833 -1.894341 44.000000
9.684813 -2.445240 -1.937995 9.000000
8.866146 -7.017148 -1.926653 5.000000
11.556249 7.765477 -1.884936 5.000000
10.439362 1.816328 -1.898920 38.000000
9.676007 -2.482576 -1.934508 13.000000
8.891784 -7.090598 -1.927647 5.000000
17.262861 26.899996 -2.223840 3.000000
11.482991 7.658203 -1.880882 5.000000
10.445965 1.779933 -1.897071 26.000000
9.720408 -2.531977 -1.937953 8.000000
8.952127 -7.192552 -1.932001 2.000000
17.140993 26.506083 -2.240500 1.000000
11.450725 7.579069 -1.881018 5.000000
10.587359 1.764119 -1.927363 1.000000
9.716257 -2.567146 -1.938900 8.000000
8.953843 -7.248092 -1.927756 6.000000
17.166990 26.344162 -2.259445 1.000000
11.366562 7.460757 -1.874562 5.000000
10.573962 1.720185 -1.927567 1.000000
9.710814 -2.609272 -1.936337 8.000000
8.947629 -7.297508 -1.921807 7.000000
11.332049 7.384451 -1.874445 5.000000
10.566240 1.677309 -1.923044 4.000000
9.749862 -2.658118 -1.938738 7.000000
8.998338 -7.393949 -1.928063 3.000000
11.297827 7.297709 -1.875887 5.000000
10.587146 1.637085 -1.927567 1.000000
9.759167 -2.700954 -1.938971 9.000000
9.044936 -7.487942 -1.931283 4.000000
15.126348 22.681002 -2.059435 1.000000
11.224991 7.198019 -1.869311 5.000000
10.553537 1.594189 -1.922347 1.000000
9.768287 -2.743902 -1.939191 6.000000
9.071773 -7.566367 -1.932336 1.000000
15.296367 22.780569 -2.101729 7.000000
11.187529 7.116267 -1.868156 5.000000
10.500229 1.546794 -1.915416 4.000000
9.759785 -2.776465 -1.935649 6.000000
9.151060 -7.689544 -1.944506 3.000000
15.228355 22.492186 -2.118655 7.000000
11.239068 7.088581 -1.879300 5.000000
10.549595 1.512703 -1.925269 1.000000
9.786792 -2.828514 -1.937810 8.000000
9.173598 -7.766025 -1.940260 6.000000
15.184525 22.259682 -2.134858 8.000000
11.123323 6.953324 -1.866941 5.000000
10.496516 1.463982 -1.916452 1.000000
9.786437 -2.867318 -1.936119 7.000000
9.176663 -7.826538 -1.934006 6.000000
15.114869 21.984049 -2.146524 8.000000
11.080317 6.870087 -1.864771 5.000000
10.545359 1.431411 -1.926317 4.000000
9.851997 -2.927649 -1.943867 7.000000
9.246564 -7.944880 -1.943951 1.000000
14.389995 20.774042 -2.059909 7.000000
11.073055 6.812189 -1.873431 6.000000
10.545566 1.390223 -1.927283 3.000000
9.813298 -2.955336 -1.936503 5.000000
9.259990 -8.015598 -1.939787 5.000000
14.295776 20.484896 -2.062508 8.000000
11.018023 6.720152 -1.866639 5.000000
10.531404 1.349104 -1.921864 4.000000
9.854864 -3.009173 -1.939521 8.000000
9.272769 -8.086303 -1.937655 2.000000
14.259497 20.281687 -2.081905 10.000000
10.999125 6.653438 -1.868456 5.000000
10.540388 1.309139 -1.928316 1.000000
9.863194 -3.051282 -1.939617 5.000000
9.363346 -8.225901 -1.949496 1.000000
14.217045 20.064598 -2.095214 9.000000
11.009306 6.604602 -1.877503 5.000000
10.520581 1.265679 -1.925700 5.000000
9.894577 -3.102669 -1.942497 4.000000
9.367702 -8.290758 -1.945534 1.000000
14.047306 19.693596 -2.086589 7.000000
10.958041 6.524529 -1.871881 5.000000
10.505938 1.224870 -1.920278 2.000000
9.884333 -3.137394 -1.938877 8.000000
9.371962 -8.355983 -1.939302 1.000000
13.530650 18.829893 -2.020456 6.000000
10.950655 6.465885 -1.877897 5.000000
10.534673 1.187239 -1.926594 1.000000
9.915846 -3.187449 -1.941694 8.000000
9.445476 -8.483872 -1.949593 6.000000
13.598616 18.765059 -2.051948 6.000000
10.887786 6.375061 -1.872098 1.000000
10.577742 1.152846 -1.935603 1.000000
9.912398 -3.232213 -1.939887 7.000000
9.461554 -8.558173 -1.943115 6.000000
13.576982 18.611866 -2.064167 5.000000
10.897116 6.327004 -1.878693 1.000000
10.557294 1.109616 -1.932981 1.000000
9.929459 -3.278088 -1.939900 8.000000
9.522978 -8.677404 -1.948445 6.000000
13.271978 18.047794 -2.038780 6.000000
10.860995 6.247872 -1.879306 1.000000
10.521988 1.065074 -1.927662 1.000000
9.917761 -3.316512 -1.934425 6.000000
9.557673 -8.773350 -1.952847 6.000000
13.247725 17.890211 -2.045519 6.000000
10.799213 6.164760 -1.871726 3.000000
10.520591 1.025992 -1.928610 5.000000
9.953925 -3.365346 -1.939851 6.000000
9.548982 -8.830079 -1.941424 6.000000
13.055515 17.489820 -2.036191 6.000000
10.813840 6.115685 -1.881080 1.000000
10.509425 0.984181 -1.927760 1.000000
9.982566 -3.421690 -1.942496 9.000000
9.568703 -8.913597 -1.938065 6.000000
12.878860 17.140568 -2.022881 6.000000
10.748036 6.029051 -1.872562 1.000000
10.551987 0.951022 -1.934946 2.000000
10.023561 -3.472929 -1.945047 8.000000
9.652626 -9.058081 -1.949970 6.000000
12.600596 16.642855 -1.995312 6.000000
10.755958 5.981772 -1.878901 1.000000
10.501163 0.907653 -1.926905 1.000000
10.010472 -3.511503 -1.943196 7.000000
9.663982 -9.135580 -1.944789 6.000000
12.500195 16.391039 -1.995759 6.000000
10.724723 5.913041 -1.878397 1.000000
10.489833 0.862421 -1.926044 1.000000
10.040211 -3.563316 -1.945726 8.000000
9.723103 -9.255949 -1.948820 5.000000
12.489382 16.252972 -2.002565 6.000000
10.701808 5.849361 -1.879331 1.000000
10.477924 0.826471 -1.923344 1.000000
10.050879 -3.610614 -1.942762 5.000000
9.790593 -9.388842 -1.954730 6.000000
12.160795 15.711549 -1.965581 6.000000
10.687263 5.790641 -1.881726 3.000000
10.524826 0.789518 -1.933286 1.000000
10.057028 -3.654497 -1.940739 4.000000
9.768018 -9.436161 -1.945018 6.000000
12.158130 15.584109 -1.983336 6.000000
10.643672 5.711871 -1.880794 1.000000
10.508081 0.744012 -1.931521 1.000000
10.101971 -3.718803 -1.950460 7.000000
9.827062 -9.563075 -1.949089 6.000000
11.987206 15.260406 -1.967716 6.000000
10.619064 5.651012 -1.879400 1.000000
10.490863 0.707838 -1.927914 2.000000
10.072726 -3.746013 -1.937517 8.000000
9.941889 -9.746019 -1.964064 6.000000
11.924931 15.072519 -1.969180 6.000000
10.634173 5.609136 -1.887022 4.000000
10.478443 0.666592 -1.927042 1.000000
10.109881 -3.804083 -1.941620 7.000000
9.940982 -9.813412 -1.955723 6.000000
11.926098 14.960976 -1.980554 6.000000
10.539690 5.510016 -1.875169 1.000000
10.461507 0.621528 -1.923432 1.000000
10.118474 -3.853755 -1.940374 6.000000
9.955556 -9.900108 -1.950727 6.000000
11.833299 14.738713 -1.983265 1.000000
10.584958 5.484377 -1.888164 1.000000
10.487725 0.588191 -1.929778 1.000000
10.138743 -3.900023 -1.940860 5.000000
10.015124 -10.032619 -1.954461 6.000000
11.720790 14.494650 -1.975654 1.000000
10.552992 5.414191 -1.887059 6.000000
10.499920 0.544765 -1.931585 3.000000
10.141610 -3.949971 -1.938679 7.000000
10.035273 -10.126766 -1.952947 6.000000
11.524236 14.145224 -1.956315 1.000000
10.526937 5.354488 -1.885387 1.000000
10.471861 0.508495 -1.927994 3.000000
10.197804 -4.010855 -1.948007 6.000000
10.119557 -10.276188 -1.960238 6.000000
11.367277 13.853533 -1.940433 1.000000
10.505635 5.295276 -1.886507 1.000000
10.488638 0.465280 -1.930707 1.000000
10.210406 -4.061150 -1.949422 4.000000
10.138518 -10.378448 -1.956493 6.000000
11.302451 13.672030 -1.942729 1.000000
10.506126 5.247323 -1.891539 1.000000
10.450890 0.427059 -1.923472 1.000000
10.219871 -4.108362 -1.944177 5.000000
10.143233 -10.459697 -1.949255 6.000000
11.227964 13.485791 -1.940422 1.000000
10.461874 5.177398 -1.890595 1.000000
10.451378 0.388714 -1.928949 1.000000
10.218019 -4.153263 -1.944860 7.000000
10.183707 -10.575047 -1.948468 6.000000
11.109948 13.245014 -1.929951 1.000000
10.448575 5.123228 -1.893124 7.000000
10.487193 0.349728 -1.935297 4.000000
10.240111 -4.206040 -1.946009 6.000000
10.221645 -10.692605 -1.947451 6.000000
11.000681 13.022159 -1.924151 4.000000
10.440939 5.069848 -1.892358 1.000000
10.484218 0.309333 -1.930729 4.000000
10.262582 -4.259297 -1.943239 6.000000
10.310058 -10.864535 -1.955914 6.000000
10.905356 12.813750 -1.917096 2.000000
10.417941 5.011578 -1.895206 1.000000
10.449862 0.269989 -1.929866 1.000000
10.269175 -4.308330 -1.945602 5.000000
10.222461 -10.847812 -1.930595 7.000000
10.896546 12.713219 -1.931421 5.000000
10.381598 4.947320 -1.893529 1.000000
10.450821 0.229863 -1.929866 1.000000
10.281464 -4.357871 -1.944918 9.000000
10.363334 -11.078375 -1.951397 7.000000
10.763220 12.464911 -1.917156 6.000000
10.399621 4.906998 -1.899550 7.000000
10.461458 0.189911 -1.931682 1.000000
10.324768 -4.423069 -1.948230 4.000000
10.402131 -11.201865 -1.944726 7.000000
10.512287 12.088741 -1.879103 6.000000
10.336493 4.830972 -1.888865 1.000000
10.487343 0.151933 -1.932559 1.000000
10.332655 -4.471339 -1.942679 7.000000
10.492129 -11.378179 -1.952497 7.000000
10.434161 11.910455 -1.874134 8.000000
10.348155 4.790289 -1.898000 1.000000
10.452757 0.111290 -1.929866 1.000000
10.375200 -4.534970 -1.951755 4.000000
10.609178 -11.590063 -1.965457 9.000000
10.441086 11.834758 -1.890295 9.000000
10.319608 4.731223 -1.897716 1.000000
10.477691 0.071320 -1.934405 3.000000
10.376676 -4.583151 -1.949213 9.000000
10.534407 -11.593411 -1.945581 7.000000
10.455881 11.772603 -1.902622 8.000000
10.296379 4.672812 -1.896218 1.000000
10.453298 0.032840 -1.929866 4.000000
10.406056 -4.641782 -1.949726 4.000000
10.508757 -11.646605 -1.928883 7.000000
10.391722 11.614347 -1.899749 5.000000
10.269837 4.619757 -1.898603 1.000000
10.482851 -0.001830 -1.935313 3.000000
10.421361 -4.694480 -1.949645 1.000000
10.592950 -11.826782 -1.938216 7.000000
10.288020 11.417986 -1.889829 1.000000
10.228342 4.553951 -1.891705 1.000000
10.423763 -0.041844 -1.924420 1.000000
10.410325 -4.733292 -1.944498 8.000000
10.742168 -12.082195 -1.956428 7.000000
10.268435 11.312596 -1.894845 5.000000
10.257590 4.521998 -1.900074 1.000000
10.472694 -0.082254 -1.933497 1.000000
10.461342 -4.802834 -1.949034 11.000000
10.817490 -12.244162 -1.956892 7.000000
10.172621 11.128734 -1.886019 3.000000
10.200596 4.452291 -1.894475 1.000000
10.457572 -0.120468 -1.930774 1.000000
10.515311 -4.876585 -1.956321 5.000000
10.950667 -12.486844 -1.971611 7.000000
10.057423 10.922052 -1.873020 1.000000
10.197227 4.406397 -1.900814 1.000000
10.461948 -0.160697 -1.931682 6.000000
10.516463 -4.924033 -1.951543 8.000000
10.953793 -12.578712 -1.965307 7.000000
10.045227 10.828887 -1.881680 1.000000
10.159391 4.343830 -1.892623 1.000000
10.436675 -0.200394 -1.927143 1.000000
10.521559 -4.973518 -1.949593 6.000000
11.097774 -12.838762 -1.975549 6.000000
9.892035 10.589366 -1.861472 5.000000
10.146491 4.294396 -1.897173 1.000000
10.474520 -0.239529 -1.938062 1.000000
10.584603 -5.050865 -1.956276 9.000000
11.102535 -12.935263 -1.969346 7.000000
9.820672 10.443334 -1.854235 5.000000
10.152900 4.251215 -1.901240 2.000000
10.468705 -0.275961 -1.937153 1.000000
10.561609 -5.089772 -1.949314 7.000000
11.191687 -13.136245 -1.975376 6.000000
9.742782 10.288305 -1.852855 5.000000
10.144428 4.204034 -1.904652 1.000000
10.447910 -0.315562 -1.933515 1.000000
10.615079 -5.163567 -1.954195 3.000000
11.227311 -13.271627 -1.971388 7.000000
9.779235 10.244118 -1.867038 4.000000
10.103539 4.143764 -1.903928 1.000000
10.446897 -0.357512 -1.931691 3.000000
10.596695 -5.202739 -1.950075 5.000000
11.330310 -13.493370 -1.976344 7.000000
9.746644 10.135341 -1.868694 5.000000
10.105374 4.099259 -1.903255 1.000000
10.455274 -0.397996 -1.933508 1.000000
10.626176 -5.267946 -1.952829 4.000000
11.383111 -13.652741 -1.975008 7.000000
9.684021 10.007105 -1.865494 5.000000
10.096552 4.052648 -1.904654 1.000000
10.429258 -0.433469 -1.928965 3.000000
10.657161 -5.332057 -1.949286 9.000000
11.448599 -13.834062 -1.972948 7.000000
9.663924 9.913370 -1.869371 5.000000
10.091482 4.007730 -1.910681 1.000000
10.457406 -0.473039 -1.932589 3.000000
10.668988 -5.386957 -1.950765 6.000000
11.546706 -14.052190 -1.979023 7.000000
9.625690 9.802015 -1.872106 5.000000
10.049488 3.950496 -1.905937 1.000000
10.440106 -0.512433 -1.933515 1.000000
10.698451 -5.451133 -1.953338 8.000000
11.554566 -14.157206 -1.972271 7.000000
9.588802 9.696513 -1.872885 5.000000
10.041387 3.900847 -1.907232 1.000000
10.477340 -0.554595 -1.940791 5.000000
10.726931 -5.517628 -1.953748 7.000000
11.589454 -14.311785 -1.961582 7.000000
9.525017 9.561661 -1.867971 5.000000
9.991018 3.837193 -1.900633 1.000000
10.480484 -0.593290 -1.939868 2.000000
10.751657 -5.580273 -1.953286 8.000000
11.671933 -14.522146 -1.968096 7.000000
9.523529 9.490344 -1.875196 3.000000
10.017889 3.805439 -1.908867 1.000000
10.438867 -0.631154 -1.932599 1.000000
10.758578 -5.634016 -1.949584 9.000000
11.703310 -14.665732 -1.958831 7.000000
9.447469 9.339263 -1.867007 5.000000
9.988740 3.752531 -1.910288 1.000000
10.461000 -0.676483 -1.935313 1.000000
10.790839 -5.701404 -1.954834 10.000000
11.792790 -14.889472 -1.962824 7.000000
9.436216 9.263237 -1.872505 5.000000
9.960613 3.698383 -1.907921 4.000000
10.463356 -0.715155 -1.936221 3.000000
10.805225 -5.762184 -1.950474 10.000000
11.868281 -15.092733 -1.960440 8.000000
9.397907 9.164631 -1.875224 5.000000
9.926970 3.644547 -1.904621 1.000000
10.460459 -0.751650 -1.938051 1.000000
10.810722 -5.816108 -1.950908 10.000000
11.997780 -15.373042 -1.970493 8.000000
9.369569 9.070235 -1.876860 4.000000
9.912511 3.596108 -1.902984 1.000000
10.496856 -0.792948 -1.945320 1.000000
10.868657 -5.898743 -1.956401 8.000000
12.036510 -15.534164 -1.968425 8.000000
9.330207 8.966122 -1.873908 5.000000
9.952473 3.569381 -1.913849 6.000000
10.454860 -0.830160 -1.936221 1.000000
10.900148 -5.967657 -1.957102 10.000000
12.096418 -15.730225 -1.959657 8.000000
9.309912 8.884318 -1.877352 5.000000
9.923425 3.516018 -1.911346 1.000000
10.451933 -0.870325 -1.934390 3.000000
10.935609 -6.039271 -1.958493 21.000000
12.263324 -16.062990 -1.970840 8.000000
9.301236 8.811131 -1.885067 5.000000
9.897529 3.466065 -1.913353 1.000000
10.462694 -0.909847 -1.940777 1.000000
10.925880 -6.088763 -1.956450 16.000000
12.340487 -16.281582 -1.974365 8.000000
9.263566 8.711246 -1.884556 5.000000
9.849704 3.406916 -1.905325 1.000000
10.460134 -0.950106 -1.935277 6.000000
11.004332 -6.185449 -1.961004 24.000000
12.419801 -16.511591 -1.971249 8.000000
9.156617 8.547651 -1.869820 1.000000
9.856526 3.368879 -1.909880 1.000000
10.465862 -0.991158 -1.938924 2.000000
10.999374 -6.235824 -1.959661 33.000000
12.443734 -16.664181 -1.962293 8.000000
9.192451 8.521247 -1.882235 1.000000
9.840484 3.321252 -1.909908 1.000000
10.462496 -1.029544 -1.937090 4.000000
10.964762 -6.269416 -1.948546 48.000000
12.576657 -16.971586 -1.967016 7.000000
9.153045 8.422555 -1.881155 1.000000
9.823338 3.275408 -1.911711 1.000000
10.463357 -1.070210 -1.937996 1.000000
10.968866 -6.325222 -1.942071 72.000000
12.666277 -17.217840 -1.964082 8.000000
9.109402 8.320943 -1.879122 1.000000
9.844230 3.240426 -1.918954 1.000000
10.454617 -1.109895 -1.935255 1.000000
10.980960 -6.385941 -1.939267 76.000000
12.821685 -17.557158 -1.974715 8.000000
9.119825 8.269353 -1.890400 1.000000
9.845734 3.200972 -1.922554 1.000000
10.465479 -1.149853 -1.936133 1.000000
11.025742 -6.468764 -1.942417 105.000000
12.904566 -17.807322 -1.974301 7.000000
9.064614 8.158951 -1.881460 1.000000
9.824547 3.152426 -1.919765 1.000000
10.446664 -1.188400 -1.931585 3.000000
11.045671 -6.534994 -1.940969 125.000000
12.995168 -18.064722 -1.966480 8.000000
8.989577 8.031965 -1.874844 1.000000
9.769479 3.095308 -1.912327 3.000000
10.475876 -1.232486 -1.939750 1.000000
11.056775 -6.596394 -1.937962 37.000000
13.112488 -18.362686 -1.974078 7.000000
8.995308 7.977989 -1.882825 1.000000
9.765943 3.052975 -1.916719 1.000000
10.476505 -1.271507 -1.938812 1.000000
11.071527 -6.660337 -1.937895 25.000000
13.271122 -18.729612 -1.980025 8.000000
8.943534 7.876467 -1.881142 1.000000
9.752309 3.009521 -1.919242 1.000000
10.451693 -1.309238 -1.937037 5.000000
11.106810 -6.737126 -1.943744 16.000000
13.355884 -18.989407 -1.978059 8.000000
8.937642 7.813300 -1.884486 1.000000
9.735267 2.963369 -1.915474 1.000000
10.500809 -1.354500 -1.945136 1.000000
11.119898 -6.795609 -1.936017 10.000000
13.447560 -19.262295 -1.976805 64.000000
8.889894 7.714258 -1.883190 1.000000
9.692004 2.915118 -1.912366 3.000000
10.481728 -1.389252 -1.940581 1.000000
11.188129 -6.893755 -1.947594 8.000000
13.541111 -19.533987 -1.970827 39.000000
8.853275 7.625778 -1.879959 1.000000
9.736140 2.883976 -1.924181 5.000000
10.465736 -1.431767 -1.940619 1.000000
11.258427 -6.999577 -1.952885 9.000000
13.571631 -19.739464 -1.961030 36.000000
8.857156 7.572750 -1.887397 1.000000
9.697217 2.837502 -1.921927 1.000000
10.475877 -1.468560 -1.941483 7.000000
11.255462 -7.052328 -1.951892 8.000000
13.565786 -19.879246 -1.940603 20.000000
8.819628 7.484882 -1.883903 1.000000
9.661175 2.783076 -1.916093 2.000000
10.465100 -1.511773 -1.938735 3.000000
11.313959 -7.149625 -1.950082 8.000000
13.975597 -20.634113 -1.978876 9.000000
8.792405 7.406516 -1.886698 1.000000
9.651448 2.742004 -1.917603 4.000000
10.493608 -1.557048 -1.943196 4.000000
11.333183 -7.222815 -1.950975 8.000000
14.109540 -20.997210 -1.982069 8.000000
8.776341 7.338161 -1.889771 1.000000
9.646130 2.704140 -1.918284 1.000000
10.492914 -1.592524 -1.945949 3.000000
11.335298 -7.277133 -1.945882 8.000000
14.318816 -21.453934 -1.989223 9.000000
8.725996 7.241889 -1.883370 1.000000
9.637144 2.658131 -1.921502 1.000000
10.463094 -1.629123 -1.937744 1.000000
11.384477 -7.367766 -1.949283 7.000000
14.487885 -21.888807 -1.996722 6.000000
8.741827 7.203644 -1.895572 1.000000
9.607360 2.615664 -1.917428 3.000000
10.476814 -1.670613 -1.939493 7.000000
11.412138 -7.445157 -1.951397 7.000000
14.621721 -22.250978 -1.997285 8.000000
8.686738 7.104950 -1.888036 1.000000
9.578750 2.568410 -1.913326 1.000000
10.504637 -1.716435 -1.943929 3.000000
11.464490 -7.539358 -1.955286 8.000000
15.120280 -23.203316 -2.038658 2.000000
8.687959 7.052963 -1.896731 1.000000
9.534601 2.519150 -1.909792 4.000000
10.415499 -1.742957 -1.928658 5.000000
11.462388 -7.598303 -1.952318 8.000000
15.037434 -23.235441 -2.013038 8.000000
8.624183 6.948903 -1.887179 4.000000
9.534056 2.479882 -1.911330 1.000000
10.476580 -1.792677 -1.943089 1.000000
11.526439 -7.701720 -1.955682 7.000000
15.224359 -23.723482 -2.010678 2.000000
8.617514 6.891592 -1.890090 3.000000
9.513686 2.435621 -1.912472 7.000000
10.479643 -1.834645 -1.943031 1.000000
11.515692 -7.755741 -1.948784 9.000000
15.411437 -24.209753 -2.021921 7.000000
8.598447 6.824824 -1.894218 1.000000
9.484344 2.387582 -1.909947 6.000000
10.463505 -1.873256 -1.937524 6.000000
11.561776 -7.848528 -1.953977 7.000000
15.535930 -24.594414 -2.013790 8.000000
8.548575 6.734316 -1.887562 1.000000
9.454194 2.344931 -1.903981 7.000000
10.490773 -1.917848 -1.941939 5.000000
11.588031 -7.928550 -1.945826 8.000000
15.840927 -25.272196 -2.022906 4.000000
8.532575 6.671176 -1.892251 1.000000
9.466679 2.307728 -1.913444 1.000000
10.488168 -1.959018 -1.942834 2.000000
11.580118 -7.985606 -1.941893 9.000000
16.051275 -25.807526 -2.034616 3.000000
8.508971 6.602614 -1.891324 1.000000
9.464811 2.272300 -1.913216 5.000000
10.461921 -1.993826 -1.937393 1.000000
11.637301 -8.088135 -1.946358 10.000000
15.881522 -25.734463 -1.976764 4.000000
8.476048 6.529793 -1.888555 1.000000
9.410098 2.220985 -1.907430 3.000000
10.507304 -2.044316 -1.947236 1.000000
11.673331 -8.176791 -1.949781 8.000000
16.620592 -27.132973 -2.052059 3.000000
8.465931 6.475035 -1.892764 1.000000
9.426433 2.188397 -1.916122 3.000000
10.470094 -2.078832 -1.943730 5.000000
11.704825 -8.262966 -1.952445 8.000000
17.216263 -28.326914 -2.102944 8.000000
8.435105 6.397954 -1.893461 1.000000
9.366521 2.136619 -1.909233 5.000000
10.467226 -2.118169 -1.944626 1.000000
11.739887 -8.352359 -1.955703 7.000000
8.399395 6.327100 -1.893986 1.000000
9.378791 2.101565 -1.913563 4.000000
10.469316 -2.160470 -1.942686 3.000000
11.779037 -8.445407 -1.954489 7.000000
17.581606 -29.388363 -2.094575 10.000000
8.366033 6.254038 -1.890694 7.000000
9.351930 2.059578 -1.911743 5.000000
10.485729 -2.203956 -1.945286 5.000000
11.789549 -8.518541 -1.948478 8.000000
7.850982 -13.227818 -0.924650 5.000000
8.363600 6.204566 -1.896257 1.000000
9.325571 2.016260 -1.908221 6.000000
10.419464 -2.231838 -1.934568 5.000000
11.819170 -8.606054 -1.950782 8.000000
6.969979 -11.842128 -0.811556 1.000000
8.315260 6.117107 -1.892747 1.000000
9.322002 1.979752 -1.912913 6.000000
10.449270 -2.280220 -1.941713 4.000000
11.864295 -8.705630 -1.955641 12.000000
6.952551 -11.916957 -0.800351 5.000000
8.278308 6.047719 -1.890859 7.000000
9.246978 1.926742 -1.901132 10.000000
10.460052 -2.322769 -1.945286 1.000000
11.904869 -8.802711 -1.959745 22.000000
6.925572 -11.956857 -0.784628 6.000000
8.274661 5.998664 -1.897906 1.000000
9.190581 1.878199 -1.894855 51.000000
10.436331 -2.359586 -1.944474 5.000000
11.873620 -8.847100 -1.949409 25.000000
6.881711 -11.977336 -0.769880 1.000000
8.198949 5.898054 -1.888337 7.000000
9.137801 1.832548 -1.892736 37.000000
10.421738 -2.398385 -1.947313 7.000000
11.942892 -8.970237 -1.963770 29.000000
8.167854 5.877849 -1.895957 1.000000
9.053228 1.815587 -1.890325 56.000000
10.241096 -2.356814 -1.932515 7.000000
11.804396 -8.869436 -1.962228 13.000000
8.143613 5.905830 -1.886254 1.000000
9.046190 1.850336 -1.890325 47.000000
10.243880 -2.317953 -1.937111 5.000000
11.692421 -8.718437 -1.951244 7.000000
6.826801 -11.886570 -0.785569 1.000000
8.190434 5.985715 -1.894837 1.000000
9.043814 1.886057 -1.891328 30.000000
10.184192 -2.263376 -1.931698 7.000000
11.614280 -8.594115 -1.956040 9.000000
6.920631 -11.957948 -0.811155 7.000000
8.171879 6.020427 -1.892212 1.000000
9.099131 1.932420 -1.904365 5.000000
10.091014 -2.200197 -1.919792 10.000000
11.630572 -8.543505 -1.969141 8.000000
6.999404 -11.997265 -0.837370 2.000000
8.212418 6.092411 -1.897034 1.000000
9.110468 1.971417 -1.910003 6.000000
10.078095 -2.160556 -1.923333 11.000000
11.559788 -8.426452 -1.969720 7.000000
7.055820 -11.997551 -0.858610 1.000000
8.176075 6.118711 -1.887169 5.000000
9.117833 2.009691 -1.909755 6.000000
10.023094 -2.110370 -1.913198 9.000000
11.416643 -8.258199 -1.952689 8.000000
7.850255 -13.242387 -0.971231 1.000000
8.209346 6.190680 -1.894506 1.000000
9.086151 2.039322 -1.904745 6.000000
9.986498 -2.062652 -1.912055 15.000000
11.340571 -8.140027 -1.949464 7.000000
15.594384 -26.097647 -1.960671 10.000000
8.203576 6.233626 -1.889140 1.000000
9.092942 2.075882 -1.907751 5.000000
9.997496 -2.026746 -1.920098 8.000000
11.306484 -8.055908 -1.956053 7.000000
15.735441 -26.126160 -2.009693 8.000000
8.217390 6.291765 -1.886418 3.000000
9.104640 2.115366 -1.908496 7.000000
9.951863 -1.977743 -1.911695 10.000000
11.277946 -7.973416 -1.958341 8.000000
15.566377 -25.642504 -2.013468 7.000000
8.241796 6.358503 -1.891727 1.000000
9.072613 2.144675 -1.903495 5.000000
9.943265 -1.938179 -1.915991 13.000000
11.175741 -7.839881 -1.950176 7.000000
15.183092 -24.815426 -1.993481 2.000000
8.246069 6.412457 -1.887048 1.000000
9.103064 2.188813 -1.908229 4.000000
9.916527 -1.893472 -1.911249 11.000000
11.125821 -7.744172 -1.948571 9.000000
15.053472 -24.411751 -2.005499 5.000000
8.260666 6.467881 -1.887723 3.000000
9.109906 2.225810 -1.907951 1.000000
9.913086 -1.855184 -1.912909 17.000000
11.099792 -7.665815 -1.951096 7.000000
14.702911 -23.658014 -1.981982 5.000000
8.284304 6.535509 -1.890982 1.000000
9.068650 2.252664 -1.897712 1.000000
9.875666 -1.808961 -1.909780 9.000000
11.068982 -7.584767 -1.955128 7.000000
14.678037 -23.435125 -2.006398 7.000000
8.284446 6.585026 -1.888886 6.000000
9.140699 2.307861 -1.914629 1.000000
9.857710 -1.766578 -1.908605 10.000000
11.015689 -7.491877 -1.957708 9.000000
14.345703 -22.727774 -1.987842 7.000000
8.276908 6.628683 -1.883148 6.000000
9.080610 2.328126 -1.900410 4.000000
9.844440 -1.726984 -1.906605 16.000000
10.976334 -7.406418 -1.955321 8.000000
14.139981 -22.229557 -1.980938 8.000000
8.329554 6.723504 -1.889424 1.000000
9.086794 2.366933 -1.898474 4.000000
9.806124 -1.681476 -1.905119 14.000000
10.915678 -7.307410 -1.951447 7.000000
13.683472 -21.346964 -1.937689 9.000000
8.340262 6.782782 -1.889741 1.000000
9.091851 2.405566 -1.901447 3.000000
9.811893 -1.645469 -1.906856 13.000000
10.850057 -7.206031 -1.948923 9.000000
13.499286 -20.898695 -1.940578 73.000000
8.335667 6.829956 -1.884666 1.000000
9.083613 2.439045 -1.898164 2.000000
9.788733 -1.602967 -1.902940 20.000000
10.808911 -7.121752 -1.948382 8.000000
13.351465 -20.504566 -1.938590 91.000000
8.372623 6.911681 -1.888974 1.000000
9.107924 2.483105 -1.901793 5.000000
9.774766 -1.562164 -1.902627 9.000000
10.788280 -7.051588 -1.949193 7.000000
13.126368 -20.005804 -1.925175 152.000000
8.370974 6.962066 -1.886516 1.000000
9.151169 2.529246 -1.912654 1.000000
9.779441 -1.526174 -1.907810 17.000000
10.758131 -6.975739 -1.955140 7.000000
13.035223 -19.716497 -1.934922 190.000000
8.399786 7.038270 -1.886992 1.000000
9.132914 2.561987 -1.905713 1.000000
9.765484 -1.485609 -1.905748 14.000000
10.707655 -6.887395 -1.950462 8.000000
13.119222 -19.693773 -1.966281 131.000000
8.401549 7.092322 -1.883337 4.000000
9.113765 2.596124 -1.900436 5.000000
9.741650 -1.443734 -1.901784 18.000000
10.656403 -6.799341 -1.947864 3.000000
13.100461 -19.517609 -1.982166 79.000000
8.414544 7.156275 -1.880212 1.000000
9.152068 2.641609 -1.908605 3.000000
9.740701 -1.407127 -1.907707 15.000000
10.646121 -6.738003 -1.954967 2.000000
12.982754 -19.197092 -1.986798 10.000000
8.438169 7.229831 -1.881423 1.000000
9.155676 2.684247 -1.908221 2.000000
9.735981 -1.368303 -1.907520 11.000000
10.607115 -6.658991 -1.950026 3.000000
12.762211 -18.729761 -1.970926 8.000000
8.457393 7.300226 -1.883640 5.000000
9.141713 2.716579 -1.903912 1.000000
9.701697 -1.327242 -1.901611 13.000000
10.562619 -6.577209 -1.950749 1.000000
12.654582 -18.426306 -1.971381 8.000000
8.506485 7.397182 -1.888461 1.000000
9.132169 2.751947 -1.898918 6.000000
9.720328 -1.291789 -1.909605 14.000000
10.543471 -6.511780 -1.951657 5.000000
12.394214 -17.912874 -1.951722 8.000000
8.510479 7.455610 -1.883223 1.000000
9.141269 2.789533 -1.902823 6.000000
9.690816 -1.250019 -1.904620 11.000000
10.493931 -6.428169 -1.951321 2.000000
12.250269 -17.573418 -1.945768 8.000000
8.502571 7.503941 -1.879411 1.000000
9.182482 2.842453 -1.908530 1.000000
9.685263 -1.213230 -1.904410 19.000000
10.456882 -6.352886 -1.951037 1.000000
12.072462 -17.190128 -1.937559 8.000000
8.550463 7.602138 -1.881784 1.000000
9.177132 2.879457 -1.904468 1.000000
9.694391 -1.176584 -1.907072 10.000000
10.402810 -6.267950 -1.945344 8.000000
12.065082 -17.052744 -1.948873 8.000000
8.593598 7.697069 -1.887135 1.000000
9.190522 2.920703 -1.905958 1.000000
9.669266 -1.135878 -1.903022 19.000000
10.335554 -6.175905 -1.937144 6.000000
11.952912 -16.763552 -1.942567 8.000000
8.581205 7.742839 -1.880278 1.000000
9.152571 2.943856 -1.898463 6.000000
9.652870 -1.098099 -1.904272 8.000000
10.326647 -6.119332 -1.944155 4.000000
11.861671 -16.513344 -1.947004 8.000000
8.612419 7.828459 -1.882968 1.000000
9.192089 2.999111 -1.905742 3.000000
