VERSION .7
FIELDS x y z intensity
SIZE 4 4 4 4
TYPE F F F F
COUNT 1 1 1 1
WIDTH 1234
HEIGHT 1
VIEWPOINT 0 0 0 1 0 0 0
POINTS 1234
DATA ascii
67.798553 49.294697 1.302193 12.000000
74.581680 16.111506 4.332746 8.000000
39.108768 -28.123205 4.808069 37.000000
7.387576 -12.541615 1.422069 9.000000
68.109047 49.903072 1.341141 11.000000
74.760284 16.437115 4.359996 1.000000
39.225777 -27.989805 4.784328 10.000000
7.428806 -12.501593 1.405383 10.000000
67.828781 50.080818 1.368666 24.000000
38.841438 -27.501268 4.666414 20.000000
7.582778 -12.654857 1.410135 38.000000
68.639290 51.069035 1.403724 25.000000
39.074211 -27.461815 4.649174 9.000000
7.635385 -12.642350 1.396097 10.000000
68.871254 51.634850 1.442384 25.000000
66.536324 15.385586 3.842030 7.000000
39.051361 -27.232475 4.592612 23.000000
7.654607 -12.579722 1.379012 12.000000
68.776863 51.958950 1.474483 28.000000
62.840977 14.762362 3.654206 6.000000
52.870735 -10.009144 4.527995 1.000000
38.943535 -26.955727 4.543808 11.000000
7.646738 -12.463689 1.353910 21.000000
68.668663 52.273632 1.536529 21.000000
62.835625 15.004330 3.645757 9.000000
52.706982 -9.778176 4.501450 1.000000
18.558428 -12.745318 2.140048 6.000000
7.680342 -12.420981 1.339322 9.000000
68.770981 52.731697 1.573188 1.000000
60.509216 14.683443 3.524778 7.000000
18.601828 -12.675038 2.127789 9.000000
7.709792 -12.357435 1.320417 8.000000
64.786781 50.054852 1.529115 1.000000
62.073841 15.304248 3.619164 20.000000
52.911140 -9.424910 4.475227 1.000000
7.703639 -12.256878 1.299659 10.000000
64.474014 50.155514 1.554174 1.000000
62.140499 15.550978 3.637409 20.000000
52.790543 -9.203930 4.433892 1.000000
39.133598 -26.257048 4.388350 9.000000
7.786833 -12.293786 1.296206 10.000000
64.544846 50.591434 1.603297 15.000000
61.860535 15.722068 3.624370 6.000000
39.306923 -26.174831 4.355949 17.000000
7.674413 -12.018623 1.255101 10.000000
64.362244 50.830238 1.646337 3.000000
60.453312 15.600524 3.556180 19.000000
52.510963 -8.787321 4.367863 1.000000
39.188461 -25.889128 4.307476 28.000000
63.363373 50.455692 1.654240 1.000000
60.390900 15.820727 3.555896 19.000000
52.550735 -8.586679 4.349685 1.000000
7.673470 -11.820624 1.213142 12.000000
63.865852 51.202808 1.714661 27.000000
60.498737 16.074858 3.576488 19.000000
52.626892 -8.401202 4.344047 2.000000
7.848260 -11.993400 1.221218 28.000000
63.710838 51.481647 1.758701 13.000000
59.032055 15.917019 3.493208 12.000000
52.314877 -8.154877 4.287890 1.000000
12.001765 -7.743507 1.277237 3.000000
7.877064 -11.946195 1.204111 26.000000
63.325779 51.518543 1.795542 8.000000
59.266434 16.213461 3.521330 19.000000
52.411343 -7.991980 4.284287 1.000000
12.111628 -7.757628 1.281123 4.000000
7.994285 -12.036924 1.205763 13.000000
63.159241 51.768913 1.824709 13.000000
59.504833 16.513336 3.539067 19.000000
52.389633 -7.782949 4.252126 4.000000
12.104424 -7.687630 1.264618 4.000000
8.140964 -12.156237 1.205411 15.000000
62.890987 51.935570 1.879417 1.000000
52.117649 -7.547412 4.218527 1.000000
12.149937 -7.654185 1.258856 2.000000
8.163744 -12.094139 1.189393 10.000000
58.712509 16.746859 3.509672 13.000000
12.204040 -7.634818 1.254376 5.000000
8.277238 -12.175014 1.187108 10.000000
33.063713 27.714260 1.031781 1.000000
59.100300 17.091953 3.558121 18.000000
12.125438 -7.518090 1.230641 2.000000
8.440048 -12.312546 1.190558 9.000000
32.823586 27.718447 1.072468 11.000000
57.671509 16.908045 3.486333 8.000000
52.155762 -6.996128 4.196964 7.000000
12.099755 -7.446731 1.220525 5.000000
8.424665 -12.203133 1.172255 6.000000
60.789421 18.052820 3.678603 15.000000
52.307255 -6.812094 4.188489 7.000000
12.188342 -7.436877 1.219041 3.000000
8.522590 -12.239594 1.165939 10.000000
7.424272 6.361124 0.254304 1.000000
60.845886 18.312532 3.708312 12.000000
52.320393 -6.637437 4.178493 9.000000
8.597450 -12.255654 1.154549 9.000000
7.427326 6.411096 0.258639 6.000000
60.167843 18.349234 3.660046 11.000000
52.945145 -6.519607 4.198346 9.000000
8.511936 -12.048573 1.127334 6.000000
7.414955 6.447995 0.265895 3.000000
53.013233 -6.330830 4.201877 4.000000
13.050343 -18.329720 1.699749 10.000000
7.432521 6.511265 0.272556 4.000000
59.441849 18.593771 3.667514 19.000000
12.522329 -7.399786 1.203508 9.000000
7.409603 6.537042 0.279455 5.000000
59.415512 18.824886 3.681038 19.000000
12.563731 -7.359312 1.202204 8.000000
9.103596 -12.585372 1.146107 7.000000
7.404199 6.580692 0.283619 6.000000
59.045471 18.946060 3.684112 19.000000
12.630304 -7.336265 1.193161 1.000000
9.958608 -13.666678 1.232900 7.000000
7.402221 6.627654 0.291414 1.000000
9.986805 -13.610318 1.215987 8.000000
7.370343 6.647942 0.296318 8.000000
58.897678 19.364573 3.705161 19.000000
43.131622 -24.641768 3.996713 9.000000
7.279233 6.614309 0.298782 31.000000
58.963028 19.625820 3.724657 19.000000
51.114315 -4.984783 3.969724 1.000000
9.952803 -13.352710 1.170398 12.000000
7.226449 6.612546 0.304406 74.000000
59.394310 19.988394 3.756067 19.000000
50.921272 -4.804511 3.953540 1.000000
7.216704 6.652390 0.311880 174.000000
59.112747 20.146648 3.765004 19.000000
9.806043 -12.965913 1.119659 45.000000
7.192153 6.678684 0.317019 212.000000
58.947613 20.331821 3.781053 19.000000
51.497154 -28.463146 4.610117 11.000000
9.859485 -12.933057 1.102973 26.000000
7.195398 6.726271 0.323306 255.000000
57.969093 20.209667 3.744076 19.000000
51.616352 -28.282551 4.580472 11.000000
10.069857 -13.118551 1.110036 31.000000
7.189995 6.775509 0.331188 255.000000
59.585064 21.041677 3.876012 9.000000
51.459431 -27.940189 4.526148 11.000000
10.123026 -13.078784 1.095603 22.000000
7.173379 6.807282 0.338427 229.000000
59.567654 21.269680 3.879685 20.000000
51.272289 -27.618828 4.481159 11.000000
10.190675 -13.071662 1.083453 26.000000
7.168747 6.848210 0.342742 228.000000
59.453911 21.451622 3.887962 10.000000
57.107922 -4.143642 4.375610 23.000000
51.451366 -27.472471 4.436782 11.000000
10.092828 -12.857989 1.054186 16.000000
7.158978 6.894053 0.352279 239.000000
60.827858 22.223726 4.017650 19.000000
51.737099 -27.393383 4.442872 11.000000
10.162008 -12.848882 1.045002 9.000000
7.139531 6.921103 0.357663 241.000000
60.848118 22.460121 4.012522 20.000000
57.457447 -3.745818 4.369846 23.000000
51.866371 -27.218908 4.404250 11.000000
10.268685 -12.886408 1.036672 35.000000
7.129332 6.966947 0.367261 242.000000
57.247475 -3.511435 4.352819 23.000000
52.130821 -27.114462 4.397611 11.000000
10.187292 -12.684031 1.012128 36.000000
7.122591 7.009132 0.375158 242.000000
58.126022 -3.351526 4.418656 25.000000
49.922718 -25.744972 4.174160 10.000000
10.162060 -12.558060 0.990890 23.000000
7.096714 7.035052 0.380390 251.000000
58.153618 -3.139308 4.409626 24.000000
10.408061 -12.770642 0.998980 35.000000
7.084832 7.074947 0.388141 235.000000
58.224491 -2.929149 4.414156 35.000000
50.042152 -25.343920 4.119282 10.000000
10.531253 -12.825521 0.994658 26.000000
7.085853 7.123052 0.394757 246.000000
58.244904 -2.746760 4.394558 24.000000
50.088310 -25.147997 4.076493 10.000000
10.507600 -12.710537 0.971107 13.000000
7.065275 7.157120 0.402171 244.000000
58.219711 -2.531747 4.391928 31.000000
50.275810 -25.011839 4.054709 10.000000
10.447115 -12.534568 0.949428 38.000000
7.055296 7.194576 0.410005 234.000000
67.083351 26.709272 4.656633 18.000000
58.153870 -2.315369 4.386291 24.000000
50.064236 -24.678085 4.010739 10.000000
10.390626 -12.387456 0.929428 21.000000
7.049585 7.241657 0.418281 229.000000
67.159218 27.052309 4.694778 25.000000
58.076130 -2.109256 4.390046 9.000000
50.114853 -24.485970 3.998137 10.000000
10.552475 -12.487168 0.925491 22.000000
6.995963 7.244532 0.423864 29.000000
67.022781 27.269651 4.691866 17.000000
50.143913 -24.272915 3.954240 10.000000
10.625596 -12.471796 0.916031 24.000000
7.039577 7.340802 0.435170 1.000000
67.188507 27.624533 4.735990 9.000000
49.042023 -23.518051 3.841444 8.000000
10.705239 -12.476789 0.907624 29.000000
6.932344 7.277135 0.435303 1.000000
67.532784 28.028246 4.792414 17.000000
49.062557 -23.317606 3.808070 10.000000
10.714330 -12.403914 0.893425 30.000000
6.939737 7.338566 0.444518 1.000000
67.281143 28.199518 4.807088 25.000000
49.018024 -23.076580 3.779018 10.000000
10.763507 -12.368913 0.879389 29.000000
6.950184 7.403783 0.454025 1.000000
67.583061 28.645555 4.875439 23.000000
48.733360 -22.724739 3.722335 10.000000
10.857411 -12.380506 0.871642 34.000000
6.879804 7.380269 0.458166 1.000000
67.569351 28.932346 4.882067 10.000000
48.972645 -22.618166 3.696417 10.000000
11.181023 -12.655640 0.876159 8.000000
6.893197 7.449190 0.467974 1.000000
67.594597 29.222788 4.917051 6.000000
48.698662 -22.285709 3.651061 21.000000
11.167979 -12.547886 0.859769 35.000000
6.825808 7.436024 0.474249 1.000000
49.094685 -22.249676 3.655711 10.000000
11.097615 -12.377184 0.839218 7.000000
6.817713 7.476825 0.482486 1.000000
70.082932 30.881041 5.180754 27.000000
49.333179 -22.160862 3.649013 10.000000
11.142335 -12.344454 0.827861 9.000000
36.423862 40.226322 2.625594 9.000000
69.765434 31.046986 5.219218 27.000000
49.406258 -21.986753 3.639238 10.000000
11.221740 -12.354172 0.819193 7.000000
36.001820 40.026199 2.642399 14.000000
69.596725 31.248812 5.241076 27.000000
49.423756 -21.777870 3.615686 17.000000
69.191895 31.357716 5.218801 27.000000
49.395802 -21.549702 3.570047 29.000000
35.208141 39.725655 2.679750 16.000000
68.761040 31.466749 5.234750 26.000000
49.393150 -21.333397 3.545318 23.000000
12.615516 -13.585419 0.871060 7.000000
35.064716 39.843155 2.716552 7.000000
68.534912 31.667576 5.252817 25.000000
50.106068 -21.434095 3.571992 10.000000
12.728089 -13.611053 0.862509 7.000000
6.714778 7.686456 0.527748 1.000000
68.114899 31.762497 5.255452 26.000000
12.800269 -13.578566 0.847381 9.000000
6.699342 7.725755 0.537705 1.000000
67.914299 31.972523 5.288479 22.000000
12.752695 -13.438538 0.831556 11.000000
34.549549 40.125042 2.821322 11.000000
67.463303 32.062794 5.262475 22.000000
50.878487 -21.105776 3.523407 10.000000
12.881849 -13.475376 0.817191 8.000000
34.329601 40.166397 2.852358 16.000000
67.045509 32.151608 5.303822 26.000000
50.813377 -20.871172 3.513831 10.000000
12.987997 -13.491813 0.811108 7.000000
66.930038 32.398487 5.330134 8.000000
50.345192 -20.463537 3.457199 10.000000
12.856913 -13.258041 0.786965 9.000000
66.155800 32.323528 5.290792 26.000000
50.407082 -20.273737 3.437281 10.000000
12.916274 -13.221941 0.774700 7.000000
34.192589 40.893879 3.008221 1.000000
66.048187 32.557030 5.342918 14.000000
50.455475 -20.088875 3.416746 10.000000
33.968143 40.929359 3.029592 16.000000
65.329285 32.500828 5.307167 10.000000
50.585590 -19.926193 3.401536 10.000000
13.141418 -13.261230 0.756380 7.000000
33.945179 41.178795 3.077085 1.000000
64.945129 32.607208 5.311134 25.000000
50.953423 -19.855665 3.383028 10.000000
34.189598 41.801289 3.161053 12.000000
64.503952 32.696419 5.348734 25.000000
51.351814 -19.794424 3.404639 10.000000
34.223160 42.156670 3.225970 14.000000
63.851830 32.632454 5.328771 23.000000
34.164070 42.400532 3.273178 11.000000
63.401371 32.695866 5.338703 15.000000
13.141850 -12.873944 0.693876 9.000000
33.957520 42.416245 3.304211 17.000000
63.344364 32.946888 5.343554 17.000000
76.678322 4.649549 5.762578 14.000000
13.016595 -12.666928 0.669169 17.000000
33.993092 42.811806 3.372252 12.000000
63.860851 33.513481 5.435424 23.000000
13.181778 -12.733942 0.665648 7.000000
33.939499 43.067509 3.421001 12.000000
63.973003 33.871960 5.493618 16.000000
74.260277 5.036516 5.583422 9.000000
55.990135 -20.434093 3.582795 12.000000
33.827164 43.203465 3.461800 10.000000
64.167618 34.262314 5.571645 25.000000
73.825623 5.278935 5.591132 1.000000
55.885075 -20.185997 3.550953 11.000000
13.644507 -12.988949 0.661143 9.000000
33.752590 43.466560 3.520215 12.000000
64.548141 34.770126 5.654330 6.000000
66.253670 4.981638 5.019025 10.000000
13.650152 -12.903795 0.646101 9.000000
60.911198 79.037712 6.470324 3.000000
64.673454 35.144058 5.689476 19.000000
66.255722 5.226075 5.008932 12.000000
58.272045 -20.543694 3.649200 10.000000
60.420216 78.912125 6.514151 1.000000
64.456833 35.318333 5.707040 24.000000
66.409248 5.471503 5.045343 5.000000
58.355747 -20.367311 3.639592 5.000000
13.741364 -12.800585 0.619708 7.000000
60.158005 79.169128 6.586840 1.000000
64.751869 35.789204 5.783712 23.000000
58.322670 -20.116270 3.611297 10.000000
33.452320 44.360500 3.729251 19.000000
64.830048 36.143250 5.854627 26.000000
58.597874 -19.948343 3.601669 11.000000
13.666098 -12.544628 0.586221 7.000000
33.349514 44.546787 3.774128 10.000000
64.813782 36.431320 5.903780 26.000000
68.548424 6.395247 5.236988 4.000000
58.797352 -19.798922 3.588145 2.000000
13.798671 -12.577854 0.580236 7.000000
33.326832 44.858257 3.839137 10.000000
64.980629 36.839165 5.970596 26.000000
68.400459 6.634414 5.227507 15.000000
58.591995 -19.502321 3.560623 8.000000
13.759742 -12.450340 0.563709 7.000000
33.242462 45.072506 3.886805 10.000000
65.080414 37.211590 6.031761 26.000000
57.594414 -18.913805 3.474127 1.000000
14.017507 -12.590445 0.559209 7.000000
33.136887 45.275810 3.943038 11.000000
65.099411 37.524590 6.072025 24.000000
57.583775 -18.676773 3.448133 1.000000
14.324978 -12.772062 0.556193 17.000000
33.124428 45.608601 4.000969 6.000000
65.126999 37.828770 6.125959 26.000000
58.843857 -18.870041 3.509000 12.000000
14.065079 -12.448109 0.531204 8.000000
32.964497 45.756882 4.052308 9.000000
65.246979 38.249565 6.191504 26.000000
65.530655 7.315700 5.038905 21.000000
58.921803 -18.645834 3.487711 13.000000
32.900875 45.989361 4.102895 5.000000
65.333351 38.607262 6.252452 27.000000
58.846294 -18.407478 3.458018 9.000000
65.263031 38.858273 6.284714 26.000000
65.586510 7.774282 5.070341 28.000000
58.923485 -18.194796 3.447815 9.000000
32.083839 45.532337 4.149051 9.000000
65.250519 39.190971 6.351460 20.000000
65.513031 8.009172 5.066897 14.000000
58.980225 -17.975798 3.447257 9.000000
14.187944 -12.194942 0.486636 7.000000
32.046494 45.835205 4.205182 1.000000
65.390091 39.601646 6.406003 17.000000
65.264732 8.221708 5.061538 21.000000
59.056423 -17.762726 3.426289 9.000000
14.156750 -12.078194 0.471045 1.000000
58.410339 -17.346296 3.374604 13.000000
19.590897 -16.590788 0.636380 31.000000
59.011257 -17.289644 3.384107 13.000000
19.706409 -16.570839 0.620263 10.000000
66.259407 41.114601 6.685155 13.000000
59.367359 -17.157959 3.390081 8.000000
9.996879 -8.343876 0.304593 6.000000
31.656204 46.685776 4.429371 16.000000
66.248878 41.445137 6.740593 26.000000
59.339760 -16.914574 3.363339 7.000000
10.039023 -8.316813 0.300393 6.000000
31.663548 47.067078 4.504318 1.000000
66.003891 41.613152 6.771566 28.000000
59.370728 -16.699541 3.340178 8.000000
10.166123 -8.359467 0.294084 1.000000
31.555473 47.279678 4.553502 4.000000
66.041298 41.975784 6.832426 23.000000
59.527195 -16.508352 3.356367 13.000000
70.289452 -57.367550 1.979701 23.000000
31.404554 47.411140 4.605527 8.000000
59.569164 -16.285103 3.333726 8.000000
31.433157 47.834209 4.695739 5.000000
59.749535 -16.099289 3.329664 5.000000
69.829453 -56.144318 1.845583 22.000000
31.203857 47.848370 4.736596 1.000000
37.199131 24.194338 3.944751 1.000000
59.972775 -15.923901 3.327968 3.000000
31.210508 48.244102 4.804808 1.000000
36.837231 24.142355 3.946280 1.000000
66.977455 44.247406 7.248946 28.000000
69.633446 -54.756763 1.685433 17.000000
66.910622 44.539528 7.300927 28.000000
50.401665 -12.800393 2.761699 7.000000
69.602058 -54.320423 1.618183 8.000000
31.525352 49.906738 5.102165 1.000000
66.995972 44.951561 7.370761 17.000000
50.216206 -12.557550 2.739937 1.000000
68.753990 -53.254223 1.548367 28.000000
31.462811 50.194935 5.162038 1.000000
50.332928 -12.400218 2.734854 5.000000
68.834602 -52.914154 1.485173 19.000000
31.005363 49.870388 5.168579 1.000000
50.374104 -12.214702 2.716498 8.000000
43.157341 -32.924725 0.900121 15.000000
30.744186 49.856899 5.206983 1.000000
67.786537 46.553566 7.671944 29.000000
43.214203 -32.718227 0.879874 13.000000
67.771782 46.892414 7.732283 29.000000
43.374279 -32.590012 0.842810 10.000000
30.404514 50.065678 5.310109 1.000000
67.532646 47.093906 7.797127 28.000000
96.401031 18.563913 7.967732 14.000000
49.973049 -11.546374 2.687975 8.000000
68.369789 -50.998405 1.295252 6.000000
30.247240 50.200832 5.375099 6.000000
67.820480 47.665031 7.894273 24.000000
96.898407 18.975588 8.031075 5.000000
50.103130 -11.383152 2.683717 7.000000
30.124470 50.414162 5.437767 1.000000
68.214935 48.298866 8.003925 17.000000
49.930557 -11.151651 2.663313 7.000000
30.150244 50.879887 5.528103 2.000000
68.388245 48.798878 8.119187 21.000000
53.794762 -11.807861 2.867103 18.000000
30.073427 51.156586 5.598969 7.000000
68.537300 49.267189 8.201861 30.000000
49.908909 -10.763338 2.648943 9.000000
29.940912 51.361130 5.661654 1.000000
68.375801 49.532207 8.263709 14.000000
49.873356 -10.573618 2.636159 7.000000
67.418594 -48.391670 1.071887 6.000000
29.938351 51.771244 5.747975 1.000000
68.267303 49.817886 8.316240 15.000000
49.715786 -10.349951 2.634695 8.000000
66.630966 -47.457256 0.999473 20.000000
29.814703 51.996258 5.824139 1.000000
68.435120 50.325783 8.433953 16.000000
49.607071 -10.137763 2.618086 6.000000
66.531319 -47.019691 0.952723 10.000000
29.738949 52.307495 5.910364 1.000000
68.691963 50.903625 8.563894 31.000000
49.570007 -9.941058 2.623037 5.000000
18.490309 -12.966302 0.256213 1.000000
68.805267 51.360626 8.645729 23.000000
49.650650 -9.768070 2.616536 8.000000
18.428841 -12.827467 0.246901 8.000000
68.868896 51.802273 8.753496 16.000000
49.551178 -9.568962 2.627182 7.000000
18.496336 -12.774067 0.243252 8.000000
68.935272 52.229965 8.861312 25.000000
96.532837 22.552715 8.428924 18.000000
49.411381 -9.372110 2.609306 9.000000
18.605032 -12.748673 0.228318 8.000000
69.199715 52.830669 8.996917 16.000000
96.595139 22.923145 8.546024 6.000000
49.351681 -9.173524 2.613145 7.000000
96.594604 22.923019 8.668179 1.000000
69.055145 52.339760 9.046029 25.000000
96.708542 22.575966 8.653456 26.000000
18.559347 -12.717368 0.263102 7.000000
68.880882 51.811291 8.998265 16.000000
97.228935 22.339849 8.745624 9.000000
18.429722 -12.737565 0.289362 55.000000
68.719650 51.315399 8.893225 18.000000
97.569153 22.041845 8.751307 22.000000
18.550985 -12.922101 0.303847 7.000000
29.653561 52.157310 6.030869 7.000000
68.600838 50.836098 8.838614 17.000000
97.566620 21.665733 8.743899 5.000000
18.445990 -12.949635 0.322575 5.000000
29.863310 52.102097 5.972984 1.000000
68.606102 50.451519 8.770343 20.000000
18.247681 -12.900962 0.331557 5.000000
29.964014 51.836498 5.912876 2.000000
68.362442 49.905602 8.687015 26.000000
66.818604 -47.643654 1.289178 29.000000
30.048622 51.566582 5.862463 5.000000
68.358032 49.519333 8.633557 21.000000
29.952579 50.971375 5.755151 1.000000
68.509895 49.265625 8.586323 21.000000
53.737160 -11.628202 3.131668 9.000000
30.168377 50.930759 5.710279 1.000000
68.418289 48.820312 8.507897 22.000000
53.685959 -11.813447 3.140693 20.000000
30.316048 50.754887 5.661325 6.000000
68.280975 48.363522 8.455024 23.000000
53.562748 -11.992325 3.164870 1.000000
30.430876 50.545521 5.608222 8.000000
67.734016 47.604259 8.307249 18.000000
53.590900 -12.205066 3.178781 1.000000
30.382889 50.049755 5.524291 5.000000
67.533722 47.112179 8.247950 29.000000
68.425545 -51.095779 1.699369 9.000000
30.705414 50.185295 5.499253 3.000000
67.783127 46.917759 8.213757 29.000000
96.136086 18.095598 8.524112 1.000000
43.395641 -32.653488 1.109156 13.000000
67.731491 46.533161 8.158799 29.000000
43.230553 -32.754353 1.155059 18.000000
30.988903 49.843910 5.403349 1.000000
67.651367 46.114040 8.071014 17.000000
43.153843 -32.969742 1.184985 19.000000
31.200945 49.815796 5.370106 1.000000
50.316360 -12.405452 3.087935 1.000000
68.848373 -52.962982 1.956028 24.000000
31.478365 49.851624 5.344868 1.000000
66.985527 44.961517 7.881909 29.000000
50.336765 -12.606368 3.119270 1.000000
68.735664 -53.278427 2.019107 14.000000
66.772217 44.464214 7.795177 25.000000
50.435329 -12.827683 3.128270 1.000000
69.549927 -54.338360 2.095378 14.000000
66.890785 44.206917 7.776832 21.000000
31.076603 48.037117 5.045733 1.000000
36.959538 24.231735 4.263265 1.000000
62.258888 -49.381180 1.997591 17.000000
31.289268 47.979336 5.021452 18.000000
37.366997 24.312798 4.276891 2.000000
60.066788 -15.971311 3.801493 2.000000
62.306740 -49.792255 2.060687 1.000000
31.261889 47.591682 4.941635 14.000000
59.645832 -16.093679 3.789382 10.000000
31.408257 47.416725 4.885952 7.000000
59.492836 -16.308884 3.805405 10.000000
31.544992 47.246109 4.840301 8.000000
66.055000 41.968311 7.411513 28.000000
59.397072 -16.516932 3.835531 9.000000
31.544580 46.925598 4.787775 11.000000
66.051613 41.627125 7.352721 28.000000
59.475826 -16.751509 3.855008 7.000000
10.164027 -8.366667 0.374621 6.000000
31.715897 46.808979 4.738012 8.000000
66.250420 41.430019 7.317434 28.000000
59.314926 -16.929884 3.870003 10.000000
10.052301 -8.336694 0.380752 6.000000
31.687109 46.416748 4.669969 7.000000
66.548912 41.278160 7.292283 4.000000
10.052206 -8.398990 0.388776 2.000000
31.810841 46.233185 4.623752 1.000000
66.505791 40.914639 7.257329 1.000000
59.238628 -17.378717 3.927322 10.000000
19.654148 -16.532749 0.784687 20.000000
59.197746 -17.625116 3.918446 8.000000
14.293208 -12.121523 0.579139 7.000000
32.019844 45.831150 4.508116 7.000000
65.352989 39.563583 6.992879 23.000000
59.174210 -17.820681 3.942235 13.000000
19.566000 -16.705036 0.813003 9.000000
32.043518 45.508846 4.439051 11.000000
65.218552 39.171768 6.950432 21.000000
59.042953 -18.039976 3.970741 13.000000
14.612315 -12.577451 0.626104 94.000000
32.286888 45.499302 4.410438 1.000000
65.304909 38.898647 6.904265 27.000000
58.938576 -18.221994 3.989387 10.000000
14.632183 -12.683737 0.642382 44.000000
32.868080 45.977432 4.418254 10.000000
65.359085 38.607075 6.868270 27.000000
58.955769 -18.464317 4.016760 10.000000
14.540174 -12.697616 0.650500 126.000000
32.950306 45.737186 4.377049 9.000000
65.139923 38.171532 6.791343 19.000000
65.385345 7.264817 5.651562 14.000000
58.877518 -18.677048 4.026892 13.000000
33.061768 45.555756 4.331173 8.000000
65.211525 37.893089 6.771012 26.000000
58.780766 -18.872440 4.068042 10.000000
14.225289 -12.607620 0.670424 9.000000
33.015884 45.143543 4.254365 17.000000
65.119858 37.551517 6.708853 26.000000
14.145942 -12.621301 0.675279 8.000000
33.230209 45.088833 4.221331 8.000000
65.054726 37.181839 6.647840 26.000000
58.843948 -19.369671 4.092991 3.000000
14.157966 -12.734472 0.691599 7.000000
33.264748 44.807354 4.156851 7.000000
65.019386 36.876133 6.605400 26.000000
68.658142 6.635216 5.901374 9.000000
58.657612 -19.546907 4.106662 8.000000
13.763520 -12.462501 0.684081 9.000000
33.316971 44.535717 4.103909 7.000000
64.863914 36.459499 6.536072 26.000000
58.625477 -19.763830 4.130909 9.000000
13.711518 -12.511562 0.696855 9.000000
33.469265 44.399086 4.073326 14.000000
64.865219 36.148014 6.483629 26.000000
60.036301 79.066246 7.168480 1.000000
64.742584 35.798824 6.433450 21.000000
58.524132 -20.208618 4.166659 4.000000
60.415844 78.963509 7.126865 1.000000
64.422630 35.328838 6.376443 17.000000
66.361900 5.467602 5.696792 29.000000
58.300919 -20.371010 4.199368 7.000000
64.527466 35.050140 6.334105 23.000000
13.710731 -12.884243 0.762249 7.000000
33.732651 43.440884 3.855623 10.000000
64.397240 34.703342 6.258543 22.000000
74.242493 5.543230 6.356365 5.000000
54.168335 -19.363079 3.941842 8.000000
13.659004 -12.916679 0.771485 7.000000
33.859482 43.275852 3.813416 9.000000
64.247246 34.304836 6.192705 25.000000
74.039970 5.268286 6.311314 13.000000
54.076939 -19.554232 3.960547 7.000000
13.563161 -12.929572 0.785378 10.000000
34.007565 43.138390 3.764097 12.000000
63.955612 33.877048 6.153733 25.000000
74.181946 5.005191 6.334881 13.000000
54.078556 -19.779240 3.986145 11.000000
33.985847 42.802685 3.706800 15.000000
63.898361 33.533165 6.097734 24.000000
33.919724 42.399364 3.644534 18.000000
63.450874 33.002289 5.980594 24.000000
76.411186 4.606581 6.495355 6.000000
12.993354 -12.661986 0.795295 7.000000
34.148891 42.366558 3.604750 11.000000
63.486542 32.753815 5.948575 20.000000
76.596291 4.362864 6.496337 5.000000
13.031572 -12.779293 0.812854 13.000000
34.191235 42.117340 3.555641 18.000000
63.736996 32.573769 5.947699 24.000000
51.063786 -19.509577 3.860818 10.000000
12.922926 -12.774915 0.821981 8.000000
34.211098 41.827576 3.503855 16.000000
64.535423 32.712372 5.986620 25.000000
50.930199 -19.672756 3.875297 13.000000
12.964087 -12.909897 0.840403 28.000000
33.926598 41.185539 3.431916 1.000000
65.020859 32.631023 5.981101 25.000000
50.660736 -19.782360 3.888906 16.000000
12.990314 -13.031188 0.858067 14.000000
33.945381 40.901932 3.372054 18.000000
65.426247 32.549065 5.982224 25.000000
50.620361 -19.980724 3.891402 17.000000
12.958378 -13.090222 0.871858 8.000000
65.956726 32.540569 5.982063 25.000000
50.229408 -20.029341 3.885672 16.000000
13.002120 -13.221818 0.887478 15.000000
66.211739 32.365181 5.968498 26.000000
50.200649 -20.231438 3.908149 10.000000
12.827548 -13.140286 0.891693 9.000000
66.654747 32.279594 5.971705 20.000000
50.188919 -20.440855 3.941565 10.000000
12.768436 -13.176004 0.903775 8.000000
34.343224 40.182335 3.186698 17.000000
67.025948 32.171009 5.955685 26.000000
49.862335 -20.511059 3.940437 10.000000
12.803845 -13.314464 0.922821 7.000000
34.484238 40.077473 3.150390 13.000000
67.433372 32.063000 5.955174 23.000000
49.739506 -20.674009 3.955595 10.000000
12.828162 -13.428596 0.940776 7.000000
6.697500 7.729080 0.604024 1.000000
67.863441 31.963049 5.956418 26.000000
49.660843 -20.855101 3.993199 10.000000
12.833379 -13.533016 0.957844 7.000000
6.728748 7.702447 0.596884 1.000000
68.194221 31.828470 5.936012 25.000000
50.254253 -21.321314 4.047171 10.000000
12.799017 -13.605756 0.972424 7.000000
35.055328 39.860527 3.051414 10.000000
68.552101 31.690037 5.930487 26.000000
49.848213 -21.354675 4.039485 10.000000
11.785183 -12.611557 0.910652 8.000000
35.282341 39.795380 3.029307 14.000000
68.728592 31.466408 5.909191 24.000000
49.264957 -21.318851 4.017367 11.000000
11.681918 -12.597671 0.918432 10.000000
6.809855 7.632479 0.575462 1.000000
69.213074 31.396442 5.901352 25.000000
49.290279 -21.544640 4.044727 10.000000
11.597925 -12.599402 0.930440 7.000000
36.033119 40.089134 2.975893 14.000000
69.579666 31.255747 5.896015 27.000000
49.364010 -21.782413 4.075933 7.000000
11.549011 -12.630063 0.938859 8.000000
36.377934 40.203796 2.964869 12.000000
69.671143 31.019592 5.868238 19.000000
11.442846 -12.610852 0.949064 11.000000
36.567135 40.116371 2.920777 10.000000
70.113853 30.923893 5.869492 20.000000
11.261270 -12.484979 0.945903 10.000000
6.884369 7.499820 0.544226 1.000000
97.921684 -0.751999 8.291806 1.000000
11.221650 -12.533113 0.958210 6.000000
6.851174 7.408964 0.528855 1.000000
97.838554 -1.109991 8.285056 19.000000
48.796001 -22.361158 4.139537 9.000000
11.309907 -12.734178 0.985015 7.000000
6.898955 7.405993 0.523359 1.000000
71.849625 30.750267 5.890098 23.000000
98.068230 -1.454978 8.304884 1.000000
11.289322 -12.791713 0.995680 8.000000
6.912633 7.366357 0.515274 1.000000
72.137444 30.575964 5.877404 9.000000
49.164932 -22.967785 4.232646 10.000000
10.939198 -12.486947 0.983368 10.000000
6.931690 7.335183 0.507719 1.000000
49.156597 -23.173271 4.238866 10.000000
10.980311 -12.635858 1.000411 19.000000
6.965657 7.317217 0.501168 1.000000
67.357758 27.969385 5.419924 13.000000
48.937248 -23.268524 4.264644 12.000000
11.042246 -12.792565 1.021754 12.000000
7.041062 7.342351 0.497535 32.000000
67.438271 27.727224 5.392990 1.000000
10.778311 -12.584159 1.013406 10.000000
7.016057 7.262803 0.488584 255.000000
67.605850 27.506884 5.372676 5.000000
10.661568 -12.531730 1.020744 27.000000
7.052110 7.249312 0.480483 251.000000
67.288704 27.090820 5.288634 6.000000
7.061386 7.205817 0.472253 255.000000
47.794067 -23.579798 4.269233 9.000000
10.615699 -12.660269 1.045264 11.000000
7.063417 7.155239 0.463598 250.000000
57.888794 -2.517357 4.896206 22.000000
47.763676 -23.772469 4.292647 9.000000
10.539909 -12.663870 1.056802 35.000000
7.093343 7.133071 0.456805 250.000000
57.884632 -2.719645 4.896627 28.000000
47.709835 -23.964254 4.323811 9.000000
10.543796 -12.763391 1.073480 28.000000
7.100751 7.090843 0.448666 243.000000
57.889202 -2.932540 4.897890 29.000000
50.158497 -25.446857 4.574709 10.000000
10.495536 -12.795676 1.084711 32.000000
7.098533 7.036855 0.439901 255.000000
58.136765 -3.158751 4.919782 24.000000
50.201111 -25.667099 4.605741 10.000000
10.243345 -12.581985 1.074782 9.000000
7.124547 7.011057 0.431178 244.000000
58.394829 -3.377250 4.932307 23.000000
50.163563 -25.880259 4.620884 10.000000
10.168588 -12.584082 1.080279 13.000000
7.132490 6.967600 0.424880 246.000000
57.400707 -3.530890 4.869617 23.000000
10.164467 -12.669192 1.101619 10.000000
7.140312 6.924278 0.415136 239.000000
57.200146 -3.729043 4.833577 23.000000
51.014702 -26.783318 4.767444 11.000000
10.176643 -12.780053 1.116602 30.000000
7.161047 6.896045 0.407987 233.000000
60.670589 22.166267 4.505458 9.000000
57.477497 -3.948659 4.888532 23.000000
51.052753 -27.065277 4.831890 11.000000
10.101412 -12.781430 1.124907 10.000000
7.168422 6.852687 0.400039 242.000000
60.893639 21.995119 4.493296 21.000000
57.015419 -4.126927 4.850485 23.000000
50.965263 -27.247221 4.852896 11.000000
10.128592 -12.917473 1.147843 20.000000
7.175571 6.809362 0.392125 231.000000
60.901623 21.745996 4.442612 21.000000
56.946949 -4.331842 4.825900 23.000000
10.204720 -13.103821 1.173041 30.000000
7.196992 6.779731 0.386750 229.000000
61.222275 21.607821 4.437426 4.000000
10.241517 -13.250975 1.194596 13.000000
7.207391 6.739840 0.379080 218.000000
57.959499 20.229013 4.174266 19.000000
51.677467 -28.327765 5.010842 11.000000
10.255280 -13.364941 1.216413 27.000000
7.216420 6.701218 0.371437 218.000000
58.595135 20.210247 4.203814 19.000000
51.639488 -28.577126 5.049370 11.000000
9.903586 -13.005023 1.191815 11.000000
7.227727 6.667219 0.365723 227.000000
59.378490 20.237219 4.232667 19.000000
51.145714 -4.636624 4.357574 1.000000
9.879530 -13.072562 1.203304 24.000000
7.237653 6.627440 0.354703 229.000000
59.675869 20.094746 4.226507 20.000000
51.085339 -4.810995 4.344813 6.000000
10.039683 -13.381329 1.243170 26.000000
7.236148 6.577465 0.348319 196.000000
59.682163 19.865183 4.177907 20.000000
51.057449 -4.997230 4.343970 1.000000
43.186779 -24.493641 4.300081 9.000000
9.984094 -13.409336 1.254101 16.000000
7.251626 6.538566 0.337560 10.000000
60.034897 19.738470 4.186428 20.000000
50.839771 -5.164115 4.336014 1.000000
43.044201 -24.631697 4.303991 9.000000
9.866841 -13.358637 1.257466 8.000000
7.370180 6.601284 0.336871 1.000000
60.172585 19.562868 4.169299 20.000000
51.180054 -5.361178 4.366451 1.000000
43.064541 -24.833269 4.331719 7.000000
8.893143 -12.124278 1.149050 7.000000
7.410588 6.586370 0.330630 1.000000
12.693316 -7.381756 1.287238 7.000000
8.880441 -12.200475 1.163776 6.000000
7.406336 6.538759 0.322566 1.000000
59.311432 18.791910 4.067026 14.000000
12.589547 -7.380337 1.287020 9.000000
8.989013 -12.440677 1.197163 7.000000
7.456686 6.534735 0.318517 1.000000
59.565231 18.655193 4.058284 19.000000
12.536107 -7.410880 1.292010 6.000000
8.945770 -12.476909 1.208270 7.000000
7.416655 6.451746 0.308925 1.000000
59.840206 18.500751 4.039438 8.000000
53.119537 -6.343524 4.548687 4.000000
18.570204 -11.070064 1.925678 8.000000
7.455543 6.437723 0.302676 4.000000
60.822201 18.537189 4.078384 7.000000
52.912971 -6.515646 4.533014 9.000000
18.501278 -11.116690 1.926340 8.000000
7.467824 6.400700 0.297066 1.000000
60.784359 18.305586 4.049504 19.000000
52.231781 -6.616932 4.485864 8.000000
18.404173 -11.150355 1.931828 7.000000
8.519906 -12.158652 1.199746 9.000000
60.730335 18.058342 4.008372 20.000000
52.376690 -6.830433 4.481858 8.000000
12.197515 -7.448318 1.290600 3.000000
8.610674 -12.379913 1.229202 8.000000
32.857525 27.756933 1.231497 8.000000
57.552074 16.862120 3.773082 15.000000
51.990074 -6.973903 4.460154 2.000000
12.093232 -7.445626 1.289942 5.000000
8.440215 -12.230221 1.221703 8.000000
33.105225 27.758894 1.206773 4.000000
59.331009 17.147453 3.863919 19.000000
12.145665 -7.539439 1.306021 5.000000
8.366575 -12.219075 1.230530 14.000000
58.865147 16.801506 3.819204 8.000000
12.237274 -7.655610 1.321277 3.000000
8.225366 -12.103258 1.226255 10.000000
63.184757 52.196724 2.174725 11.000000
59.666740 16.794039 3.856332 19.000000
52.024967 -7.552532 4.469897 1.000000
12.191701 -7.689415 1.327002 5.000000
8.163637 -12.107648 1.236494 10.000000
63.407719 51.991085 2.118542 23.000000
59.553185 16.537949 3.823581 19.000000
52.135487 -7.754494 4.490957 5.000000
12.176804 -7.739564 1.335932 4.000000
8.106988 -12.114648 1.244561 11.000000
63.273327 51.494228 2.050741 12.000000
59.273563 16.226532 3.769485 10.000000
12.156541 -7.789388 1.339373 4.000000
7.960103 -11.989996 1.238871 10.000000
63.641880 51.407566 1.985129 14.000000
60.737354 16.388195 3.814645 18.000000
17.613886 -11.377500 1.956304 6.000000
7.844506 -11.910384 1.235189 11.000000
63.721737 51.087269 1.924715 20.000000
60.566139 16.104084 3.789181 19.000000
17.519537 -11.403420 1.953914 6.000000
7.747787 -11.853401 1.238919 75.000000
63.991726 50.919556 1.870097 26.000000
60.505325 15.850703 3.759804 10.000000
52.416714 -8.574173 4.516070 1.000000
17.468443 -11.461534 1.963924 6.000000
7.649622 -11.797408 1.240020 9.000000
63.971024 50.521271 1.807131 23.000000
61.726841 15.940661 3.798728 12.000000
52.222008 -8.738967 4.511332 1.000000
39.016888 -25.795343 4.404882 19.000000
7.656435 -11.898696 1.257805 9.000000
64.525368 50.594349 1.774837 19.000000
61.833866 15.726779 3.790567 10.000000
39.367516 -26.235020 4.480284 22.000000
7.652489 -11.988901 1.274375 15.000000
64.770744 50.404495 1.704839 6.000000
61.936588 15.511435 3.759805 16.000000
52.894276 -9.241042 4.575004 1.000000
39.204796 -26.324669 4.480512 9.000000
7.793974 -12.305060 1.315333 10.000000
64.837051 50.075626 1.658829 11.000000
52.707226 -9.407570 4.571189 1.000000
18.705652 -12.659918 2.158972 5.000000
7.668861 -12.206273 1.311907 9.000000
60.625645 14.711696 3.618953 9.000000
52.802288 -9.614843 4.572881 1.000000
18.588293 -12.680073 2.162666 9.000000
7.725816 -12.392748 1.339322 9.000000
68.737762 52.288349 1.597981 23.000000
60.563251 14.461716 3.601136 9.000000
18.633842 -12.806685 2.177136 6.000000
7.674488 -12.411514 1.351144 12.000000
68.897896 52.012623 1.536974 32.000000
63.191257 14.856287 3.708824 4.000000
38.870792 -26.925451 4.561405 25.000000
7.643762 -12.458838 1.361102 10.000000
68.872864 51.598518 1.472089 24.000000
66.465607 15.369234 3.885725 6.000000
39.056202 -27.256117 4.619470 29.000000
7.615665 -12.515725 1.374576 10.000000
68.617195 51.015392 1.387981 12.000000
68.986580 15.686028 3.992556 3.000000
39.036133 -27.455414 4.645783 9.000000
7.548403 -12.503262 1.378020 10.000000
68.030441 50.229713 1.328446 23.000000
69.284355 15.486889 3.969188 3.000000
38.875916 -27.525682 4.645377 25.000000
7.527474 -12.572513 1.395505 15.000000
67.700150 49.567169 1.230214 14.000000
38.832634 -27.729736 4.670284 9.000000
7.452893 -12.552101 1.400482 9.000000
74.997528 16.187639 4.208981 24.000000
39.106571 -28.131983 4.723500 27.000000
7.421289 -12.598848 1.410526 10.000000
74.741051 15.845801 4.151175 1.000000
39.046181 -28.306284 4.745702 32.000000
7.474688 -12.791396 1.439593 9.000000
75.286049 15.673230 4.110924 11.000000
38.903599 -28.410616 4.731908 26.000000
7.499857 -12.943138 1.458839 8.000000
66.874306 47.842003 0.861095 9.000000
75.088997 15.632207 3.939085 19.000000
38.896004 -28.384256 4.644943 26.000000
66.889435 48.206696 0.863451 12.000000
74.659164 15.814827 3.892699 4.000000
39.132431 -28.347979 4.601753 21.000000
7.601759 -13.008851 1.432219 9.000000
66.942757 48.618908 0.880875 10.000000
39.156090 -28.167603 4.559548 27.000000
7.384900 -12.532069 1.364768 32.000000
67.227829 49.203335 0.916078 5.000000
69.363884 15.225259 3.572622 15.000000
38.714039 -27.614454 4.436519 9.000000
7.421335 -12.489018 1.347687 26.000000
67.340645 49.665951 0.934695 1.000000
66.293442 14.794044 3.417116 9.000000
38.882416 -27.530283 4.402841 28.000000
7.509099 -12.536858 1.340236 24.000000
67.454834 50.132919 0.968165 1.000000
66.385445 15.070219 3.412771 19.000000
38.906132 -27.353834 4.370117 22.000000
7.571167 -12.536021 1.327640 23.000000
68.186768 51.065929 1.011091 13.000000
66.592514 15.374093 3.426291 13.000000
38.796879 -27.065079 4.305048 25.000000
7.589289 -12.462580 1.307395 24.000000
68.497711 51.691746 1.048463 1.000000
63.006752 14.789701 3.233240 15.000000
38.750896 -26.832396 4.248056 22.000000
7.609892 -12.398778 1.290684 8.000000
68.574966 52.126732 1.112569 14.000000
62.011822 14.784738 3.195968 20.000000
18.553741 -12.746865 2.009011 7.000000
7.579867 -12.248928 1.265300 7.000000
61.976631 15.016627 3.196970 20.000000
18.574604 -12.656489 1.994131 10.000000
7.660177 -12.282685 1.256267 9.000000
64.790413 50.003506 1.128520 15.000000
61.683037 15.185058 3.195790 13.000000
42.635956 -28.845013 4.521742 9.000000
7.711029 -12.263885 1.244491 32.000000
64.211571 49.933365 1.164217 12.000000
60.100945 15.029424 3.116655 16.000000
42.694588 -28.646326 4.489134 9.000000
7.735281 -12.202971 1.225937 13.000000
63.992218 50.140247 1.206140 1.000000
60.101948 15.263950 3.152138 19.000000
39.072655 -26.028673 4.074439 21.000000
7.700393 -12.054670 1.206189 12.000000
63.454517 50.095379 1.227685 6.000000
60.131565 15.495108 3.134778 16.000000
41.125259 -27.158323 4.233750 8.000000
7.629200 -11.847282 1.173367 57.000000
63.383266 50.417328 1.286428 28.000000
60.344376 15.786031 3.159782 19.000000
41.146793 -26.987291 4.183962 9.000000
7.673887 -11.825784 1.159020 10.000000
60.439484 16.047821 3.189705 10.000000
39.489128 -25.693560 3.980957 9.000000
7.805027 -11.931877 1.159688 10.000000
63.206505 51.019440 1.375303 12.000000
58.780025 15.838058 3.094518 17.000000
17.816759 -11.499731 1.776963 6.000000
7.843884 -11.895876 1.143957 9.000000
59.148579 16.136845 3.127302 19.000000
17.832401 -11.421844 1.763370 8.000000
59.814770 16.576860 3.166018 19.000000
12.103301 -7.683952 1.181188 5.000000
8.147835 -12.157315 1.146671 16.000000
50.884850 -7.396088 3.803085 1.000000
12.115256 -7.638247 1.172457 3.000000
8.202497 -12.151549 1.138389 24.000000
62.415024 51.910027 1.530399 1.000000
58.364666 16.636625 3.127496 18.000000
50.745708 -7.186043 3.763711 1.000000
12.185944 -7.620538 1.169011 4.000000
8.312705 -12.222595 1.134780 27.000000
62.434258 52.314327 1.592449 1.000000
58.742790 16.966341 3.150912 18.000000
12.151124 -7.536953 1.150453 2.000000
8.338382 -12.164232 1.116657 10.000000
32.844402 27.716391 0.870207 11.000000
12.241198 -7.533781 1.153960 5.000000
8.433772 -12.202653 1.110131 26.000000
32.788063 27.875238 0.886444 5.000000
60.616169 17.989857 3.291580 12.000000
12.252565 -7.478998 1.139833 5.000000
8.495981 -12.196841 1.101993 20.000000
7.449045 6.380095 0.205445 1.000000
59.904305 18.017748 3.256489 5.000000
52.110580 -6.610820 3.792917 4.000000
12.318950 -7.457682 1.133342 1.000000
8.591451 -12.247103 1.093351 15.000000
7.436854 6.417056 0.212617 7.000000
59.195126 18.030005 3.242997 19.000000
52.737850 -6.503426 3.827575 7.000000
40.937748 -24.568716 3.732408 9.000000
8.523774 -12.051934 1.065892 6.000000
7.447096 6.473661 0.222202 2.000000
59.769093 18.421635 3.288717 10.000000
13.037142 -18.304417 1.606915 9.000000
7.430751 6.507422 0.227599 7.000000
59.251457 18.522863 3.264300 6.000000
12.524920 -7.398367 1.121869 9.000000
13.105233 -18.251301 1.586951 8.000000
7.392904 6.520015 0.232299 5.000000
59.359997 18.773102 3.295484 12.000000
12.551341 -7.354997 1.111714 9.000000
8.896515 -12.303611 1.059044 7.000000
7.415974 6.584209 0.240636 7.000000
58.443310 18.719097 3.269861 18.000000
50.894211 -5.528881 3.669606 8.000000
12.651999 -7.351819 1.110529 1.000000
8.774647 -12.041872 1.026211 6.000000
7.400530 6.623813 0.247934 5.000000
59.192043 19.209822 3.326747 19.000000
50.914772 -5.342374 3.660671 7.000000
43.321480 -24.971359 3.768536 9.000000
13.212824 -17.987080 1.517607 24.000000
7.390987 6.664224 0.251907 3.000000
51.168491 -5.179461 3.659480 6.000000
9.858351 -13.327661 1.115608 34.000000
7.398323 6.715451 0.259895 6.000000
58.614742 19.475809 3.323485 17.000000
50.912151 -4.991980 3.631033 6.000000
51.068733 -28.940384 4.351781 11.000000
9.788563 -13.132364 1.085027 14.000000
7.324437 6.699860 0.263402 4.000000
58.391537 19.639578 3.314888 19.000000
51.374985 -4.829227 3.644528 1.000000
51.119263 -28.733738 4.316641 11.000000
9.780873 -13.026900 1.067706 32.000000
7.316784 6.737561 0.269141 17.000000
59.616615 20.283541 3.410480 9.000000
51.404793 -28.646805 4.300878 11.000000
9.856206 -13.027514 1.056394 17.000000
7.282178 6.759914 0.277541 24.000000
59.174862 20.398645 3.411779 20.000000
50.970791 -28.160608 4.215033 11.000000
9.884875 -12.956978 1.036747 16.000000
7.266953 6.790785 0.281292 22.000000
58.833447 20.499489 3.395995 19.000000
51.005104 -27.947624 4.179167 11.000000
9.956363 -12.966009 1.028509 12.000000
7.210387 6.792349 0.287077 35.000000
58.471794 20.637064 3.401584 18.000000
51.407120 -27.923409 4.172904 11.000000
10.073036 -13.009506 1.020744 32.000000
7.194929 6.822961 0.294289 49.000000
58.325043 20.791557 3.429350 8.000000
57.040520 -4.338960 4.000185 16.000000
51.892448 -27.941206 4.183282 11.000000
9.993821 -12.819156 0.997012 17.000000
7.142003 6.820278 0.299997 149.000000
59.543480 21.472197 3.527757 20.000000
56.881897 -4.127242 3.978024 19.000000
51.723209 -27.617620 4.130987 11.000000
10.076028 -12.831974 0.986448 26.000000
7.145617 6.873980 0.308134 171.000000
59.267399 21.618439 3.516071 20.000000
51.848034 -27.440535 4.102029 5.000000
10.216320 -12.912921 0.984006 8.000000
7.145341 6.924317 0.316167 233.000000
59.261547 21.862738 3.542572 9.000000
10.295118 -12.914955 0.975459 7.000000
7.119834 6.950382 0.319640 255.000000
57.139378 -3.524825 3.963010 23.000000
51.764244 -26.923798 4.008425 7.000000
10.225143 -12.735710 0.947449 19.000000
7.113187 6.992550 0.327407 241.000000
68.905540 25.982275 4.181660 9.000000
50.059200 -25.804295 3.849293 10.000000
10.187507 -12.594000 0.925495 23.000000
7.112201 7.043025 0.335543 233.000000
68.781853 26.223976 4.179959 9.000000
58.319206 -3.168664 4.043119 14.000000
49.946442 -25.514898 3.803902 10.000000
10.189849 -12.502897 0.910242 9.000000
7.089710 7.072408 0.342702 244.000000
68.702545 26.482555 4.206795 1.000000
58.390396 -2.968147 4.037058 24.000000
49.934013 -25.289154 3.776582 10.000000
10.536145 -12.826913 0.922238 26.000000
7.077670 7.112342 0.350391 241.000000
68.408302 26.643776 4.220157 9.000000
58.515476 -2.759520 4.044981 13.000000
49.961243 -25.073286 3.742265 10.000000
10.445401 -12.630808 0.899146 33.000000
7.077213 7.161709 0.358642 243.000000
68.001579 26.772823 4.239485 19.000000
58.345795 -2.537230 4.032581 9.000000
50.272865 -24.999430 3.739032 10.000000
10.357799 -12.431816 0.876347 31.000000
7.050694 7.187373 0.367428 244.000000
67.470200 26.876938 4.238487 18.000000
58.299873 -2.321182 4.028792 8.000000
50.003399 -24.637251 3.682933 10.000000
10.396313 -12.381063 0.861428 22.000000
7.038066 7.227300 0.375200 230.000000
67.212616 27.032925 4.253288 16.000000
58.188690 -2.113344 4.010363 16.000000
50.036449 -24.436848 3.659541 14.000000
10.556968 -12.488063 0.859855 30.000000
7.035747 7.278099 0.380035 173.000000
67.427673 27.393250 4.272923 9.000000
58.067814 -1.895871 3.981151 10.000000
50.334568 -24.354361 3.635587 10.000000
10.697041 -12.560095 0.853072 26.000000
7.010067 7.302372 0.388869 8.000000
67.422401 27.679441 4.304518 13.000000
97.410576 -2.823014 6.677752 11.000000
10.717470 -12.491045 0.836644 18.000000
6.952045 7.295266 0.394176 1.000000
67.576004 28.060009 4.359928 21.000000
97.524551 -2.485640 6.684929 8.000000
49.180820 -23.363291 3.492374 10.000000
10.707034 -12.382356 0.817790 33.000000
6.945670 7.342272 0.402405 1.000000
67.905029 28.447071 4.412691 19.000000
97.473167 -2.126872 6.680828 1.000000
48.870449 -22.996687 3.435930 10.000000
10.761432 -12.362169 0.810207 9.000000
6.939037 7.389324 0.410675 1.000000
48.923836 -22.803164 3.414867 10.000000
10.879574 -12.405777 0.801239 30.000000
6.892562 7.391368 0.416517 1.000000
71.973328 30.773487 4.746442 11.000000
48.995152 -22.628561 3.395397 10.000000
11.177744 -12.656379 0.808123 7.000000
6.861882 7.412754 0.421600 1.000000
49.162125 -22.487423 3.353872 10.000000
11.038699 -12.406994 0.777348 37.000000
36.771591 40.016834 2.306282 14.000000
49.067989 -22.227257 3.322995 16.000000
11.024274 -12.299704 0.767374 21.000000
6.830470 7.488189 0.438981 1.000000
70.214943 30.924574 4.746365 27.000000
49.012527 -21.985987 3.313760 28.000000
11.032905 -12.218928 0.750455 33.000000
36.357746 40.139221 2.383512 11.000000
69.762207 31.030960 4.750172 27.000000
49.392483 -21.970293 3.315824 23.000000
36.093018 40.113506 2.412610 6.000000
69.545090 31.211046 4.742410 27.000000
49.603191 -21.846596 3.277097 14.000000
11.646125 -12.722882 0.759110 7.000000
6.701145 7.502725 0.456805 1.000000
69.265266 31.376400 4.770738 23.000000
35.186329 39.687088 2.436319 7.000000
68.803406 31.471611 4.773355 26.000000
35.019764 39.778072 2.480733 17.000000
68.527519 31.649645 4.788684 26.000000
34.898586 39.934597 2.528886 18.000000
68.129425 31.754795 4.808098 23.000000
12.861985 -13.648808 0.769640 7.000000
34.711552 40.015629 2.563011 12.000000
67.853027 31.929211 4.823104 24.000000
51.056129 -21.388659 3.240233 10.000000
12.695594 -13.373690 0.743851 10.000000
34.542103 40.073936 2.596806 11.000000
67.787346 32.202301 4.866251 10.000000
51.185940 -21.222847 3.224105 10.000000
12.883000 -13.471871 0.738899 9.000000
34.351601 40.149555 2.630509 12.000000
67.086975 32.171490 4.850486 24.000000
51.350357 -21.102207 3.210825 10.000000
12.951096 -13.448781 0.727052 8.000000
34.301746 40.418617 2.685473 18.000000
66.967484 32.402187 4.889115 16.000000
51.273823 -20.830566 3.181402 10.000000
12.934552 -13.333447 0.710387 8.000000
66.299797 32.379555 4.874868 16.000000
93.003899 3.312778 6.360709 16.000000
12.967440 -13.260421 0.693056 8.000000
66.070976 32.568264 4.905527 24.000000
13.078195 -13.285257 0.686842 10.000000
33.949520 40.863361 2.802817 18.000000
65.530991 32.586906 4.899511 9.000000
51.534019 -20.310181 3.125981 10.000000
13.047515 -13.161875 0.666619 7.000000
33.804619 40.993706 2.840440 9.000000
65.015213 32.599785 4.894506 25.000000
51.455639 -20.061716 3.097406 10.000000
13.240759 -13.259259 0.660906 7.000000
64.587807 32.710590 4.910258 25.000000
51.588005 -19.875128 3.081188 10.000000
34.121536 41.986538 2.977475 18.000000
64.153641 32.744350 4.922935 25.000000
13.210196 -13.036121 0.628649 7.000000
34.147892 42.335064 3.031384 15.000000
63.511017 32.738380 4.896197 23.000000
76.701591 4.382292 5.237517 17.000000
33.982639 42.432438 3.077434 10.000000
63.285778 32.916416 4.938137 19.000000
76.956924 4.666443 5.296591 4.000000
13.092417 -12.736265 0.593159 10.000000
34.036758 42.820740 3.134839 12.000000
63.796955 33.465748 4.999743 20.000000
76.383606 4.912732 5.231493 10.000000
13.265122 -12.809981 0.585966 7.000000
33.890240 42.958714 3.183735 9.000000
63.856705 33.796116 5.052112 25.000000
56.908020 -20.746578 3.269849 9.000000
13.283416 -12.733889 0.571849 9.000000
33.837193 43.200733 3.231339 8.000000
64.082832 34.217045 5.105374 25.000000
56.896622 -20.517702 3.243885 8.000000
13.543889 -12.888659 0.567960 8.000000
33.670757 43.314342 3.278629 14.000000
64.179092 34.527988 5.160007 19.000000
57.186428 -20.408169 3.235276 13.000000
13.610805 -12.862102 0.559065 11.000000
60.914364 78.956284 6.029436 1.000000
66.335510 5.232368 4.594690 15.000000
57.243069 -20.192162 3.213024 13.000000
13.672716 -12.826069 0.546575 8.000000
60.541092 79.041405 6.106969 1.000000
64.453979 35.287525 5.267217 25.000000
66.382431 5.457629 4.599167 5.000000
57.284218 -19.970900 3.200586 13.000000
13.507767 -12.578578 0.525238 9.000000
60.142685 79.120300 6.165639 1.000000
64.667526 35.727852 5.360648 3.000000
